ply
format ascii 1.0
comment Created by CloudCompare v2.11.1 (Anoia)
comment Created 2/28/22 9:36 PM
obj_info Generated by CloudCompare!
element vertex 2030
property float x
property float y
property float z
property uchar red
property uchar green
property uchar blue
end_header
143 779 171 116 53 75 
215 181 85 141 60 1 
194 403 197 60 52 49 
175 833 144 138 114 91 
319 777 156 198 149 113 
334 414 115 76 110 142 
214 182 84 144 65 0 
214 182 85 143 65 0 
220 534 216 143 158 178 
169 768 81 159 164 176 
239 144 262 50 55 72 
251 923 101 72 56 49 
265 591 83 74 127 172 
162 592 116 50 77 115 
240 190 269 100 84 70 
258 98 231 99 84 70 
167 659 107 81 99 122 
275 938 198 119 98 82 
169 674 120 115 118 127 
237 146 206 53 94 124 
275 400 204 185 150 104 
344 665 172 134 115 127 
380 717 157 97 106 130 
240 270 293 104 59 69 
278 377 264 72 95 127 
222 242 241 112 104 99 
229 227 102 98 23 46 
283 791 85 142 131 125 
258 752 201 148 146 150 
231 280 222 106 61 51 
238 326 197 158 136 113 
223 950 213 208 160 138 
240 656 232 175 129 79 
274 596 206 64 101 141 
256 184 183 134 26 56 
192 724 55 128 156 203 
256 140 115 113 101 91 
347 617 165 36 58 76 
322 657 118 62 65 82 
297 172 108 170 70 10 
321 176 146 148 61 11 
145 569 74 153 151 156 
310 201 173 90 85 93 
288 342 195 136 138 144 
274 443 249 97 113 156 
215 186 84 116 85 69 
218 579 213 85 122 153 
283 472 199 93 117 149 
332 680 179 105 47 101 
146 723 153 69 89 117 
152 707 171 48 66 102 
256 267 150 133 133 138 
225 347 278 146 68 1 
313 484 170 82 104 141 
285 124 171 96 86 78 
219 277 247 103 113 126 
219 706 71 96 98 104 
268 214 28 124 123 128 
296 169 188 73 29 43 
150 519 158 102 113 129 
229 699 217 153 103 64 
252 502 76 103 110 120 
247 277 120 107 120 135 
274 336 304 113 126 143 
384 740 152 132 123 137 
212 385 107 95 114 134 
359 725 160 110 99 106 
148 729 91 54 42 108 
318 615 125 61 74 88 
190 419 254 106 115 152 
411 651 126 75 97 118 
230 360 57 134 146 168 
294 944 173 93 79 67 
272 627 105 188 181 191 
336 612 189 109 95 82 
261 228 159 131 109 103 
297 296 175 152 152 160 
168 678 121 110 117 129 
261 284 294 84 106 127 
227 291 68 126 121 122 
331 583 137 106 108 115 
268 141 95 89 79 69 
223 384 73 89 141 201 
283 247 109 92 29 39 
115 787 118 153 170 193 
214 415 283 82 107 131 
153 610 53 151 148 152 
217 759 201 175 147 119 
336 453 115 58 92 125 
179 425 216 104 122 156 
423 675 120 113 138 170 
274 901 186 148 109 78 
277 593 82 100 85 115 
402 735 148 189 68 97 
151 534 90 121 119 121 
169 466 217 107 115 129 
209 912 201 109 89 71 
351 633 120 184 187 203 
295 486 185 71 102 131 
261 140 97 82 71 60 
224 293 27 138 132 137 
225 372 193 118 106 95 
217 180 89 138 63 0 
217 181 89 137 63 3 
300 215 172 98 33 57 
285 478 80 156 157 168 
196 822 94 199 162 120 
203 409 142 45 76 100 
217 183 88 142 59 0 
163 650 47 82 129 170 
246 711 210 87 93 111 
201 702 218 119 153 185 
364 627 155 34 60 78 
249 232 214 66 83 100 
165 756 85 102 122 168 
178 714 217 127 147 169 
257 258 146 94 102 112 
200 784 76 180 36 59 
262 665 101 70 110 144 
145 574 71 144 146 154 
220 178 91 135 58 2 
271 888 163 138 105 78 
260 343 68 206 198 202 
155 705 135 58 77 107 
391 659 117 80 72 124 
221 346 101 90 109 128 
326 630 204 55 68 82 
319 616 128 71 78 87 
264 569 221 58 77 112 
156 484 90 97 102 118 
281 224 96 38 57 88 
182 676 42 90 159 215 
301 406 162 103 116 135 
370 760 116 177 152 129 
160 483 171 31 73 111 
297 463 178 50 81 131 
228 877 208 162 125 106 
268 370 220 131 108 81 
327 504 99 169 163 165 
260 236 150 136 76 84 
222 179 93 136 61 1 
215 347 82 126 131 141 
244 231 281 142 73 9 
227 796 86 168 142 117 
250 153 151 128 75 37 
284 458 77 54 86 150 
279 571 201 117 138 165 
281 834 111 221 163 127 
220 181 92 136 59 0 
237 335 128 74 107 135 
221 181 92 136 59 0 
273 870 137 120 93 66 
277 154 57 110 73 49 
139 792 164 152 118 107 
202 907 185 162 120 94 
273 471 82 57 92 138 
201 352 59 122 78 87 
279 835 128 193 140 112 
247 294 175 82 101 120 
201 954 144 89 74 64 
249 280 42 126 121 121 
166 691 196 152 151 156 
286 341 117 85 85 90 
174 673 198 77 103 138 
145 560 170 154 149 149 
218 995 142 112 84 59 
277 474 82 83 109 141 
274 33 117 173 150 144 
196 919 136 102 81 66 
277 291 54 114 139 166 
256 256 143 121 43 73 
207 713 217 99 87 131 
126 767 92 133 140 201 
355 707 108 156 30 35 
311 517 175 95 116 152 
157 484 96 77 90 116 
254 558 224 116 137 178 
219 541 44 100 110 122 
226 192 261 92 103 117 
201 405 161 78 71 65 
154 541 137 35 67 107 
271 909 117 82 65 51 
235 348 301 140 126 115 
281 301 281 151 148 152 
269 150 250 105 61 28 
216 721 65 140 141 147 
269 368 74 68 92 118 
314 553 90 153 146 146 
317 372 93 62 107 145 
179 464 141 80 87 98 
326 559 167 108 123 145 
283 277 65 75 87 100 
216 191 84 131 30 28 
216 191 85 130 35 29 
119 752 92 128 138 180 
274 809 158 189 135 112 
228 360 219 130 114 97 
326 628 198 47 35 29 
276 626 105 194 184 189 
275 211 67 64 40 31 
240 806 90 160 141 129 
352 646 199 61 87 159 
307 327 88 208 150 83 
196 621 207 157 154 158 
187 415 232 65 75 86 
208 966 141 132 108 86 
220 925 116 82 66 51 
295 688 100 123 129 139 
368 771 121 199 181 167 
218 184 90 134 62 6 
323 182 170 136 83 82 
161 773 184 138 46 87 
234 223 229 70 65 63 
324 727 100 58 52 56 
300 302 82 122 130 142 
165 645 148 35 49 86 
147 546 183 48 79 113 
270 484 219 121 135 159 
219 186 89 97 106 114 
279 549 75 132 151 181 
216 317 46 138 138 144 
240 934 90 85 69 54 
195 924 134 132 102 79 
272 688 97 121 124 137 
263 10 121 105 93 84 
170 668 46 89 142 183 
206 606 212 182 176 179 
223 215 242 73 78 85 
329 738 173 179 165 156 
262 207 176 137 88 66 
238 294 110 132 62 12 
121 766 94 102 127 163 
159 685 63 161 162 173 
284 352 177 129 116 105 
217 372 261 117 105 93 
133 649 79 64 94 128 
220 184 91 125 69 25 
280 421 246 90 114 154 
195 411 168 55 58 71 
276 156 53 106 72 44 
394 654 192 158 179 211 
239 725 206 108 93 88 
220 185 92 105 86 80 
248 202 150 64 94 118 
140 791 164 136 85 86 
268 981 120 134 105 76 
109 670 82 47 88 136 
264 196 256 54 58 75 
208 621 213 183 177 180 
244 486 83 71 85 99 
337 626 197 129 89 73 
263 136 84 88 79 71 
318 426 136 56 80 103 
214 388 114 97 111 129 
280 370 254 91 75 83 
287 910 143 77 58 44 
306 589 90 125 127 134 
222 187 93 110 99 102 
223 292 27 132 150 172 
135 670 131 60 78 104 
209 701 219 111 150 184 
290 186 99 90 49 75 
276 164 250 134 130 130 
300 504 185 125 139 159 
293 377 135 127 126 131 
221 312 269 167 141 114 
278 177 250 125 105 115 
183 734 216 186 12 63 
210 460 77 157 158 166 
149 730 175 129 143 160 
261 1007 135 149 118 86 
156 670 61 96 148 187 
317 466 161 86 111 136 
301 415 165 67 90 129 
236 832 98 188 131 90 
236 275 214 83 95 108 
130 622 91 132 99 71 
230 730 79 102 118 139 
228 259 95 32 51 102 
221 190 93 128 38 36 
221 191 92 128 33 40 
301 200 170 121 56 56 
238 456 85 159 162 172 
281 122 182 107 96 87 
205 962 178 115 93 76 
225 813 167 192 134 115 
155 521 91 104 106 113 
173 633 126 117 125 137 
283 321 103 74 99 122 
305 704 97 113 74 67 
230 225 233 67 88 106 
193 460 253 107 115 139 
291 184 184 104 53 58 
226 128 67 110 87 59 
226 129 67 109 86 59 
166 751 82 103 122 167 
154 574 173 135 135 142 
226 130 67 108 87 60 
382 652 115 123 135 174 
235 368 304 50 79 117 
383 633 162 94 82 69 
249 651 225 169 136 110 
224 129 68 114 89 59 
244 547 63 189 185 191 
195 660 208 154 151 155 
228 247 278 145 141 142 
273 683 206 85 56 45 
410 674 184 139 166 208 
315 518 173 49 76 129 
237 563 68 104 118 137 
257 248 182 80 54 66 
150 516 162 91 105 123 
290 659 111 110 119 133 
211 381 278 92 105 118 
273 397 223 119 53 1 
258 811 165 192 129 109 
239 885 116 143 107 73 
226 132 67 110 88 62 
109 687 78 108 128 152 
227 132 67 107 86 61 
253 922 218 167 133 107 
244 617 96 160 163 181 
219 732 69 138 148 158 
237 855 186 121 94 67 
279 361 207 149 20 69 
224 132 68 112 89 60 
108 688 120 75 107 144 
216 359 98 140 139 144 
280 367 279 80 104 136 
203 765 198 142 141 150 
182 428 225 86 103 137 
194 399 88 114 123 136 
333 534 119 64 90 135 
237 911 102 68 55 45 
283 732 206 166 158 157 
312 444 160 57 86 122 
335 544 124 118 134 153 
204 744 210 108 37 78 
215 383 186 92 71 51 
228 131 67 107 86 61 
280 809 90 225 157 117 
198 932 172 76 60 47 
299 203 225 142 70 72 
230 129 67 99 82 64 
188 423 144 51 71 88 
259 572 82 115 146 183 
261 208 181 103 77 74 
306 605 92 155 154 161 
206 919 203 135 102 83 
235 820 93 127 91 63 
295 260 159 117 15 58 
143 818 157 80 96 112 
248 982 114 92 70 43 
234 609 74 59 102 189 
173 517 48 86 104 124 
287 369 82 80 109 141 
112 669 118 142 99 77 
135 576 96 119 95 75 
274 167 53 135 78 29 
236 739 82 127 40 63 
296 789 88 107 104 104 
224 887 123 111 80 54 
218 361 102 133 131 136 
342 799 135 203 142 106 
283 236 255 82 60 55 
316 594 171 133 124 122 
211 443 76 37 88 134 
224 415 84 88 106 134 
381 726 109 159 127 88 
235 315 210 147 128 110 
290 279 211 150 150 157 
336 475 145 128 136 150 
190 772 192 139 123 119 
294 187 114 41 81 117 
273 211 64 70 41 38 
183 443 83 71 92 113 
335 424 120 59 95 134 
180 441 98 72 95 118 
211 579 210 75 123 162 
275 563 79 236 211 190 
284 947 178 100 82 68 
302 180 124 75 83 116 
237 194 108 77 88 104 
145 569 78 129 130 137 
276 33 100 138 110 94 
262 220 173 64 102 131 
250 280 184 126 126 131 
152 515 127 71 62 65 
257 431 283 198 189 190 
246 535 219 177 185 200 
147 614 72 59 101 134 
232 784 184 188 146 120 
337 563 153 122 134 150 
224 142 67 112 89 61 
239 171 216 102 61 58 
166 624 147 120 114 114 
242 225 281 111 116 125 
188 728 57 151 176 215 
242 523 222 144 167 198 
264 829 146 167 124 103 
253 280 159 135 135 140 
262 596 86 200 197 203 
222 319 75 80 112 138 
328 767 97 168 147 131 
305 386 119 95 100 110 
270 367 75 78 98 122 
204 531 45 62 94 121 
332 420 131 71 101 140 
154 592 52 150 151 160 
281 24 118 121 113 108 
293 655 205 44 62 78 
199 353 60 127 69 91 
149 506 64 94 113 136 
235 622 208 157 142 138 
167 664 135 62 73 97 
229 137 66 108 89 67 
281 265 262 102 120 139 
282 332 266 142 86 80 
278 280 102 103 115 130 
197 401 232 134 141 153 
163 612 43 140 146 160 
217 896 137 118 91 65 
289 801 152 201 146 118 
267 888 197 149 111 78 
200 830 153 166 140 116 
228 163 254 102 64 64 
338 761 100 180 152 126 
289 461 183 143 155 172 
243 309 182 149 129 110 
223 278 54 68 102 130 
158 487 60 125 135 149 
156 576 48 160 163 173 
211 597 43 92 134 169 
430 706 155 102 152 204 
291 349 189 107 128 150 
204 483 254 104 117 171 
126 713 76 213 203 209 
240 508 67 104 112 122 
329 791 151 198 148 113 
125 813 124 181 26 35 
300 172 218 43 73 104 
151 544 192 173 168 170 
286 367 81 105 118 136 
226 811 90 122 102 94 
131 726 77 70 104 184 
259 595 88 174 175 188 
251 169 173 41 68 98 
232 618 210 178 170 170 
275 767 184 197 144 113 
177 801 85 201 152 117 
282 343 279 172 131 79 
302 239 205 80 109 130 
322 155 145 125 111 100 
273 483 211 81 111 152 
332 581 139 120 119 123 
350 623 190 125 100 72 
116 786 114 147 167 194 
234 339 207 116 10 50 
266 140 52 115 94 79 
131 802 156 160 104 136 
297 548 79 125 142 179 
219 319 60 86 105 125 
251 598 73 219 219 227 
233 128 68 98 84 70 
261 854 154 154 116 84 
336 568 154 117 122 135 
301 225 146 139 69 75 
223 577 62 82 139 182 
217 679 218 149 173 199 
237 951 216 188 138 112 
305 259 181 115 46 75 
274 810 158 189 136 114 
162 491 97 73 76 84 
303 683 196 150 66 73 
282 506 202 150 154 167 
167 612 188 115 130 154 
317 592 171 133 128 129 
337 477 116 74 105 148 
233 135 65 100 84 68 
228 169 233 62 78 93 
159 599 154 142 135 134 
160 486 171 81 98 115 
216 941 214 193 150 128 
306 463 173 103 119 142 
335 768 101 158 148 143 
239 340 142 136 135 139 
259 106 245 99 84 68 
272 259 273 141 137 138 
235 133 66 100 85 71 
234 135 65 99 84 69 
168 548 44 109 119 135 
286 323 199 183 154 125 
236 261 103 55 48 88 
299 211 224 110 94 97 
185 457 76 53 86 111 
255 851 158 152 115 84 
237 131 67 101 87 74 
349 637 203 72 119 155 
280 253 102 130 27 31 
164 478 64 134 140 149 
277 387 285 73 101 141 
242 322 173 133 127 125 
221 857 112 172 121 86 
299 237 145 113 108 116 
278 367 295 98 110 140 
294 257 193 52 82 105 
240 272 109 128 91 71 
393 623 141 79 109 138 
149 524 66 121 134 152 
238 129 69 99 87 75 
251 443 276 134 145 190 
149 544 166 100 110 128 
221 964 124 126 99 67 
291 214 176 78 44 52 
276 462 228 47 72 112 
305 183 130 91 70 105 
161 595 145 136 130 129 
225 259 60 121 41 18 
112 732 121 153 153 161 
373 740 154 103 77 70 
287 117 149 107 97 89 
147 633 122 63 56 53 
216 312 43 137 141 149 
285 614 92 74 158 218 
170 623 139 40 45 62 
383 676 165 142 166 195 
337 695 107 128 131 138 
217 554 209 179 176 181 
152 505 176 80 100 122 
225 692 82 76 120 155 
264 112 217 82 75 68 
238 132 67 98 86 75 
240 661 231 130 101 91 
167 638 185 105 118 146 
251 147 137 121 99 71 
303 193 194 86 22 41 
230 314 238 148 127 105 
178 589 198 51 57 94 
226 345 53 209 157 92 
271 341 219 139 109 75 
226 376 63 105 135 201 
233 136 65 100 85 69 
370 767 145 195 177 164 
231 742 203 135 116 98 
263 441 77 111 127 174 
226 851 103 164 121 87 
283 357 200 177 148 113 
246 131 149 109 97 86 
233 138 64 101 86 70 
144 688 77 111 127 199 
202 561 37 152 149 153 
203 617 212 159 157 163 
339 510 141 166 164 169 
127 610 93 128 97 68 
321 541 178 110 130 157 
235 137 64 97 84 70 
172 456 161 68 74 80 
293 380 83 72 98 121 
276 692 209 145 104 85 
245 701 92 128 137 151 
272 196 249 45 34 36 
125 515 123 133 103 87 
204 368 80 125 89 53 
189 720 219 110 128 160 
297 265 205 161 160 166 
305 175 196 51 34 51 
166 649 145 30 52 90 
245 104 257 118 97 74 
223 858 190 144 112 86 
230 313 34 174 179 198 
312 447 160 64 89 126 
211 384 230 78 58 41 
220 367 110 125 126 133 
285 403 185 136 66 21 
235 140 64 100 85 70 
248 163 197 135 52 61 
133 727 78 130 163 206 
236 137 64 99 84 70 
204 684 47 202 198 211 
163 505 206 112 128 152 
236 138 64 98 84 69 
265 415 288 170 168 173 
186 439 80 7 58 95 
321 425 137 55 86 111 
239 708 88 123 132 144 
165 502 81 55 78 99 
243 302 186 104 113 126 
281 910 169 137 93 66 
225 128 90 112 91 70 
225 129 90 111 91 70 
314 227 169 66 118 155 
366 707 111 89 78 78 
261 228 161 123 97 100 
253 942 216 188 141 115 
321 600 117 104 114 127 
157 664 113 82 97 113 
172 745 76 165 163 174 
204 955 187 120 95 76 
154 725 97 37 62 115 
347 787 148 200 142 109 
309 322 98 145 105 71 
261 200 169 132 66 70 
159 619 48 155 157 167 
317 506 86 94 112 135 
107 740 93 131 154 180 
353 622 187 111 91 71 
180 729 61 157 163 182 
146 727 90 55 60 122 
227 130 92 109 89 69 
319 426 137 57 82 105 
242 437 280 160 170 194 
258 134 131 115 101 89 
261 144 60 115 94 84 
146 759 173 114 133 153 
355 745 159 186 156 125 
284 263 76 85 85 90 
241 268 210 96 98 103 
318 551 95 148 144 145 
234 990 116 122 94 67 
224 135 89 108 88 67 
224 134 90 108 88 68 
316 461 90 151 147 150 
130 636 91 80 69 61 
227 801 174 204 147 122 
224 338 48 210 157 98 
225 135 91 109 90 70 
307 158 208 114 82 90 
256 184 195 97 33 47 
275 404 280 100 117 150 
293 168 178 93 57 63 
246 276 117 101 110 121 
253 981 192 114 88 70 
356 781 121 124 147 169 
217 226 80 54 50 81 
217 794 84 93 58 60 
155 681 69 185 183 198 
288 187 93 94 62 74 
364 646 122 125 131 185 
193 388 56 152 163 196 
274 786 174 202 146 118 
267 130 246 114 61 9 
156 675 169 121 132 148 
208 656 50 139 139 146 
223 906 206 120 92 78 
227 388 292 85 105 140 
379 626 148 84 93 108 
162 790 173 117 115 117 
214 639 61 148 149 158 
135 783 94 135 141 192 
311 562 186 191 186 190 
248 295 172 63 90 112 
144 721 141 55 82 106 
164 455 97 103 104 109 
309 192 199 87 39 48 
256 255 185 80 115 142 
296 193 233 129 84 73 
335 468 112 110 122 138 
163 660 50 93 140 177 
245 872 204 93 38 36 
201 379 52 97 125 186 
149 530 170 105 118 137 
228 134 93 108 88 67 
369 627 170 99 85 71 
291 287 197 125 116 109 
282 897 165 152 107 86 
171 779 182 151 136 139 
290 278 146 108 128 151 
139 646 124 51 67 87 
328 760 96 209 160 92 
300 144 187 145 63 4 
280 271 267 83 113 139 
273 17 147 100 73 53 
114 622 124 129 96 67 
272 882 171 143 112 80 
266 135 123 117 97 83 
273 846 125 160 111 77 
403 721 156 149 63 71 
125 760 139 106 115 139 
199 834 147 166 128 103 
265 117 247 120 108 99 
415 723 151 134 61 76 
159 484 95 103 107 124 
306 669 196 96 89 133 
258 1006 164 137 114 93 
215 458 80 160 159 168 
247 298 129 137 137 142 
170 454 123 62 80 97 
162 829 149 189 166 152 
199 832 151 202 180 162 
227 137 92 107 87 66 
208 483 69 106 114 124 
263 461 83 150 152 164 
347 622 191 126 102 74 
286 795 86 115 120 129 
271 943 115 73 54 35 
219 665 217 144 159 178 
198 717 219 109 133 159 
245 162 178 45 71 99 
245 402 77 59 92 141 
160 630 47 157 157 164 
225 141 91 107 87 67 
224 142 90 107 87 67 
147 544 73 99 123 149 
274 626 209 153 101 93 
236 203 108 99 77 82 
256 212 198 65 53 76 
296 815 100 220 164 126 
161 521 200 155 157 165 
282 19 127 118 107 101 
226 290 91 84 104 125 
275 799 164 202 138 116 
285 368 197 171 145 111 
189 667 39 74 146 204 
114 595 113 119 91 61 
140 535 105 118 94 76 
255 677 99 71 106 136 
311 331 91 174 141 102 
227 263 231 117 113 114 
220 372 207 151 134 118 
160 788 174 214 189 167 
300 209 172 115 39 56 
321 600 116 88 103 119 
250 936 98 94 75 59 
174 785 179 113 89 93 
227 721 77 134 151 172 
281 966 137 142 110 80 
133 670 70 175 171 181 
330 802 113 204 141 105 
170 718 65 116 146 179 
139 749 161 131 148 169 
195 629 34 140 146 166 
225 239 272 108 122 140 
228 139 94 107 87 66 
381 627 132 8 63 111 
185 734 60 168 177 204 
272 449 252 90 116 158 
312 357 91 92 113 148 
226 1000 165 183 155 128 
253 164 131 118 88 68 
162 766 89 158 153 167 
409 719 157 71 71 140 
327 705 179 83 81 93 
246 912 102 62 49 44 
228 140 94 107 87 66 
273 637 211 53 51 53 
123 661 130 75 104 135 
229 141 94 107 87 66 
229 141 95 107 87 66 
251 596 214 76 121 169 
294 173 231 96 68 74 
109 730 115 134 145 164 
160 631 161 100 112 132 
229 142 95 105 85 64 
188 542 42 102 117 135 
226 332 282 157 116 60 
238 203 110 125 83 74 
104 709 95 116 134 158 
317 341 103 133 91 98 
291 179 98 138 127 122 
261 969 199 91 74 56 
264 131 132 117 98 83 
307 452 170 56 86 127 
320 590 166 135 129 129 
295 943 178 98 80 65 
197 416 132 80 101 121 
272 11 135 117 103 92 
229 157 254 91 67 78 
273 386 297 66 91 149 
321 589 106 175 167 166 
137 786 161 94 38 51 
286 345 159 154 149 151 
301 206 194 79 35 55 
242 872 111 224 157 111 
172 744 207 184 28 54 
355 778 115 200 183 174 
417 721 150 89 89 109 
291 769 174 195 141 110 
232 464 264 198 191 195 
313 430 145 55 97 129 
194 807 87 220 173 106 
276 503 232 108 124 160 
221 272 83 95 94 103 
142 490 113 100 59 59 
282 959 177 81 65 53 
225 148 66 108 87 63 
218 409 283 95 114 137 
250 575 221 169 186 210 
258 997 167 104 73 50 
406 683 119 130 135 146 
225 151 65 104 85 63 
275 416 268 148 149 157 
223 824 94 172 148 132 
179 462 230 169 164 167 
201 464 69 109 126 144 
222 417 289 85 101 149 
305 745 93 58 50 43 
158 643 110 64 74 104 
312 452 162 84 104 137 
150 595 117 32 40 51 
250 1007 128 185 153 123 
226 148 66 108 86 61 
327 379 103 58 95 123 
212 707 60 161 158 163 
245 241 215 67 42 27 
255 182 198 94 27 47 
145 770 174 145 68 66 
263 642 215 64 48 99 
182 444 157 58 82 111 
191 420 97 43 88 124 
190 688 45 202 194 201 
209 691 219 129 159 190 
241 335 157 99 114 133 
238 476 84 93 98 106 
274 360 78 94 109 129 
262 139 75 101 91 84 
225 269 43 95 57 76 
312 655 193 115 158 196 
256 968 203 89 68 58 
229 147 64 105 86 65 
270 644 215 96 88 126 
273 960 188 109 86 71 
139 804 161 149 70 66 
139 827 151 85 65 101 
207 951 195 156 119 97 
117 706 123 105 119 149 
152 471 124 70 53 38 
164 549 44 137 145 157 
157 503 128 75 69 72 
297 917 161 118 88 61 
217 257 254 98 110 125 
274 329 218 142 112 75 
153 618 118 46 54 68 
256 834 100 228 161 125 
311 347 106 92 71 87 
286 359 238 185 160 136 
225 276 67 97 80 92 
323 753 96 89 74 59 
232 359 193 133 117 101 
225 154 66 104 84 61 
384 660 193 139 161 215 
306 777 92 122 99 76 
267 787 176 200 140 117 
226 153 65 102 84 63 
227 153 64 103 83 61 
211 701 219 134 157 182 
269 127 137 119 87 61 
261 197 171 133 67 70 
296 255 228 69 103 133 
114 683 99 98 89 89 
225 156 65 100 82 61 
293 251 192 79 46 67 
256 139 120 114 103 93 
256 528 63 116 138 182 
141 474 103 102 87 72 
249 766 193 179 143 114 
218 536 45 94 103 115 
279 346 295 118 128 142 
190 380 54 110 130 167 
270 534 224 92 107 144 
299 127 203 104 96 89 
163 497 204 111 123 140 
283 435 236 84 115 150 
380 730 155 147 121 108 
130 744 141 65 89 135 
226 156 64 99 81 61 
303 752 92 102 92 84 
248 946 217 197 145 119 
145 642 75 53 79 102 
311 346 105 95 70 83 
337 551 133 88 106 132 
249 860 196 152 118 90 
354 758 107 158 137 118 
242 734 85 126 42 34 
224 146 90 106 87 66 
291 222 116 113 64 55 
274 333 302 101 120 141 
195 386 81 129 97 52 
231 139 178 138 66 0 
318 392 123 71 95 120 
133 709 75 150 144 191 
103 728 96 65 93 155 
285 389 241 141 67 7 
206 631 211 175 172 177 
275 333 301 98 118 139 
204 944 196 157 125 99 
306 245 166 133 111 103 
328 567 164 120 128 143 
284 409 182 130 119 113 
244 935 88 85 70 56 
256 219 25 63 97 124 
234 773 83 155 118 67 
368 640 114 93 124 200 
237 344 183 115 35 58 
249 584 84 82 97 113 
224 148 90 107 87 67 
121 652 95 101 77 53 
373 658 123 182 177 185 
224 149 91 107 87 65 
272 498 79 76 92 107 
279 145 91 113 100 89 
124 505 117 139 103 87 
216 384 216 97 59 38 
188 742 63 184 189 207 
285 347 161 154 150 154 
209 466 76 78 101 123 
258 149 37 130 98 78 
281 375 228 149 126 99 
237 348 142 133 133 138 
169 776 184 78 93 112 
161 829 107 121 112 111 
412 729 134 205 32 61 
399 642 167 100 83 65 
163 602 143 103 104 113 
227 150 94 104 83 62 
218 718 68 126 133 145 
294 274 208 156 156 163 
201 847 118 223 169 134 
291 163 92 135 94 36 
315 224 168 68 109 141 
444 695 138 160 185 225 
171 657 44 181 177 181 
321 577 102 185 180 184 
402 708 113 150 122 120 
236 594 215 109 139 169 
124 598 127 120 90 65 
279 16 122 115 104 97 
257 905 105 96 76 56 
236 939 95 60 48 36 
360 668 166 110 89 128 
397 640 155 84 75 66 
425 644 138 130 139 151 
219 594 68 182 179 197 
280 121 194 95 87 81 
225 152 92 104 84 63 
298 133 142 103 63 9 
217 589 60 78 133 174 
238 323 199 152 129 106 
233 360 58 159 170 191 
292 468 182 78 109 141 
386 696 116 95 100 107 
150 722 146 73 89 118 
226 608 215 139 163 190 
270 695 96 112 122 136 
244 337 308 140 128 123 
387 656 194 56 101 168 
195 577 34 146 151 162 
296 373 155 104 121 141 
267 379 73 76 97 120 
277 217 72 48 45 67 
288 246 184 81 31 53 
237 152 258 37 69 93 
212 385 189 104 61 18 
152 825 108 172 56 67 
231 420 81 102 105 110 
421 659 170 121 96 68 
371 771 140 165 127 110 
224 157 93 101 86 72 
309 557 86 106 121 142 
364 653 187 160 188 219 
311 441 84 111 124 143 
278 386 202 181 150 117 
214 795 84 125 106 103 
291 516 70 90 103 118 
226 352 257 141 115 80 
239 188 219 85 68 86 
243 253 212 112 110 111 
175 449 120 54 64 76 
226 156 94 95 80 64 
269 348 74 116 136 175 
141 536 104 116 91 77 
327 577 113 138 146 160 
222 936 109 81 64 50 
139 833 132 95 58 88 
341 798 129 206 140 106 
264 152 42 124 68 37 
235 355 177 143 127 111 
235 939 103 63 47 31 
277 733 208 150 147 152 
229 241 234 64 87 107 
281 368 202 154 12 66 
240 572 77 79 139 188 
219 601 74 56 86 112 
249 438 280 109 122 162 
221 413 287 83 103 130 
272 341 73 67 114 165 
129 629 91 100 79 58 
130 675 133 105 118 135 
218 263 264 100 71 70 
199 617 209 94 111 133 
295 925 151 88 73 57 
241 131 69 105 93 82 
281 259 106 118 6 46 
240 154 202 96 77 90 
216 872 159 115 86 62 
292 428 173 94 120 150 
268 742 86 65 64 97 
147 565 172 160 156 168 
152 521 100 83 87 94 
288 295 149 145 145 150 
242 131 69 102 92 81 
214 774 74 170 129 133 
226 289 42 73 95 119 
165 640 149 37 48 94 
268 466 83 57 89 142 
240 132 67 105 91 77 
202 484 253 188 192 203 
259 190 35 71 48 50 
370 638 112 94 132 176 
257 271 48 102 110 121 
225 475 82 109 111 116 
242 594 75 129 150 174 
263 890 202 162 123 95 
291 938 141 67 53 45 
246 153 156 113 88 74 
274 302 291 137 135 139 
306 154 115 150 132 114 
220 331 93 75 108 137 
158 799 91 85 65 115 
222 323 79 75 108 136 
182 816 159 182 149 116 
292 277 228 159 156 159 
327 615 140 80 78 80 
278 554 207 73 111 165 
308 156 119 135 120 109 
275 611 95 78 171 225 
118 664 127 98 96 112 
279 371 289 66 100 134 
274 930 197 123 94 72 
247 436 281 182 185 198 
241 132 68 106 94 82 
239 206 275 41 67 90 
129 685 72 150 163 184 
213 526 49 97 107 119 
270 141 100 97 87 78 
198 486 251 92 104 161 
151 836 124 193 177 167 
256 26 137 149 120 120 
331 627 116 95 149 207 
298 314 85 205 178 151 
334 787 108 151 107 74 
276 243 71 71 54 62 
159 651 52 73 117 155 
175 422 202 116 130 149 
364 733 104 53 51 54 
206 619 52 125 146 169 
296 915 155 162 133 106 
323 566 101 124 131 143 
291 273 190 51 88 116 
230 687 222 159 113 78 
217 976 180 108 87 64 
305 149 167 116 95 71 
247 301 170 76 100 123 
244 135 64 118 110 105 
244 135 65 118 109 102 
293 717 94 117 36 24 
409 704 163 144 154 168 
327 569 110 120 135 154 
289 435 177 109 134 160 
224 895 207 165 126 105 
260 832 148 163 123 98 
245 134 67 115 107 102 
272 443 75 129 134 172 
246 135 64 126 118 111 
124 671 130 129 138 151 
257 182 174 112 34 60 
158 768 186 173 72 76 
324 532 174 113 130 158 
288 302 241 73 115 149 
333 447 141 101 127 154 
171 448 85 100 111 128 
147 608 122 62 54 53 
247 149 263 51 75 93 
210 689 55 86 131 167 
119 672 97 90 75 67 
297 232 193 29 57 94 
220 688 217 122 108 106 
246 353 65 195 191 196 
250 613 99 177 171 182 
160 829 107 121 110 107 
153 691 129 29 35 77 
165 681 188 87 106 131 
336 794 149 202 146 114 
220 567 41 154 164 180 
364 624 170 92 83 75 
153 700 143 43 81 118 
302 232 207 137 19 65 
252 819 93 203 141 99 
260 142 62 115 101 93 
238 268 27 151 160 177 
258 132 93 77 68 59 
296 180 170 64 80 101 
325 391 123 53 92 130 
226 724 212 136 67 48 
322 356 104 149 149 154 
355 726 105 77 60 49 
333 514 111 155 159 172 
451 682 137 157 177 200 
247 129 72 119 107 96 
244 399 76 143 156 185 
316 422 136 37 68 100 
223 205 246 112 48 66 
209 440 81 65 98 125 
252 466 87 125 129 140 
246 136 64 132 123 115 
306 672 199 125 76 96 
242 158 179 61 44 78 
198 814 90 95 82 70 
293 575 84 159 174 199 
314 629 206 63 64 68 
256 503 76 94 105 119 
222 750 203 132 115 105 
292 345 188 97 121 148 
331 447 103 181 183 193 
326 414 96 139 142 153 
228 301 99 96 94 95 
113 638 125 132 98 71 
188 656 37 104 164 213 
300 444 78 116 132 160 
227 169 256 123 70 64 
226 705 81 130 142 158 
149 541 170 100 102 124 
203 528 215 200 194 200 
206 937 122 87 70 57 
356 621 169 72 71 73 
216 877 196 144 115 87 
169 702 60 181 179 187 
285 286 63 79 107 132 
180 447 162 67 80 95 
251 134 70 116 107 101 
232 547 52 128 152 179 
266 970 190 92 69 56 
282 823 135 200 146 120 
370 727 156 137 109 90 
183 438 102 56 86 110 
288 238 182 75 48 48 
248 128 73 111 102 94 
216 938 215 185 142 118 
248 128 74 109 100 92 
282 349 276 142 88 59 
310 715 189 162 146 136 
299 821 115 239 181 140 
230 775 81 162 107 45 
138 476 123 79 68 59 
305 580 90 187 191 204 
195 774 72 203 1 24 
147 719 89 42 61 155 
129 820 122 95 68 135 
140 628 88 64 66 71 
235 358 159 143 124 107 
294 549 77 110 133 188 
220 374 199 110 98 88 
258 193 190 84 21 25 
151 522 154 106 118 133 
338 465 126 77 105 133 
286 484 80 110 116 129 
240 250 287 105 110 120 
265 882 122 107 78 52 
256 176 41 63 56 64 
166 481 129 62 65 74 
256 262 145 120 112 110 
204 398 194 72 67 64 
284 303 224 103 107 115 
284 739 199 113 133 154 
277 358 257 80 93 108 
266 258 280 111 120 133 
210 391 267 83 97 131 
151 730 185 128 146 166 
251 133 72 115 106 99 
251 133 73 116 106 100 
285 475 80 178 169 168 
156 602 174 137 147 168 
310 326 91 155 129 100 
284 247 112 96 40 41 
194 423 116 72 88 104 
246 162 180 51 66 93 
247 373 73 45 97 136 
244 152 158 126 66 34 
255 209 201 56 63 84 
274 614 210 103 70 100 
221 729 71 117 20 21 
153 701 144 81 101 128 
270 121 176 91 83 78 
161 644 156 73 87 118 
154 683 161 46 61 83 
316 751 175 120 91 70 
281 374 198 137 77 76 
299 513 73 103 111 123 
260 61 94 110 93 76 
273 400 217 134 60 3 
379 645 194 148 159 178 
255 130 76 106 97 90 
277 386 227 131 85 46 
255 131 76 106 97 90 
226 322 256 143 118 89 
273 310 295 144 141 143 
328 449 99 101 125 152 
184 650 202 81 114 143 
175 427 168 92 117 146 
129 721 137 54 83 129 
234 581 214 154 159 171 
233 141 257 103 71 57 
253 134 72 114 105 98 
259 785 87 153 105 53 
243 242 115 49 70 97 
271 401 219 116 46 10 
263 987 167 94 70 46 
281 342 284 167 121 58 
244 323 56 189 186 194 
221 363 108 135 133 137 
263 661 102 72 106 136 
257 67 90 103 86 68 
316 601 104 142 153 170 
138 537 128 122 90 73 
151 726 94 41 66 106 
272 807 160 192 135 112 
236 366 68 105 123 190 
304 481 81 174 168 171 
255 135 73 112 102 95 
264 988 165 101 77 54 
289 791 160 203 146 120 
242 271 111 114 72 77 
247 305 164 82 106 129 
267 187 249 43 45 64 
278 311 213 136 20 64 
290 566 196 87 115 163 
184 608 34 176 172 178 
249 136 67 119 110 104 
188 452 84 40 74 101 
286 416 197 135 122 114 
300 128 191 102 94 88 
270 33 125 127 102 98 
251 137 65 119 110 104 
147 625 74 120 98 94 
253 281 43 126 125 128 
193 720 219 170 75 77 
218 950 212 210 162 141 
155 589 157 119 115 129 
337 462 140 85 112 144 
249 220 126 109 54 71 
144 531 103 108 86 82 
267 27 136 151 112 113 
164 695 201 123 136 153 
159 686 179 67 91 135 
340 774 104 136 123 113 
166 458 192 108 118 130 
247 163 202 126 73 47 
256 263 144 134 133 137 
279 304 95 79 86 99 
233 349 204 120 31 59 
253 139 64 118 109 102 
358 633 191 123 93 70 
209 401 145 122 112 105 
228 218 269 122 121 122 
204 560 204 71 129 171 
256 210 273 107 44 43 
265 729 211 188 152 119 
220 823 161 180 125 104 
254 139 64 118 108 101 
307 668 193 101 123 153 
254 594 75 131 137 148 
234 277 27 127 139 164 
318 762 165 182 131 99 
207 825 159 199 142 120 
269 121 160 95 86 81 
290 369 190 184 159 135 
338 702 172 134 144 159 
336 427 125 68 98 140 
279 478 233 89 113 152 
158 711 197 126 138 153 
249 285 297 109 129 149 
167 673 117 111 117 128 
252 289 40 86 106 130 
283 337 272 160 122 66 
295 515 189 102 117 146 
214 855 141 169 122 93 
338 511 146 92 111 142 
170 459 159 59 73 86 
225 407 290 94 110 140 
240 319 186 115 11 44 
250 930 105 70 54 43 
300 129 214 102 96 90 
125 750 87 120 126 169 
264 942 110 74 57 48 
264 266 54 111 109 112 
222 582 65 93 141 179 
255 139 69 114 103 96 
269 634 106 163 162 174 
200 405 176 75 51 53 
173 830 103 158 136 132 
195 940 150 82 68 55 
137 704 76 129 151 191 
109 669 83 66 98 133 
299 543 188 172 178 190 
255 140 68 114 103 96 
212 395 72 91 129 190 
251 274 129 131 131 136 
161 720 208 112 138 164 
329 510 103 162 162 172 
261 690 208 69 73 81 
351 618 161 50 68 83 
152 509 102 134 102 93 
284 336 120 90 112 133 
337 708 105 113 89 79 
118 696 122 117 128 147 
408 666 118 93 124 170 
251 336 313 104 114 128 
290 313 90 73 84 96 
244 305 180 108 111 118 
145 570 75 145 143 149 
219 347 48 191 145 69 
167 593 193 109 126 146 
295 202 121 53 44 57 
231 128 99 109 87 65 
191 422 69 92 125 196 
328 714 176 112 105 109 
269 269 282 141 137 140 
255 204 141 71 93 115 
292 262 130 114 62 86 
337 613 157 94 90 91 
284 355 198 124 92 70 
224 361 278 120 107 95 
231 131 99 107 87 65 
125 786 144 127 141 158 
253 451 270 150 163 188 
292 264 153 144 4 74 
230 138 197 105 114 127 
205 618 213 164 162 168 
187 430 121 66 94 121 
158 560 47 132 139 153 
430 661 156 109 90 71 
308 214 176 105 55 61 
274 519 210 136 149 172 
239 322 124 112 108 112 
307 192 141 77 49 63 
215 577 210 86 130 164 
352 740 101 122 104 91 
148 668 74 140 134 144 
202 459 71 151 152 161 
211 393 61 103 138 201 
274 979 168 86 68 54 
312 145 164 96 83 76 
271 404 224 104 53 21 
231 134 99 107 85 64 
231 135 98 106 85 62 
268 517 66 98 114 131 
171 545 43 105 117 133 
329 617 119 78 108 135 
186 415 66 121 147 196 
279 373 270 81 104 132 
239 286 208 86 85 89 
242 323 136 76 110 139 
199 424 86 23 70 106 
326 534 104 28 74 124 
337 747 166 176 156 139 
171 619 133 52 97 128 
279 357 267 101 111 126 
450 666 142 31 62 90 
218 746 206 159 134 125 
247 663 220 175 111 49 
271 806 161 195 136 115 
191 547 204 144 162 183 
192 509 235 102 118 178 
231 141 97 105 84 63 
220 291 276 131 135 144 
239 636 92 114 141 184 
295 247 132 61 107 139 
232 301 293 153 148 150 
283 326 268 162 131 92 
346 618 187 106 90 75 
142 796 96 137 151 167 
252 280 139 120 123 131 
259 219 151 105 107 114 
187 672 209 51 54 73 
206 481 68 115 120 129 
236 560 66 156 146 147 
284 277 83 75 96 120 
270 723 89 122 36 35 
118 585 102 105 84 62 
111 671 118 142 97 78 
338 545 149 144 147 156 
212 486 253 180 186 207 
233 131 101 106 84 63 
223 385 289 62 83 137 
301 384 89 52 86 116 
386 678 120 48 60 83 
202 568 204 114 93 110 
199 673 213 147 157 173 
243 860 199 165 124 104 
273 881 145 114 86 57 
279 453 202 98 114 142 
169 637 41 84 135 176 
312 174 134 174 71 16 
332 413 109 74 102 129 
357 732 161 172 155 143 
218 325 35 121 152 197 
226 188 259 102 102 108 
188 423 241 164 166 178 
288 378 187 165 141 118 
290 354 119 140 137 140 
268 12 146 114 104 99 
295 183 235 98 83 99 
271 882 187 150 109 82 
192 613 203 127 144 164 
255 184 184 138 27 64 
321 421 90 93 104 118 
166 464 157 47 76 106 
187 473 60 79 102 126 
201 534 212 61 126 165 
131 780 152 106 98 111 
258 270 50 106 115 128 
232 135 100 106 84 62 
243 837 99 200 139 102 
280 668 106 108 115 127 
274 416 215 113 93 79 
302 131 192 96 88 83 
202 799 176 206 187 175 
284 153 246 145 69 3 
234 133 102 101 79 59 
335 496 152 160 155 158 
227 951 215 204 159 137 
220 247 246 133 127 126 
252 296 39 80 100 125 
277 265 269 84 88 101 
273 213 58 115 75 68 
302 443 79 106 128 157 
229 358 220 122 102 77 
238 345 165 152 133 115 
312 460 167 72 98 138 
220 254 67 130 35 18 
221 370 204 117 105 93 
151 677 73 190 186 207 
160 755 90 154 149 161 
254 985 117 111 82 46 
302 244 180 93 62 59 
287 340 255 131 142 157 
179 442 126 64 72 82 
155 678 165 35 70 126 
397 690 164 141 172 203 
273 397 290 107 118 155 
202 827 157 189 155 129 
122 750 89 153 164 190 
236 883 115 148 104 66 
163 622 44 152 151 158 
255 827 154 166 115 94 
244 247 115 42 67 93 
231 811 91 189 170 156 
227 370 293 56 89 122 
322 791 152 200 150 116 
266 199 254 56 37 37 
161 481 172 68 97 122 
116 723 123 149 150 158 
151 582 120 36 52 90 
239 151 194 89 81 85 
199 944 177 93 75 64 
239 135 102 90 70 49 
223 268 89 117 7 39 
218 247 75 106 40 70 
237 788 182 204 146 124 
217 991 123 134 104 72 
395 639 166 98 83 68 
287 316 170 80 108 131 
230 226 232 64 86 105 
314 703 99 57 46 46 
235 349 192 105 112 124 
332 443 104 156 156 162 
149 570 168 144 142 168 
256 268 156 111 114 121 
319 599 109 161 161 168 
283 325 267 161 128 85 
115 782 133 96 123 152 
236 132 104 95 75 55 
326 478 99 136 133 135 
341 739 166 153 129 114 
154 571 124 49 55 92 
161 721 81 154 163 190 
218 656 77 93 117 144 
161 643 172 91 116 141 
237 986 184 100 73 48 
277 543 72 141 154 177 
202 371 78 134 96 47 
251 838 100 220 154 117 
342 793 120 197 136 100 
193 404 195 60 51 45 
287 207 105 96 35 43 
169 454 194 106 112 123 
313 657 116 99 117 139 
276 501 236 102 117 158 
215 388 63 108 141 196 
339 533 137 75 105 149 
276 490 241 185 188 199 
205 396 59 142 155 198 
279 655 207 166 138 109 
296 314 84 161 159 164 
296 625 202 134 96 82 
298 235 221 105 79 93 
207 903 147 135 60 17 
223 726 210 52 36 57 
170 839 137 208 161 116 
285 299 157 149 147 151 
288 311 135 96 108 122 
248 979 199 113 90 66 
254 273 46 110 115 124 
163 679 56 96 136 167 
245 936 85 89 74 62 
368 748 109 173 133 97 
177 562 39 137 143 154 
274 926 112 70 53 43 
232 141 98 104 83 62 
204 409 75 76 112 191 
266 1005 145 111 84 57 
233 141 98 103 83 62 
316 567 93 180 170 168 
317 378 118 55 86 115 
318 802 105 204 143 106 
246 924 221 177 134 105 
176 420 204 116 127 142 
222 312 92 139 135 137 
285 386 198 178 151 125 
258 784 181 206 149 121 
287 253 187 82 75 89 
176 600 36 170 167 175 
404 633 135 97 117 137 
347 650 185 129 161 192 
325 511 170 143 154 173 
235 141 100 100 79 58 
258 151 257 33 65 103 
260 174 256 94 40 54 
246 225 219 64 84 101 
294 213 173 105 38 60 
239 152 261 56 83 107 
282 131 126 122 71 20 
377 740 109 197 170 140 
341 796 143 207 145 116 
328 550 166 149 154 166 
243 488 243 177 192 214 
236 138 100 99 78 56 
265 316 63 178 174 179 
206 915 140 153 76 45 
172 662 126 58 83 118 
257 791 177 206 147 123 
358 782 128 216 169 112 
210 390 207 79 47 14 
242 683 218 122 69 62 
409 692 118 75 96 121 
431 655 131 108 125 147 
166 767 189 151 124 96 
316 156 168 124 104 83 
235 321 214 142 122 101 
138 520 105 163 115 104 
264 783 181 205 148 121 
239 139 100 94 72 51 
169 516 49 102 115 132 
215 462 267 186 190 203 
221 863 116 167 125 94 
176 580 196 40 65 102 
315 219 161 64 100 129 
249 269 123 136 136 140 
238 347 303 119 92 85 
253 851 158 152 116 84 
283 337 172 137 140 149 
238 264 26 165 166 174 
377 726 108 135 104 65 
193 409 220 69 87 114 
173 451 135 102 115 133 
278 514 207 73 93 140 
254 599 80 216 216 227 
239 502 234 151 171 196 
212 840 147 176 133 109 
316 356 92 135 145 161 
334 731 101 110 108 111 
230 198 268 58 92 118 
366 777 136 172 164 161 
324 611 161 60 59 60 
229 147 97 104 84 61 
209 724 213 127 44 49 
251 884 205 156 121 94 
143 655 75 26 75 117 
158 497 74 85 102 122 
159 710 201 108 128 148 
271 351 313 147 144 147 
177 777 185 144 109 92 
303 268 172 77 98 115 
313 377 117 51 78 102 
324 520 174 102 127 158 
316 495 86 100 120 145 
203 460 263 132 146 173 
250 364 316 86 104 153 
178 557 201 109 157 196 
171 510 49 90 107 126 
252 536 223 152 161 184 
315 908 142 157 133 111 
254 868 113 144 95 57 
368 626 121 55 106 142 
288 350 249 173 149 125 
333 775 156 185 140 105 
278 246 70 81 69 79 
213 386 277 107 124 168 
217 231 83 100 46 42 
110 701 100 77 103 142 
149 598 118 48 46 51 
248 561 217 97 113 160 
172 656 116 68 89 118 
230 148 98 102 82 61 
240 295 113 103 75 37 
326 546 106 98 122 159 
264 748 87 128 103 76 
195 410 171 62 67 73 
246 338 309 139 128 122 
227 128 187 123 82 13 
268 552 226 128 142 169 
171 439 148 116 123 135 
384 667 120 26 64 133 
234 874 207 104 66 58 
164 660 184 129 138 151 
130 635 130 111 83 66 
419 648 141 51 68 85 
232 661 225 68 58 100 
289 523 69 88 113 143 
176 809 89 107 84 71 
254 269 174 89 33 34 
230 362 128 137 135 140 
309 813 108 223 160 120 
196 785 184 175 148 128 
175 418 76 42 81 125 
351 622 188 112 93 74 
209 416 87 98 120 151 
234 629 207 90 46 51 
284 292 212 117 132 151 
278 460 202 124 133 149 
289 367 193 192 166 137 
231 152 98 94 77 60 
306 661 113 97 106 119 
272 498 214 50 84 144 
329 402 102 102 119 139 
144 808 162 91 81 86 
272 452 220 60 89 133 
231 154 98 98 84 70 
331 399 112 38 85 127 
244 324 158 132 134 141 
145 755 170 122 140 160 
256 860 161 149 118 82 
280 603 202 104 109 119 
267 186 248 42 44 61 
258 252 172 76 109 137 
222 273 74 112 48 75 
232 908 105 74 60 49 
150 549 189 94 111 133 
256 598 79 181 179 201 
336 625 116 94 140 211 
274 674 204 172 123 46 
298 379 150 108 119 135 
199 823 94 185 154 119 
194 670 211 123 124 132 
171 831 106 180 158 142 
115 785 133 117 144 170 
245 252 287 109 113 121 
162 743 87 90 113 157 
256 316 60 183 174 176 
236 365 65 138 149 194 
241 849 160 151 117 86 
289 299 198 106 112 128 
274 418 208 107 89 66 
232 145 98 102 83 61 
380 742 152 47 31 36 
329 798 109 201 142 105 
276 538 70 137 153 187 
269 279 52 90 111 131 
139 494 132 131 97 88 
209 922 125 120 91 60 
127 660 81 77 99 119 
290 185 98 86 61 86 
287 253 190 68 78 100 
202 725 56 168 174 204 
139 655 128 41 68 97 
277 949 119 76 59 43 
281 243 101 98 36 37 
296 173 225 35 62 88 
130 796 104 190 199 212 
272 403 224 115 48 8 
205 737 60 177 189 209 
235 147 100 98 78 57 
298 299 185 160 161 169 
263 302 50 83 145 188 
149 554 120 69 67 77 
386 706 158 152 130 102 
130 643 90 82 70 64 
206 392 212 67 43 18 
148 470 99 97 82 66 
209 413 86 76 99 149 
258 634 103 150 150 165 
115 774 106 117 140 181 
205 386 240 80 67 58 
180 458 144 86 94 104 
253 528 228 106 132 179 
324 369 99 50 89 119 
237 334 125 71 104 132 
282 247 58 119 125 136 
209 612 66 90 127 168 
149 749 183 112 112 126 
236 904 107 75 62 48 
155 564 136 87 95 111 
181 792 177 181 158 143 
234 151 101 89 74 59 
235 150 100 91 74 56 
223 430 282 101 111 160 
235 151 101 89 74 59 
310 393 89 107 120 136 
142 469 111 92 79 67 
245 990 117 136 100 63 
240 180 216 93 47 59 
276 137 117 117 90 70 
111 677 122 80 101 133 
224 833 155 179 132 106 
245 938 105 72 57 48 
150 644 64 146 146 152 
268 534 234 123 155 192 
131 786 153 124 44 59 
183 817 93 162 134 118 
280 301 215 126 128 134 
147 526 103 85 73 78 
229 370 147 114 87 74 
258 864 171 125 96 62 
345 648 184 129 156 184 
238 147 101 90 72 52 
149 739 179 118 137 159 
231 552 52 145 160 182 
256 348 317 89 108 128 
291 259 218 71 116 150 
277 231 71 85 50 58 
276 288 284 82 110 135 
454 683 151 219 225 242 
203 575 206 139 81 103 
228 463 265 197 199 209 
292 288 200 154 143 137 
274 575 83 142 158 182 
201 546 205 95 143 182 
307 813 128 231 173 139 
287 208 105 101 46 50 
318 747 176 93 112 130 
307 376 114 75 70 68 
217 986 125 123 96 66 
231 637 211 57 88 112 
223 877 203 155 122 94 
133 718 140 113 123 139 
230 759 80 77 91 110 
198 724 55 181 180 200 
254 181 267 130 59 50 
280 281 111 96 92 90 
259 898 206 182 136 108 
221 253 242 122 117 117 
221 347 51 187 149 105 
309 177 201 50 35 44 
196 350 53 119 86 93 
169 605 132 54 82 111 
295 148 108 109 99 91 
230 681 222 125 99 69 
257 364 71 110 121 138 
194 799 175 140 106 77 
334 772 101 159 148 143 
258 788 179 204 148 121 
110 704 99 110 122 152 
281 467 235 120 139 163 
274 217 65 79 41 42 
233 154 100 87 74 62 
412 645 143 57 69 85 
210 546 208 114 62 81 
173 443 134 80 91 104 
210 407 272 126 131 142 
204 439 268 27 61 127 
286 292 158 101 126 150 
280 564 80 209 190 179 
122 806 122 176 58 65 
156 561 120 52 73 113 
203 684 218 132 160 188 
293 825 119 215 159 124 
327 457 150 99 120 143 
145 539 101 96 86 80 
300 205 219 152 94 68 
153 807 95 189 45 55 
213 467 264 154 156 186 
283 408 230 116 103 89 
299 679 104 76 99 122 
295 231 125 130 63 57 
235 813 91 178 155 137 
233 159 99 98 87 78 
274 297 53 101 154 196 
282 187 80 95 47 42 
243 586 216 95 119 151 
167 446 99 51 83 110 
326 767 96 192 168 147 
233 134 167 106 91 74 
230 454 272 159 160 189 
249 294 161 82 102 121 
231 599 73 84 119 149 
223 270 50 99 76 86 
263 1007 133 150 119 84 
328 157 156 126 112 101 
287 293 225 140 141 148 
247 163 175 52 81 104 
280 561 201 163 180 201 
140 777 164 120 36 54 
331 442 103 124 130 141 
287 327 256 156 156 164 
414 724 126 180 197 217 
209 493 63 119 122 129 
130 712 137 63 91 130 
160 637 48 132 113 111 
274 14 143 122 111 104 
223 250 239 118 112 110 
227 372 141 99 115 133 
269 439 270 130 139 159 
237 153 103 100 89 80 
242 306 189 144 127 110 
236 155 102 111 99 89 
256 937 108 71 55 41 
263 211 27 117 107 102 
335 481 112 120 130 150 
236 319 207 156 134 112 
291 295 89 118 126 138 
335 479 111 140 146 159 
278 149 252 157 78 6 
209 734 60 172 182 200 
182 426 94 61 96 124 
212 701 58 119 53 58 
290 187 180 102 41 37 
232 198 231 105 72 54 
305 139 198 127 53 14 
105 744 99 163 172 188 
266 991 163 103 73 43 
327 389 121 37 86 125 
185 706 217 111 134 157 
235 304 108 96 97 102 
279 324 291 149 134 122 
230 260 33 82 95 117 
321 580 170 102 115 131 
128 506 105 147 108 81 
261 211 268 123 39 44 
322 156 141 131 116 103 
214 395 142 93 87 82 
289 684 208 144 59 26 
272 934 203 146 119 92 
212 387 222 73 50 21 
238 500 73 110 115 124 
334 543 121 104 123 143 
293 205 245 111 102 110 
292 322 85 202 156 111 
167 671 188 107 118 140 
192 582 203 119 143 174 
191 680 212 154 161 174 
299 274 185 72 108 139 
272 596 76 93 132 170 
223 274 69 129 19 67 
264 34 124 170 153 150 
439 681 125 111 126 162 
278 358 296 150 146 150 
293 811 95 212 153 117 
150 548 153 84 95 123 
258 562 225 104 128 167 
260 362 318 128 131 162 
282 705 211 109 98 90 
107 752 114 156 156 163 
196 444 88 27 66 97 
253 658 218 174 95 51 
244 478 250 113 127 179 
146 609 71 78 113 143 
282 378 197 159 127 97 
218 305 59 135 134 139 
430 666 125 92 104 116 
202 550 39 118 123 132 
241 897 212 180 132 115 
219 907 206 126 98 83 
414 704 117 154 161 175 
198 846 128 216 166 134 
126 668 81 82 104 126 
320 688 184 155 130 119 
237 951 111 117 85 51 
165 572 193 79 132 171 
292 251 127 85 58 85 
167 496 93 86 92 102 
285 579 199 110 141 172 
300 238 152 97 104 118 
296 254 227 76 111 140 
236 646 228 63 48 75 
148 658 72 71 79 110 
269 879 153 154 117 86 
272 346 309 121 126 138 
292 339 192 131 136 148 
127 663 74 78 120 190 
247 132 103 74 62 48 
252 396 300 101 125 176 
231 458 269 135 131 178 
214 879 152 155 118 90 
272 994 130 154 127 100 
285 595 80 99 121 143 
183 529 217 210 202 206 
306 607 94 152 152 160 
308 452 84 76 104 133 
258 11 98 51 49 48 
278 277 91 138 136 139 
204 358 70 149 115 75 
178 434 203 81 101 128 
130 695 72 133 145 189 
218 741 67 152 164 179 
315 186 146 150 115 99 
265 140 101 92 80 70 
279 251 94 134 34 24 
113 713 78 109 118 159 
207 318 40 94 93 101 
224 357 254 137 59 1 
275 756 191 199 142 113 
242 131 104 81 64 46 
308 211 198 71 55 61 
221 377 292 58 87 114 
325 567 104 109 126 147 
220 314 56 126 128 135 
279 357 295 151 147 150 
344 674 115 128 128 134 
243 132 104 77 63 47 
269 272 283 137 132 132 
322 403 128 57 89 121 
233 305 220 150 131 113 
244 129 105 74 61 45 
244 375 309 110 129 180 
273 210 59 88 55 47 
253 169 155 106 77 73 
322 583 107 164 161 166 
338 526 150 93 115 149 
245 131 104 74 59 43 
239 438 280 131 135 187 
191 648 211 135 132 137 
198 613 206 101 131 162 
151 540 148 88 98 122 
294 622 101 76 161 221 
161 486 148 83 111 137 
169 731 213 115 153 187 
277 367 256 70 85 111 
149 519 127 84 69 64 
298 136 142 94 61 24 
277 365 226 134 113 90 
209 521 222 185 184 192 
300 564 184 157 157 164 
227 244 97 39 39 59 
223 368 206 123 110 98 
215 695 67 78 117 149 
271 392 223 122 53 1 
316 454 157 130 142 157 
333 628 118 155 174 216 
277 173 38 123 84 86 
381 705 112 134 36 31 
274 493 81 73 86 99 
201 959 154 93 78 67 
246 305 133 138 137 141 
164 678 55 89 149 194 
289 759 180 192 140 107 
180 825 97 172 155 147 
132 666 71 167 167 174 
250 635 214 99 69 55 
419 651 129 69 93 116 
207 382 261 71 67 70 
175 450 137 103 114 133 
234 310 109 107 117 129 
221 425 284 108 123 162 
283 600 79 134 161 198 
230 407 81 125 137 160 
322 690 183 155 119 108 
217 800 85 207 180 158 
250 976 114 86 71 57 
223 314 94 133 130 132 
243 690 93 97 119 143 
248 284 182 125 126 131 
173 487 88 92 100 115 
251 391 73 79 109 141 
245 330 58 103 121 148 
235 181 223 90 69 82 
132 802 105 172 187 205 
295 128 145 118 66 6 
142 769 165 58 65 107 
241 983 117 88 68 46 
196 480 63 88 106 124 
135 734 143 102 114 135 
263 146 62 108 84 70 
296 240 234 109 58 78 
244 139 102 79 62 42 
265 691 207 142 123 107 
245 138 103 73 60 45 
141 810 103 197 109 102 
261 739 208 139 140 146 
291 950 145 96 79 61 
116 729 84 173 172 201 
247 136 102 75 62 49 
229 912 109 79 62 46 
272 17 149 97 70 49 
339 709 106 111 51 44 
142 736 152 71 81 103 
394 744 145 94 69 76 
266 915 207 155 125 97 
192 697 47 199 194 208 
286 340 178 102 114 129 
227 1002 165 207 178 152 
373 664 171 141 165 192 
202 380 53 128 146 193 
278 382 285 54 101 136 
353 621 118 136 153 173 
285 307 225 126 123 126 
204 484 254 120 135 184 
400 632 134 94 115 137 
172 679 49 89 152 200 
152 522 187 69 103 131 
351 615 156 91 110 130 
294 168 230 103 81 66 
200 463 68 112 126 145 
133 519 105 189 124 110 
357 757 156 112 109 115 
180 525 45 63 90 115 
291 265 256 160 157 161 
226 185 253 97 94 99 
153 505 179 69 100 129 
208 610 40 104 135 165 
268 516 66 95 110 127 
265 921 107 73 58 50 
164 618 183 125 136 153 
269 205 28 110 83 83 
248 131 103 74 62 49 
287 351 195 127 131 137 
261 725 212 144 116 84 
163 474 173 33 59 97 
221 231 258 137 133 134 
272 117 228 88 83 78 
273 883 145 106 80 55 
289 190 102 43 60 106 
