ply
format ascii 1.0
comment Created by CloudCompare v2.11.1 (Anoia)
comment Created 2/28/22 9:36 PM
obj_info Generated by CloudCompare!
element vertex 2027
property float x
property float y
property float z
property uchar red
property uchar green
property uchar blue
end_header
325 595 143 122 119 122 
167 793 185 167 156 161 
310 500 84 82 105 131 
258 280 45 96 112 128 
228 800 91 175 150 127 
354 725 103 116 97 82 
243 751 205 166 142 119 
362 777 119 208 193 186 
269 472 241 113 133 171 
282 469 202 152 159 173 
224 356 208 130 115 100 
149 650 84 102 117 145 
292 809 97 223 154 112 
268 493 78 64 81 99 
311 151 151 106 93 85 
277 899 184 148 110 77 
181 784 191 163 125 103 
173 437 216 74 97 122 
163 785 99 171 148 154 
221 376 73 111 134 193 
387 650 109 36 73 122 
166 722 78 151 169 192 
203 727 65 140 161 202 
319 491 91 70 95 126 
231 46 266 115 105 99 
222 866 200 143 112 88 
247 855 173 134 106 74 
249 143 218 57 91 116 
288 575 91 139 162 197 
382 658 111 48 72 162 
260 161 223 127 46 58 
273 288 268 118 124 136 
235 297 227 141 124 107 
222 894 211 163 127 104 
268 86 252 64 61 61 
278 401 253 135 123 117 
304 715 96 133 40 55 
316 426 89 158 162 176 
339 626 195 73 48 45 
248 140 222 57 92 119 
318 157 165 130 117 108 
225 284 88 141 136 137 
277 343 177 138 140 148 
281 370 185 167 147 129 
211 305 40 104 116 131 
281 733 212 209 194 185 
207 961 193 132 105 88 
113 740 99 80 107 179 
288 241 155 97 99 109 
174 654 199 103 124 145 
225 288 249 116 34 54 
201 846 140 202 150 122 
257 180 148 124 108 98 
163 620 46 163 163 172 
149 589 128 49 49 53 
214 389 295 80 101 136 
281 334 139 104 120 139 
151 464 127 89 75 63 
177 415 184 47 64 86 
450 686 132 101 123 169 
116 622 133 130 96 67 
313 818 126 242 180 142 
268 379 294 53 90 142 
143 654 87 132 138 150 
302 183 199 99 48 48 
181 438 127 24 54 87 
263 876 203 153 118 85 
255 147 193 97 62 50 
158 700 137 79 88 107 
186 463 257 170 167 172 
194 931 152 109 89 75 
286 549 77 120 149 198 
209 651 61 143 149 163 
292 737 92 124 124 127 
281 142 126 127 103 80 
282 236 115 94 76 100 
304 703 203 110 83 69 
260 522 61 60 87 110 
247 404 72 112 139 176 
227 895 222 170 125 106 
269 440 228 60 78 110 
168 530 213 172 171 178 
285 767 188 198 143 112 
246 288 210 132 112 95 
188 541 217 133 58 91 
304 171 232 105 83 74 
148 552 186 130 137 149 
322 759 168 159 116 83 
285 643 216 78 68 65 
274 192 68 127 38 20 
248 711 216 120 93 81 
255 148 194 94 51 39 
274 192 274 47 37 39 
255 149 195 101 78 78 
265 29 131 164 149 147 
255 148 197 88 63 80 
306 215 159 86 98 113 
403 689 162 138 163 188 
309 168 140 164 66 4 
439 662 142 86 77 68 
279 294 191 90 65 76 
236 127 268 102 28 65 
324 578 119 103 117 139 
126 640 102 87 73 59 
260 644 108 100 118 138 
309 151 199 101 83 74 
325 555 109 111 126 145 
221 334 266 104 107 114 
270 813 96 211 140 99 
260 146 294 33 79 122 
324 447 144 114 125 140 
153 570 147 52 59 79 
257 154 197 56 76 96 
321 369 91 53 90 121 
284 285 201 165 146 129 
286 901 161 81 64 45 
149 547 108 92 89 89 
125 523 123 130 99 78 
162 650 167 100 115 133 
210 657 70 104 118 135 
281 286 87 145 143 147 
269 875 179 127 98 63 
259 863 186 124 94 58 
349 670 166 33 48 124 
261 137 94 78 67 56 
265 612 103 66 156 217 
274 28 129 183 156 155 
222 260 81 114 33 38 
132 480 125 77 70 64 
275 668 208 140 103 66 
307 557 184 127 129 137 
146 574 102 58 80 100 
224 1008 159 180 158 139 
199 954 177 76 62 52 
320 555 105 101 116 135 
319 747 180 161 149 142 
240 144 272 81 81 90 
365 777 121 209 186 169 
209 479 71 121 122 127 
259 37 121 117 86 67 
254 147 206 96 57 60 
233 58 270 109 85 70 
207 401 146 78 86 99 
278 368 235 138 114 89 
293 923 177 128 99 78 
230 341 224 102 48 51 
187 773 80 204 15 24 
246 314 152 71 103 132 
304 519 81 104 119 140 
175 697 216 136 145 159 
351 766 160 126 120 116 
390 650 193 140 163 192 
252 42 267 99 89 82 
244 150 263 85 80 84 
164 709 75 102 128 162 
162 713 80 59 99 144 
253 510 64 96 104 115 
169 830 115 199 181 162 
277 322 201 108 62 46 
253 149 207 91 66 65 
166 610 114 72 87 114 
241 324 139 72 104 132 
238 133 272 113 77 65 
175 736 78 183 184 197 
254 149 205 93 53 64 
254 601 217 148 173 202 
125 503 129 138 103 89 
256 147 165 145 61 3 
262 237 191 129 128 131 
287 259 199 45 76 99 
147 740 168 152 160 173 
211 813 176 171 147 124 
282 348 137 78 110 137 
147 567 163 87 98 113 
291 808 96 220 151 109 
254 150 207 92 76 80 
156 538 54 125 137 158 
255 276 182 132 134 141 
224 805 180 203 144 125 
282 897 162 87 68 49 
255 152 203 83 66 77 
236 519 234 157 167 182 
181 456 81 81 103 123 
145 780 172 133 20 32 
308 799 152 205 148 115 
156 490 179 50 83 108 
285 200 192 85 19 47 
254 152 207 92 76 87 
254 153 207 97 86 90 
195 645 212 61 69 81 
117 712 90 134 146 185 
255 153 207 86 71 82 
207 367 84 139 103 59 
273 176 60 115 96 88 
236 465 261 152 155 179 
294 233 241 122 118 121 
158 570 50 110 125 149 
229 223 260 72 43 37 
256 114 187 109 98 87 
259 106 223 105 94 85 
248 433 82 131 145 181 
256 134 294 87 68 86 
325 590 130 55 73 90 
239 243 244 66 79 92 
272 599 85 112 138 162 
190 401 254 113 115 121 
258 208 20 130 95 81 
235 836 106 205 142 104 
213 821 171 188 136 114 
241 440 278 152 163 185 
255 845 111 225 160 123 
233 308 231 146 127 108 
151 471 138 74 59 45 
317 470 92 66 91 114 
162 802 101 94 60 109 
243 856 196 122 95 68 
303 802 150 205 147 117 
163 500 60 81 101 121 
168 757 90 115 126 159 
196 945 150 127 105 88 
251 148 214 103 89 101 
154 613 52 111 134 161 
271 510 70 98 106 116 
229 346 311 126 35 71 
274 410 253 51 76 111 
236 270 105 101 85 95 
223 407 82 53 77 175 
205 698 61 122 106 128 
392 632 135 64 80 104 
181 431 108 20 68 108 
338 561 146 121 131 145 
319 349 92 110 101 117 
164 678 187 105 118 142 
376 663 167 144 172 203 
368 778 143 112 86 62 
334 486 139 66 93 135 
379 766 143 173 138 100 
178 659 49 194 160 158 
300 800 153 212 156 123 
224 778 198 204 184 171 
296 237 210 149 5 72 
211 532 45 109 113 120 
253 149 208 92 75 74 
288 818 148 208 148 122 
265 146 291 19 66 114 
270 795 91 168 158 154 
249 946 117 80 64 47 
328 464 104 174 171 176 
396 746 124 56 23 79 
175 841 128 216 181 145 
298 540 192 94 121 158 
278 119 245 103 91 84 
253 151 209 87 81 90 
218 861 129 199 147 111 
195 845 136 118 132 148 
222 998 153 97 69 54 
253 151 210 89 79 90 
279 622 212 170 122 111 
295 498 80 77 96 114 
252 148 212 96 87 90 
244 915 114 56 47 46 
124 690 87 89 106 138 
271 451 217 67 99 140 
277 237 82 97 42 34 
300 140 258 126 112 102 
283 426 187 136 125 120 
259 167 178 44 72 99 
270 450 214 83 108 139 
253 256 40 115 103 91 
108 700 124 101 132 165 
190 412 164 79 85 94 
284 293 169 136 139 148 
186 410 77 58 100 199 
372 615 131 85 119 149 
172 433 92 95 119 147 
259 829 160 165 118 95 
277 173 72 114 88 73 
284 433 236 117 129 146 
245 810 96 188 125 93 
347 769 159 177 131 103 
220 685 227 133 158 186 
237 570 59 76 129 170 
250 145 218 89 87 107 
166 458 120 78 71 66 
342 799 124 189 128 94 
231 853 166 159 125 97 
210 439 90 62 79 104 
259 235 298 131 79 47 
303 782 94 145 100 73 
324 653 184 77 138 183 
262 344 72 70 88 148 
158 726 103 105 111 156 
310 786 161 197 145 111 
281 419 235 99 90 101 
296 142 173 102 89 78 
309 155 221 55 90 117 
282 309 240 117 133 152 
383 684 120 84 94 114 
236 519 235 162 170 184 
190 373 63 102 104 118 
169 814 102 175 141 116 
250 145 222 49 89 116 
218 478 71 114 116 122 
252 522 235 126 139 182 
168 590 43 159 163 174 
256 165 30 122 77 58 
189 633 206 58 110 147 
159 474 194 60 82 107 
286 700 211 104 100 105 
154 548 201 169 152 149 
297 486 182 160 161 169 
113 747 130 76 105 148 
278 292 100 134 136 145 
268 80 292 110 89 68 
286 835 121 214 159 119 
262 601 93 73 145 195 
176 652 48 149 29 73 
349 793 125 206 143 105 
230 340 225 104 44 51 
211 875 179 139 107 78 
315 679 108 124 122 125 
276 702 212 70 78 90 
213 610 218 148 158 175 
336 568 143 135 135 141 
150 623 134 63 53 52 
252 148 218 82 75 90 
209 760 210 166 141 133 
309 427 86 108 124 162 
187 399 71 76 113 183 
248 308 152 71 97 125 
267 202 49 76 39 38 
272 363 233 137 114 89 
356 747 161 158 121 81 
159 838 134 204 160 132 
282 317 193 97 110 126 
207 366 54 212 122 145 
219 272 263 100 108 121 
255 151 216 92 78 92 
237 565 221 114 138 169 
287 150 102 114 103 95 
115 756 105 154 164 187 
277 235 83 97 37 34 
309 681 199 154 69 79 
236 876 122 178 128 88 
276 294 217 89 113 136 
135 776 102 125 128 189 
184 391 74 117 128 143 
279 769 190 200 146 117 
123 807 140 174 22 76 
211 680 73 105 60 67 
313 461 164 94 107 136 
359 654 173 114 152 187 
215 839 108 241 179 78 
271 193 279 45 43 41 
261 636 216 126 83 74 
164 457 208 104 114 129 
261 211 152 111 78 82 
240 516 232 94 115 168 
180 412 210 39 57 73 
141 793 107 161 173 190 
255 150 220 102 75 87 
279 657 107 107 114 124 
230 857 194 123 95 65 
203 631 45 210 201 209 
261 98 297 124 100 74 
155 486 149 112 85 80 
262 114 183 104 93 84 
305 709 199 43 42 48 
260 890 124 110 85 64 
297 141 147 109 99 92 
209 337 57 119 46 44 
286 814 155 197 140 119 
208 972 158 109 90 72 
137 819 163 136 86 79 
148 573 67 115 134 156 
221 967 208 92 74 62 
155 743 180 121 137 155 
242 554 46 185 181 186 
165 719 77 147 162 186 
259 214 217 87 71 78 
251 564 77 194 189 202 
143 808 172 142 94 84 
295 483 183 123 136 157 
232 461 80 112 117 125 
217 630 89 79 104 175 
185 791 89 188 30 45 
282 295 152 157 155 161 
268 557 226 103 127 161 
235 825 101 120 136 151 
190 394 240 119 132 150 
264 642 219 49 50 78 
363 769 115 136 110 82 
323 444 143 71 97 120 
168 585 43 151 155 171 
254 152 215 88 73 86 
215 518 234 139 156 195 
220 867 172 111 80 53 
284 951 185 103 84 69 
151 708 146 75 82 93 
254 286 161 97 114 133 
291 911 156 154 107 83 
258 215 142 113 67 71 
176 680 55 85 156 215 
279 454 242 101 122 157 
240 702 95 118 130 145 
379 685 121 55 57 91 
281 218 276 107 24 52 
263 114 189 107 95 86 
366 726 106 115 97 80 
119 594 130 126 95 66 
165 832 119 204 166 134 
260 844 161 155 117 85 
225 692 223 70 87 104 
408 661 114 113 136 162 
111 734 120 141 143 155 
293 260 183 100 67 89 
235 831 104 199 136 97 
262 187 213 50 40 51 
239 968 217 111 93 79 
170 629 116 76 86 113 
345 668 169 155 60 61 
260 192 30 85 75 76 
286 435 77 119 126 174 
252 494 243 158 174 199 
189 407 76 76 124 187 
299 197 149 71 70 93 
349 615 182 105 90 76 
290 537 197 100 122 161 
126 655 93 61 80 100 
251 295 183 78 101 122 
232 540 228 120 138 165 
347 633 117 166 171 186 
285 447 189 118 132 153 
194 927 150 122 98 81 
363 696 160 153 117 90 
244 130 231 69 64 70 
289 937 188 97 78 65 
364 773 152 116 94 77 
198 738 223 85 79 141 
244 910 218 131 102 79 
284 924 185 73 58 43 
148 680 88 123 138 180 
276 30 93 128 94 76 
348 634 117 166 173 193 
245 133 226 60 59 78 
245 133 227 61 58 77 
245 134 224 59 75 94 
149 525 113 61 71 86 
167 610 194 136 147 168 
220 380 129 118 124 133 
305 401 138 95 109 126 
194 425 268 58 87 118 
246 135 225 54 77 97 
277 228 85 42 42 45 
261 179 179 112 49 72 
323 754 96 124 109 95 
222 353 112 136 133 136 
209 899 156 127 81 47 
341 659 172 63 127 170 
226 305 48 130 132 139 
257 272 155 128 128 133 
229 444 86 105 113 129 
156 710 156 81 99 129 
154 523 198 67 106 137 
407 665 183 154 171 211 
245 134 230 53 66 83 
428 658 158 110 90 69 
142 766 99 141 151 187 
334 757 96 122 107 92 
305 718 96 139 87 29 
234 677 224 65 68 77 
287 630 206 144 108 92 
168 653 116 66 83 116 
270 885 134 115 86 67 
278 843 122 216 160 121 
414 726 153 187 44 59 
219 349 256 138 116 92 
310 467 168 98 115 138 
309 736 190 153 130 114 
173 606 132 57 80 115 
293 964 157 123 93 67 
284 550 202 123 143 169 
300 507 186 161 160 166 
243 128 236 119 114 116 
248 689 225 117 80 62 
270 564 81 238 216 197 
140 827 128 191 13 51 
237 399 305 96 122 176 
168 839 130 215 192 175 
356 761 159 175 153 151 
276 633 111 186 179 187 
388 721 110 144 133 130 
275 967 139 95 68 50 
333 439 120 48 90 134 
182 675 52 86 155 209 
161 556 201 99 140 173 
277 16 140 113 89 62 
268 436 265 90 113 153 
132 748 151 79 106 144 
155 541 54 110 129 156 
268 701 96 129 143 160 
204 829 163 147 121 104 
317 395 122 59 84 108 
244 129 235 108 74 76 
256 127 153 101 86 73 
138 650 137 53 68 87 
272 459 207 110 121 149 
257 213 22 167 110 96 
326 809 117 217 153 119 
321 790 157 201 152 116 
183 433 138 96 100 107 
172 624 119 77 89 119 
300 131 234 137 121 108 
294 203 197 91 42 54 
239 393 309 114 138 176 
244 130 236 109 69 74 
203 919 202 155 122 94 
211 739 221 186 86 95 
240 330 144 72 96 117 
339 620 119 83 121 152 
201 383 95 133 107 78 
289 355 78 170 172 182 
284 358 240 179 154 127 
408 733 121 136 54 74 
156 710 93 112 143 199 
219 532 226 116 142 181 
159 505 58 117 123 132 
257 112 207 109 97 88 
188 840 145 86 116 143 
282 474 202 121 137 163 
316 817 127 244 181 142 
155 638 128 58 53 57 
209 848 144 188 139 111 
195 407 273 90 109 136 
167 605 113 77 94 118 
224 260 20 155 154 160 
277 336 216 181 150 117 
196 393 100 120 126 138 
232 336 47 196 155 114 
316 435 144 93 114 139 
230 226 257 72 44 34 
247 273 123 148 131 114 
138 671 139 58 74 101 
297 760 182 189 138 105 
332 615 126 70 95 118 
319 474 162 79 104 135 
320 568 107 155 158 169 
329 669 180 134 32 39 
170 625 116 69 77 111 
304 224 175 112 83 94 
182 766 204 123 135 155 
238 134 279 125 100 88 
257 119 167 95 79 67 
224 628 96 78 100 150 
209 401 131 104 112 124 
404 664 183 137 154 195 
253 1011 145 127 100 64 
255 269 44 112 123 137 
312 692 191 57 56 71 
284 425 200 134 116 103 
265 206 183 97 97 105 
156 603 182 126 144 172 
234 865 208 127 100 73 
229 304 245 154 133 113 
220 364 202 112 102 93 
263 232 158 135 85 80 
270 117 291 117 102 86 
284 265 156 142 8 74 
250 272 129 109 112 123 
323 371 97 104 124 145 
246 137 225 59 89 113 
274 932 206 127 96 75 
282 877 145 138 104 78 
364 721 162 146 123 116 
239 614 104 181 180 197 
305 430 158 88 107 128 
203 394 83 94 125 182 
197 445 89 113 119 128 
247 138 224 57 89 114 
214 375 111 88 111 135 
282 839 123 207 157 119 
233 334 218 140 122 101 
229 822 170 173 117 97 
119 790 145 142 158 178 
226 604 89 141 161 198 
316 577 177 146 141 143 
127 567 135 127 95 72 
150 603 66 151 153 163 
112 769 116 150 154 188 
246 137 229 60 89 114 
247 137 229 65 98 124 
254 662 230 163 105 49 
272 327 276 135 73 97 
252 237 227 75 56 40 
222 476 264 112 118 174 
172 760 207 190 100 100 
141 831 133 172 124 53 
352 794 138 213 149 112 
208 366 87 133 98 58 
188 552 42 106 117 135 
282 294 190 130 125 125 
131 628 141 115 87 67 
303 705 207 126 106 101 
319 491 166 101 111 136 
243 232 244 64 80 96 
145 600 136 80 64 56 
266 807 94 114 143 170 
405 695 160 155 55 63 
242 217 249 73 84 95 
299 215 155 124 73 73 
207 448 279 186 185 191 
184 612 40 185 183 191 
160 602 158 103 101 116 
441 665 150 108 88 66 
272 418 222 102 84 72 
217 689 80 78 114 148 
156 478 143 87 74 62 
202 520 49 97 107 120 
213 377 111 61 96 124 
274 952 204 124 94 74 
272 427 252 62 77 118 
204 641 48 161 94 118 
300 196 255 80 113 140 
189 663 49 89 157 212 
156 647 59 71 121 159 
228 692 90 69 108 138 
108 673 102 63 98 142 
106 680 103 99 125 155 
313 666 111 142 139 144 
126 661 91 81 110 139 
161 488 211 160 153 153 
432 658 124 121 136 155 
413 674 116 82 118 168 
166 837 125 153 118 95 
108 682 95 92 115 145 
216 370 305 69 97 121 
240 575 81 84 139 182 
142 631 98 74 67 66 
270 489 213 53 77 132 
256 281 43 104 112 124 
249 142 224 56 94 122 
200 414 120 79 101 122 
254 998 180 171 139 107 
300 922 166 159 121 93 
206 889 188 149 109 83 
278 899 179 149 113 81 
272 880 189 154 119 86 
155 823 114 203 84 94 
283 618 99 78 179 232 
281 287 163 147 148 155 
227 330 110 71 106 135 
283 385 239 154 70 5 
256 96 89 89 76 63 
337 532 132 105 125 153 
296 376 130 109 120 134 
119 664 136 125 102 97 
227 296 28 87 139 180 
275 13 122 113 99 89 
242 243 241 69 82 94 
248 326 321 152 150 153 
126 525 122 124 100 81 
252 148 294 39 60 79 
416 710 160 152 111 118 
322 635 208 105 150 188 
302 165 238 116 97 86 
250 141 231 56 93 121 
320 173 150 156 73 6 
254 903 112 74 57 44 
334 549 158 150 154 164 
298 556 194 81 113 154 
272 81 282 109 93 77 
257 823 164 179 118 100 
119 644 108 111 85 60 
150 566 57 102 121 146 
268 34 114 129 89 73 
240 336 184 114 27 58 
219 581 38 171 174 192 
173 753 212 124 44 104 
342 704 170 141 139 142 
270 988 129 138 111 81 
350 785 153 198 143 112 
284 203 193 86 30 49 
215 538 44 108 114 122 
230 1007 137 145 93 67 
247 146 292 45 73 94 
312 161 213 119 72 78 
256 901 113 92 71 50 
198 945 141 109 91 75 
240 121 279 124 54 0 
217 348 267 124 60 7 
204 613 41 159 183 220 
303 562 91 182 180 185 
231 710 220 151 55 48 
230 354 129 69 61 76 
208 659 62 150 155 166 
193 483 259 158 162 179 
285 165 93 158 68 4 
221 391 86 85 110 139 
186 478 72 85 102 119 
388 677 116 59 74 108 
294 175 262 116 100 106 
237 312 41 167 171 184 
322 657 185 70 125 164 
119 757 138 62 87 129 
299 923 165 142 111 89 
247 778 88 141 124 115 
363 703 111 104 42 32 
249 139 239 59 81 102 
294 235 237 121 38 66 
206 372 250 92 82 74 
263 270 51 114 121 131 
249 140 234 50 89 117 
320 450 149 119 123 133 
144 819 117 148 14 42 
139 700 145 138 135 139 
236 375 317 76 109 168 
283 120 172 93 85 80 
250 141 234 62 97 124 
209 768 204 90 98 120 
186 451 257 105 122 142 
212 923 217 97 77 64 
288 833 125 205 149 115 
224 619 93 184 182 198 
282 922 188 83 65 46 
160 817 168 95 95 109 
279 319 173 74 56 66 
333 531 120 144 150 173 
281 375 169 148 91 57 
250 141 236 69 97 120 
215 989 135 122 94 57 
325 562 169 153 155 163 
231 186 280 74 92 110 
273 449 79 72 104 144 
300 807 146 198 145 116 
240 570 220 105 134 166 
218 864 155 159 116 88 
310 152 145 111 97 87 
272 531 230 108 137 173 
290 374 77 53 82 106 
310 185 211 66 39 59 
239 262 306 104 122 143 
287 381 148 106 119 135 
152 626 85 131 126 127 
280 26 108 147 134 125 
321 419 133 56 85 113 
226 591 67 144 159 179 
241 106 278 93 85 77 
229 336 45 187 125 56 
277 274 294 83 119 148 
371 692 159 140 74 86 
161 610 122 51 67 87 
195 391 94 92 108 126 
176 681 55 83 156 215 
164 473 149 62 70 80 
260 169 189 59 53 78 
317 593 118 88 101 116 
281 971 177 100 84 72 
156 750 187 128 78 75 
177 550 209 85 127 162 
235 573 63 79 139 181 
289 667 203 175 93 17 
294 182 195 74 47 63 
273 357 274 87 105 128 
264 409 282 99 114 152 
271 430 253 79 98 141 
243 131 241 109 93 95 
275 874 135 131 102 72 
117 607 112 116 90 62 
268 837 110 236 171 131 
225 714 220 101 51 90 
304 174 141 156 61 5 
267 141 124 119 104 92 
291 141 260 109 95 88 
216 299 39 120 126 135 
242 129 245 118 106 98 
147 604 80 85 123 153 
167 631 160 87 85 117 
190 713 228 92 136 171 
325 573 169 118 131 149 
207 537 43 98 107 120 
168 484 224 147 149 157 
168 453 170 62 73 85 
267 863 161 156 119 87 
244 898 116 88 69 55 
128 530 136 116 90 72 
294 371 128 102 112 126 
245 274 120 152 130 108 
286 955 178 92 74 57 
401 702 113 115 117 123 
314 749 95 164 149 139 
315 534 94 121 140 165 
215 868 186 139 106 77 
321 462 153 120 128 141 
421 657 178 62 61 63 
182 555 210 93 139 179 
244 133 241 108 89 98 
239 289 310 70 106 138 
157 755 192 138 40 57 
207 369 259 105 99 97 
261 244 187 75 83 100 
270 546 229 99 124 171 
267 745 209 177 136 135 
304 228 167 70 120 156 
131 735 92 131 152 200 
275 201 69 96 46 55 
295 714 213 152 136 127 
189 626 42 160 163 184 
270 152 280 40 52 80 
282 335 259 143 144 150 
328 622 109 66 104 136 
246 135 240 75 86 100 
280 279 193 41 73 95 
242 304 126 117 119 125 
246 134 242 106 92 100 
191 652 210 80 116 146 
294 735 205 155 115 113 
226 292 27 88 144 193 
262 513 66 86 99 115 
273 652 107 69 98 125 
323 731 97 60 71 95 
319 377 82 93 134 169 
245 133 244 119 100 103 
181 684 54 144 55 85 
249 303 183 113 124 138 
272 214 61 74 42 57 
215 390 134 115 108 104 
173 460 91 54 68 82 
130 520 119 156 116 98 
246 136 258 133 94 71 
156 725 183 135 140 152 
182 445 245 158 152 152 
348 674 121 109 113 123 
211 875 194 146 108 80 
248 231 237 66 83 99 
162 647 167 83 95 127 
328 743 97 114 100 92 
239 461 81 126 127 133 
246 134 246 120 103 104 
317 623 99 203 199 213 
291 178 117 131 128 130 
191 390 66 122 144 198 
263 594 219 56 98 142 
275 655 106 79 91 113 
239 28 289 129 118 111 
309 189 212 121 37 61 
256 447 263 108 129 188 
258 158 196 33 61 91 
287 322 83 108 120 135 
233 416 80 139 144 166 
198 746 219 189 96 115 
366 716 108 118 38 51 
242 129 251 127 59 66 
245 305 134 137 138 145 
282 349 142 82 84 105 
381 704 158 162 110 112 
379 680 122 82 98 137 
214 624 52 129 147 170 
277 239 190 76 62 71 
135 795 164 80 54 72 
269 302 258 94 28 42 
215 967 137 162 125 93 
154 494 110 82 75 83 
292 167 183 82 48 56 
214 712 226 79 122 159 
220 537 224 150 162 181 
259 235 143 96 83 91 
241 128 252 128 49 74 
223 687 226 138 168 198 
213 691 71 75 118 151 
241 129 253 129 48 76 
276 278 273 98 120 143 
272 100 235 44 38 34 
159 609 177 123 127 162 
400 679 116 132 136 151 
139 769 99 185 178 195 
243 421 293 165 168 190 
139 728 93 57 104 191 
214 870 178 130 99 70 
202 390 267 52 81 120 
305 603 197 105 95 89 
265 444 228 48 69 112 
278 305 200 65 82 101 
375 634 133 46 61 80 
281 323 114 71 104 133 
263 514 236 99 116 151 
246 279 122 142 65 0 
203 950 134 127 105 84 
253 651 235 137 84 71 
265 426 273 135 153 178 
245 707 219 153 88 65 
244 132 249 133 87 86 
125 491 131 135 96 85 
220 657 218 68 115 151 
220 361 111 142 139 143 
245 133 249 127 87 88 
182 645 46 83 153 207 
285 255 215 73 120 157 
218 379 76 58 122 187 
267 979 190 79 58 49 
152 521 106 117 115 118 
423 653 142 73 71 71 
260 609 104 66 133 199 
245 134 249 123 89 87 
292 341 100 114 111 114 
248 599 93 157 177 206 
230 338 229 108 40 53 
177 422 166 63 74 85 
232 559 41 184 182 189 
143 809 171 117 91 68 
288 269 239 110 44 54 
147 588 75 144 151 164 
151 644 76 132 133 140 
281 278 227 103 95 96 
275 566 215 30 74 140 
170 428 191 96 114 143 
293 783 92 133 123 117 
250 551 228 110 123 168 
192 430 92 93 102 124 
255 994 181 140 116 89 
218 607 47 134 80 99 
161 492 209 134 134 140 
268 391 284 106 129 152 
176 659 50 191 185 191 
239 212 297 117 26 64 
270 24 297 130 118 111 
327 557 166 136 143 158 
267 768 196 205 146 119 
358 618 150 70 90 108 
355 617 182 107 90 74 
111 772 124 134 144 183 
273 811 94 209 134 95 
330 459 138 74 98 131 
178 496 238 96 116 154 
207 734 224 205 118 121 
259 145 48 137 109 84 
283 416 198 151 139 133 
386 689 157 160 37 46 
113 675 130 102 80 76 
174 664 198 128 135 148 
212 822 101 194 135 85 
232 975 211 89 72 55 
151 613 135 60 54 51 
281 685 98 121 127 137 
150 591 93 75 111 140 
332 526 116 164 167 179 
270 425 268 85 109 151 
118 589 118 112 87 58 
284 959 180 94 71 59 
289 218 197 43 32 47 
266 345 74 48 86 148 
145 791 104 128 155 183 
212 725 69 120 150 179 
296 352 80 188 178 178 
286 723 214 191 165 146 
223 326 70 90 109 129 
243 35 276 125 113 106 
290 567 88 132 143 172 
296 517 189 125 139 158 
299 161 165 135 60 2 
233 359 153 144 130 119 
332 495 110 80 108 139 
230 325 241 115 38 54 
323 430 96 154 152 156 
308 351 78 187 182 188 
263 54 272 84 73 64 
239 303 122 119 103 89 
274 509 71 97 104 112 
215 349 82 119 123 133 
274 715 215 115 110 107 
224 504 244 114 130 186 
285 973 163 132 107 82 
232 41 293 148 133 124 
241 470 254 160 160 175 
161 658 171 104 117 135 
280 330 205 175 148 117 
256 252 209 105 102 102 
295 809 149 199 142 115 
228 861 116 185 133 85 
180 448 157 67 82 99 
243 29 286 127 115 108 
270 186 55 51 43 58 
277 524 68 77 101 128 
271 295 256 94 48 46 
272 452 229 70 89 113 
248 138 244 114 88 90 
281 443 242 116 127 158 
158 740 192 128 142 160 
414 651 169 116 93 66 
306 646 211 143 115 124 
249 139 245 124 89 94 
314 140 216 152 70 4 
272 428 222 111 102 100 
245 472 80 96 103 112 
241 976 211 108 90 76 
220 245 272 104 116 132 
245 249 233 93 94 97 
212 434 90 100 110 123 
152 513 166 107 114 124 
205 507 245 157 167 196 
284 369 164 129 137 149 
156 494 188 70 109 142 
269 164 282 96 49 77 
302 439 164 77 100 133 
117 789 135 136 155 178 
310 800 101 175 127 85 
282 918 134 69 53 39 
143 658 87 69 101 127 
237 322 45 161 158 163 
295 669 202 153 124 93 
251 143 240 117 97 95 
243 549 223 117 134 164 
299 241 180 137 81 84 
347 633 111 137 144 183 
287 327 95 119 115 116 
222 260 291 73 99 125 
243 875 120 213 149 106 
224 322 75 92 96 107 
253 835 163 169 124 95 
259 181 229 62 51 64 
226 327 107 77 112 141 
256 654 107 108 54 69 
277 205 273 108 40 31 
248 512 235 140 161 193 
190 404 184 51 49 56 
250 141 246 127 97 91 
223 515 238 135 149 184 
214 976 149 89 67 53 
237 525 52 88 102 118 
306 693 195 90 92 96 
186 438 253 146 145 151 
317 382 117 55 82 107 
221 991 151 111 89 66 
316 466 162 90 114 139 
215 654 87 87 113 158 
194 797 91 86 106 127 
172 525 51 61 88 113 
216 957 211 152 117 100 
166 614 44 169 166 173 
270 39 272 121 110 102 
328 721 179 134 113 93 
203 499 251 163 173 206 
174 450 130 56 69 81 
250 418 75 107 125 182 
101 710 102 64 92 150 
295 698 211 103 93 98 
246 827 165 169 115 98 
332 455 108 56 93 123 
145 550 64 152 155 164 
249 139 250 119 108 101 
160 498 93 54 73 97 
248 137 252 130 98 85 
246 68 292 112 90 67 
303 456 84 120 130 157 
342 610 178 89 83 78 
210 367 281 107 95 88 
140 715 91 80 109 183 
231 193 266 113 103 95 
148 512 142 101 78 70 
330 519 159 128 138 153 
276 284 296 153 148 147 
160 704 80 70 79 117 
226 591 50 99 148 187 
294 741 92 113 104 100 
159 602 122 47 61 77 
274 182 269 32 50 83 
218 341 80 114 120 131 
214 716 224 119 73 109 
279 438 232 40 71 104 
122 590 133 129 96 69 
219 307 265 119 31 40 
259 483 79 103 107 113 
177 444 110 84 103 122 
118 582 125 124 94 66 
301 139 183 112 97 84 
289 216 197 46 34 48 
319 652 204 121 159 195 
250 142 248 127 101 96 
237 646 222 88 89 100 
210 963 197 117 89 74 
389 733 111 134 43 68 
219 776 80 59 46 90 
250 205 297 114 49 50 
272 507 218 88 111 153 
210 661 70 91 114 139 
200 383 220 71 48 28 
237 329 48 131 141 156 
151 741 172 116 133 152 
227 257 60 78 38 52 
248 140 254 126 105 84 
228 255 298 132 126 124 
166 627 114 62 80 110 
187 567 210 154 156 166 
279 550 76 143 168 206 
153 629 76 83 105 127 
157 617 50 165 164 173 
289 269 203 173 175 184 
256 149 194 104 85 74 
235 74 277 132 105 90 
249 142 254 111 98 90 
236 295 110 110 108 109 
153 573 129 40 56 92 
359 618 149 80 97 114 
304 166 233 92 64 54 
305 332 91 82 65 69 
124 718 138 168 163 165 
154 489 149 118 83 80 
281 266 121 126 61 71 
323 697 105 112 117 122 
150 553 194 114 120 135 
259 606 215 145 112 114 
309 182 216 68 58 77 
284 956 136 91 70 55 
217 544 219 183 180 186 
261 188 164 99 103 113 
281 976 150 100 75 44 
249 306 155 73 107 136 
249 726 92 119 30 31 
238 83 278 129 102 86 
274 354 222 135 15 54 
360 620 151 48 67 85 
281 501 204 110 126 150 
232 243 299 91 109 128 
195 479 74 121 124 129 
138 735 96 101 129 180 
334 725 100 76 79 87 
252 147 225 82 94 106 
253 147 224 92 91 102 
245 438 275 188 190 200 
292 159 108 137 123 111 
288 391 158 114 100 88 
362 615 129 46 102 143 
203 400 162 74 71 69 
159 572 189 114 129 160 
261 183 172 103 70 79 
263 904 116 81 66 55 
201 374 256 78 73 70 
257 175 35 97 84 78 
196 920 153 122 57 44 
106 678 99 104 125 148 
230 257 49 97 36 41 
274 170 62 140 66 1 
167 449 112 70 93 114 
245 890 123 109 77 55 
291 426 172 81 110 139 
226 213 270 103 87 76 
282 517 205 92 112 154 
215 413 85 75 107 176 
130 519 118 159 113 95 
259 192 25 86 77 84 
151 512 169 97 105 117 
219 384 137 112 106 104 
149 597 66 120 140 163 
290 370 78 67 95 120 
270 905 127 85 68 51 
273 932 208 135 103 78 
157 610 128 33 48 60 
166 604 197 76 105 169 
238 925 228 184 147 120 
287 124 187 105 95 88 
423 706 118 158 167 192 
152 687 85 178 174 197 
274 280 300 85 119 148 
328 561 165 109 124 146 
260 657 105 74 112 143 
399 642 129 67 88 107 
202 910 183 145 104 77 
201 848 125 139 86 40 
266 599 83 176 195 224 
174 775 86 151 123 129 
264 797 179 202 142 120 
265 929 218 170 132 103 
221 861 123 176 124 89 
345 791 119 187 130 96 
275 135 269 126 72 46 
210 347 63 134 115 100 
245 127 289 89 105 121 
327 522 168 97 119 154 
217 880 150 151 115 85 
324 553 108 102 126 152 
277 337 258 101 57 70 
160 709 182 102 109 122 
285 266 65 90 130 167 
250 475 80 112 113 119 
283 325 260 127 138 154 
254 149 231 107 87 79 
259 162 191 46 76 98 
226 993 166 128 105 81 
282 648 217 60 58 64 
265 578 224 93 105 134 
230 297 304 137 137 142 
285 425 242 75 96 146 
143 516 75 57 93 144 
141 482 112 137 93 99 
295 304 82 78 87 98 
304 210 211 114 77 99 
259 600 99 97 106 126 
276 969 191 83 64 55 
213 523 47 108 119 133 
261 32 303 174 152 142 
219 272 26 141 141 146 
219 963 132 130 98 60 
259 986 188 96 75 65 
270 152 281 39 51 79 
285 312 250 122 136 153 
204 441 280 102 124 162 
253 145 234 103 102 105 
361 622 182 111 92 73 
220 382 81 65 126 198 
238 605 97 158 166 183 
260 172 201 109 33 49 
184 517 235 101 129 173 
243 728 89 126 21 31 
345 762 101 186 160 133 
278 780 183 204 144 119 
243 326 164 138 138 142 
258 35 84 63 49 35 
229 271 36 71 105 133 
263 176 215 99 43 63 
274 156 46 123 100 80 
155 676 72 147 50 70 
213 396 89 98 123 169 
339 805 145 215 151 123 
288 246 214 77 119 152 
237 32 303 156 141 134 
256 432 80 102 120 157 
163 570 47 114 134 158 
257 483 247 149 161 186 
219 374 305 113 126 185 
162 774 197 140 65 76 
271 214 59 51 45 59 
253 146 236 101 100 107 
182 561 209 109 90 104 
229 984 128 136 105 66 
205 949 198 139 107 87 
280 282 191 57 92 118 
186 527 47 27 68 106 
267 672 213 171 66 32 
114 620 118 121 90 59 
116 614 131 129 98 71 
364 667 122 143 145 165 
283 438 235 90 109 134 
290 948 146 87 69 54 
196 465 268 148 147 172 
161 467 202 94 109 128 
325 525 104 141 145 162 
254 148 235 105 102 105 
168 718 217 123 148 173 
143 703 91 130 148 195 
305 401 136 84 101 122 
255 150 232 123 92 93 
168 729 81 104 134 169 
177 640 132 71 89 108 
314 606 196 131 110 91 
288 508 75 89 100 112 
359 729 163 174 158 147 
119 576 122 116 89 62 
292 199 127 42 66 92 
294 494 186 84 105 146 
391 714 111 129 139 152 
389 746 118 116 85 78 
142 474 112 103 88 70 
319 546 182 73 98 146 
216 879 159 157 119 89 
262 439 267 137 152 193 
281 825 146 194 136 113 
256 865 202 145 116 86 
229 274 36 68 105 133 
288 194 114 43 76 108 
325 687 109 113 120 131 
287 373 144 146 143 147 
298 505 80 105 113 125 
201 468 269 135 134 175 
261 1006 134 221 189 159 
322 173 155 152 62 3 
168 431 185 75 105 140 
311 435 153 59 87 129 
224 810 94 159 116 100 
293 130 241 94 70 48 
233 894 227 199 145 129 
152 838 142 202 179 163 
285 774 91 132 111 90 
224 247 290 124 117 114 
165 577 45 125 139 158 
275 147 262 76 41 40 
144 506 67 81 102 134 
176 629 201 118 133 158 
139 762 161 109 125 144 
274 107 277 117 96 75 
214 669 220 87 62 78 
266 613 103 76 162 220 
278 185 80 84 38 37 
246 782 191 207 150 128 
114 736 130 85 105 138 
409 737 135 180 19 49 
429 705 156 168 190 217 
226 334 306 121 108 96 
362 771 115 145 104 77 
155 705 162 43 73 119 
255 156 238 120 75 70 
255 157 238 126 63 71 
278 216 98 107 53 41 
237 208 295 89 81 82 
359 619 152 61 78 96 
209 971 153 96 76 62 
265 446 228 49 72 111 
189 639 45 77 137 191 
186 432 118 58 86 109 
155 579 146 72 98 140 
338 802 121 201 139 102 
356 633 106 111 134 169 
272 370 285 104 120 143 
221 401 300 120 138 162 
143 512 142 121 90 79 
222 355 302 129 114 99 
247 153 254 90 88 93 
259 266 162 136 136 140 
249 305 186 97 104 115 
246 628 213 151 113 116 
160 471 203 138 139 145 
296 146 178 135 66 4 
214 431 288 141 147 173 
247 154 255 85 86 94 
310 314 83 152 116 75 
249 303 181 126 132 142 
138 707 89 61 96 182 
251 258 304 121 121 125 
239 539 47 89 107 124 
246 111 289 105 78 31 
108 700 117 61 90 130 
255 279 148 82 103 124 
209 390 288 49 77 122 
306 769 172 196 139 106 
372 614 136 87 108 129 
217 301 41 119 125 135 
344 617 126 55 98 131 
139 657 139 69 92 116 
381 635 186 100 80 55 
232 714 219 136 24 35 
286 811 157 193 139 114 
266 359 227 113 75 47 
283 308 235 117 125 136 
172 439 110 88 108 128 
251 145 243 106 82 78 
280 633 210 144 111 96 
204 689 225 145 166 191 
286 153 92 119 108 100 
207 435 91 117 123 133 
284 373 192 177 153 131 
422 710 120 195 197 208 
142 506 74 73 94 113 
268 903 209 184 141 114 
251 145 247 116 88 84 
189 489 252 104 114 156 
239 149 272 83 78 88 
290 641 215 80 88 97 
303 786 164 202 147 114 
262 288 311 89 121 148 
190 657 213 65 60 107 
305 319 74 191 133 57 
288 960 149 119 93 65 
209 851 137 208 158 124 
262 543 59 185 180 183 
161 471 208 103 116 135 
323 411 130 79 102 125 
153 724 160 69 88 111 
271 429 260 81 104 144 
233 984 192 139 107 77 
212 760 74 68 58 134 
111 747 104 125 134 180 
202 414 91 51 76 121 
281 292 155 143 151 165 
286 131 140 125 74 19 
289 464 186 78 106 148 
272 375 257 80 88 106 
148 758 100 45 81 146 
241 615 215 169 163 167 
302 918 166 155 124 94 
130 529 136 126 97 79 
267 339 72 131 145 167 
371 692 117 113 111 113 
190 719 63 141 169 206 
242 801 92 186 133 81 
298 796 159 203 145 115 
339 647 125 58 87 164 
321 363 106 105 122 143 
255 642 109 99 117 137 
261 57 110 116 90 61 
173 438 197 114 123 135 
176 445 134 48 59 70 
253 149 242 110 102 105 
208 772 78 159 35 46 
360 689 116 116 118 125 
223 361 203 116 106 98 
319 701 188 97 86 95 
222 259 260 77 92 107 
191 491 253 147 150 173 
312 170 166 138 63 9 
182 613 206 49 47 128 
258 157 189 81 96 111 
150 621 84 95 122 144 
252 148 245 109 92 97 
313 508 175 63 92 141 
314 539 178 77 83 98 
231 393 79 44 89 131 
150 684 89 87 103 136 
363 626 138 35 53 76 
106 741 106 186 180 183 
286 904 155 100 67 42 
228 359 196 118 103 88 
218 917 131 87 68 52 
315 666 190 149 94 101 
224 320 85 75 106 132 
309 215 165 85 118 145 
239 204 295 63 56 77 
279 353 179 140 123 107 
239 245 243 65 64 66 
232 343 314 136 122 105 
177 450 163 69 73 79 
248 202 248 78 37 48 
207 424 89 68 103 149 
250 145 249 121 97 93 
317 658 195 86 131 167 
311 194 168 119 106 103 
312 473 169 100 116 139 
135 696 86 139 154 184 
239 84 280 119 97 79 
295 270 174 79 115 142 
227 586 49 110 154 191 
175 440 230 135 138 146 
246 239 235 61 75 87 
337 504 137 75 99 135 
195 413 273 157 158 167 
224 921 224 131 107 83 
157 492 192 47 53 63 
260 791 185 204 147 121 
146 562 105 63 63 66 
273 717 216 145 129 116 
223 322 86 74 106 133 
261 816 98 207 141 99 
213 319 49 130 131 137 
251 831 105 215 153 113 
324 784 159 192 146 110 
273 785 90 174 153 137 
286 190 189 108 36 38 
281 759 90 166 143 124 
286 394 246 109 95 84 
247 433 279 97 115 169 
261 628 111 177 170 180 
275 510 209 90 111 140 
226 261 92 87 52 40 
259 539 56 162 157 157 
249 147 254 97 101 107 
188 596 210 79 84 94 
258 257 196 79 112 139 
234 317 117 117 122 132 
292 798 163 200 142 117 
130 618 102 132 99 71 
212 395 157 93 87 85 
256 206 236 86 36 53 
223 506 243 110 127 169 
285 264 198 34 71 95 
141 700 146 106 112 122 
290 774 91 113 75 40 
232 422 294 133 149 189 
278 314 202 133 112 91 
324 376 97 44 85 117 
186 446 256 60 80 114 
388 742 114 77 45 100 
282 209 107 102 32 44 
163 473 151 52 61 71 
299 496 183 122 131 145 
284 444 78 114 126 152 
217 388 138 95 89 84 
250 150 250 111 73 82 
326 561 167 77 96 130 
287 176 101 116 124 132 
212 873 194 144 110 81 
122 694 88 111 125 146 
328 491 160 112 131 155 
149 537 107 98 98 102 
143 814 169 123 124 135 
203 907 186 151 108 82 
274 95 277 114 96 79 
193 405 83 73 111 193 
235 954 121 88 59 33 
309 626 107 223 218 227 
271 469 214 75 97 142 
281 277 64 90 122 150 
216 283 283 148 142 142 
236 855 200 126 101 77 
229 286 95 135 132 135 
272 345 295 175 130 75 
313 675 191 120 98 114 
280 306 99 77 73 86 
213 362 100 141 139 143 
150 520 169 102 110 124 
212 483 68 89 101 113 
126 642 102 81 69 58 
114 615 119 120 88 59 
273 95 251 114 95 75 
297 129 231 93 75 63 
183 735 70 185 187 205 
226 286 72 122 108 99 
139 775 168 112 86 91 
311 538 92 93 110 149 
262 236 153 128 90 84 
171 467 146 57 70 86 
251 157 245 85 84 89 
168 524 52 104 112 125 
115 598 123 122 94 65 
291 397 72 82 105 136 
275 207 278 124 30 35 
320 651 203 98 143 181 
279 319 216 167 138 107 
297 476 179 109 122 142 
216 936 116 84 67 51 
276 278 264 102 106 115 
171 618 197 140 152 176 
279 642 217 67 79 113 
248 221 242 66 55 48 
311 595 110 71 87 103 
223 704 80 80 104 128 
285 372 150 112 120 132 
274 365 278 92 109 136 
242 85 258 103 84 64 
296 126 200 103 92 83 
179 571 42 126 133 146 
152 533 194 83 106 133 
228 249 254 110 107 108 
338 524 139 113 129 149 
325 810 118 211 145 111 
169 609 43 183 180 189 
293 157 108 127 115 104 
328 807 146 218 155 123 
265 512 67 107 115 126 
174 595 41 152 154 164 
237 58 287 118 95 73 
234 315 229 147 126 106 
271 330 306 173 134 95 
226 374 155 93 91 93 
234 356 186 135 119 104 
158 588 181 150 150 159 
325 390 96 93 114 136 
211 395 155 100 94 91 
277 405 234 97 64 30 
152 625 69 109 130 153 
280 989 155 124 97 66 
170 537 213 183 176 178 
238 337 138 104 122 141 
305 310 74 114 81 28 
255 244 301 128 117 110 
152 631 65 153 156 167 
234 287 103 100 113 130 
158 726 196 130 147 166 
252 154 246 96 75 92 
202 634 45 207 200 212 
274 99 255 114 95 76 
295 136 150 103 73 46 
157 581 142 44 65 129 
206 371 252 81 74 70 
117 601 131 128 95 67 
440 667 161 120 97 72 
211 874 180 140 108 78 
287 250 214 76 121 155 
249 716 214 114 83 69 
247 823 102 200 140 100 
164 556 202 91 133 167 
341 792 115 171 117 76 
228 368 149 84 105 127 
281 307 137 107 119 135 
271 591 90 69 108 138 
285 674 204 154 102 41 
248 258 121 93 72 81 
159 741 196 114 132 153 
418 688 168 127 168 207 
154 524 199 76 111 139 
224 416 297 182 186 197 
137 533 115 115 90 69 
274 947 207 136 106 88 
302 738 194 176 178 186 
258 255 184 75 106 131 
260 727 94 103 35 49 
293 789 169 205 148 123 
252 159 245 95 80 92 
244 52 261 81 73 68 
355 712 165 114 107 109 
326 692 182 124 112 101 
305 208 207 108 61 87 
153 728 158 77 90 116 
284 287 234 147 149 158 
207 404 291 63 89 117 
142 529 114 89 71 73 
246 393 71 55 95 131 
109 710 117 85 102 139 
103 723 110 145 152 165 
274 422 232 73 65 63 
354 629 193 84 72 61 
170 732 217 182 106 113 
275 115 212 97 88 82 
212 442 89 85 98 114 
195 515 50 97 108 121 
219 886 144 147 115 82 
176 415 86 64 100 128 
271 228 289 140 134 133 
180 439 166 58 75 100 
240 705 94 126 136 150 
186 432 109 31 70 108 
227 304 79 128 129 134 
251 218 240 105 102 102 
137 757 158 109 124 143 
224 953 220 207 159 138 
229 549 41 96 111 127 
256 175 150 133 97 82 
284 348 243 180 155 127 
335 703 175 90 106 123 
212 359 89 96 112 130 
210 972 151 107 87 74 
224 365 193 117 106 97 
241 776 87 136 108 111 
275 338 219 174 144 112 
272 806 93 186 165 151 
256 855 168 147 111 79 
306 397 78 134 142 164 
224 986 151 86 65 36 
154 690 138 63 73 89 
206 323 47 115 70 82 
309 764 173 189 133 104 
163 706 74 121 139 162 
276 914 199 169 124 95 
291 667 107 114 117 124 
288 269 73 73 89 107 
240 108 276 97 86 75 
269 488 221 71 96 148 
337 547 151 102 122 145 
260 269 49 110 120 132 
291 262 259 156 157 163 
263 578 90 167 157 154 
222 661 220 115 137 160 
302 179 241 84 79 94 
248 159 252 82 81 83 
231 645 216 63 93 118 
218 298 28 176 149 147 
278 304 61 163 165 175 
210 386 178 80 61 48 
154 510 153 72 105 132 
268 11 120 110 95 84 
305 510 182 124 138 160 
278 331 196 136 104 78 
325 676 182 66 86 126 
257 155 211 99 68 90 
325 676 113 131 128 132 
180 827 108 165 139 125 
289 543 77 193 190 199 
357 775 155 168 137 110 
300 572 189 85 112 143 
225 923 121 81 64 46 
272 415 264 75 98 137 
325 815 131 245 173 137 
334 459 116 55 90 132 
157 723 180 126 133 144 
212 472 268 125 125 181 
221 911 132 71 57 44 
279 974 147 118 90 60 
247 166 251 63 74 85 
159 500 99 63 81 100 
194 565 38 142 147 158 
300 782 93 131 121 115 
190 552 42 135 138 148 
284 190 186 106 47 48 
201 815 173 163 131 117 
201 387 207 69 50 41 
256 553 59 189 188 197 
247 165 252 60 75 88 
273 100 284 112 93 74 
173 723 71 172 184 203 
186 689 55 162 151 175 
238 330 130 76 104 129 
275 390 219 168 141 113 
170 761 205 166 69 74 
166 464 221 96 108 124 
148 692 141 89 93 101 
285 368 144 138 139 144 
260 591 83 65 103 137 
216 660 86 104 127 162 
314 527 90 164 167 180 
268 50 273 88 74 60 
208 368 256 107 100 97 
223 344 108 77 99 118 
303 181 234 97 87 103 
386 706 112 82 84 83 
328 559 114 103 121 142 
209 398 119 140 139 143 
220 332 294 106 115 129 
243 171 255 62 89 111 
243 174 251 74 78 84 
178 445 239 122 129 142 
241 173 255 62 86 107 
257 538 235 131 155 199 
110 713 95 126 127 133 
186 471 76 82 103 123 
176 831 157 200 160 130 
241 175 254 76 84 93 
275 112 279 100 89 79 
256 790 91 93 77 73 
181 405 79 54 97 131 
277 232 98 35 40 57 
234 313 114 122 126 136 
273 196 64 84 42 44 
424 671 180 125 140 192 
244 306 201 113 17 45 
137 503 114 110 78 64 
147 506 64 104 117 142 
208 899 157 137 77 45 
217 340 67 93 106 120 
302 199 243 114 79 95 
243 159 288 100 43 58 
254 587 83 78 114 146 
245 993 121 144 107 69 
151 523 155 67 89 117 
219 386 140 92 86 82 
145 551 64 130 138 154 
230 206 283 94 79 89 
210 727 224 126 131 148 
230 859 183 115 88 57 
218 998 132 143 116 94 
156 824 163 57 59 73 
246 169 250 74 75 78 
289 285 67 117 104 106 
350 615 183 104 89 75 
152 649 128 22 47 75 
162 489 94 60 82 102 
295 229 233 52 93 124 
281 350 258 164 143 123 
281 314 135 104 116 131 
222 342 254 142 124 107 
337 672 175 64 82 132 
271 373 260 69 87 122 
291 538 196 104 126 154 
315 482 169 84 105 136 
225 743 214 135 123 125 
284 235 270 114 91 94 
228 949 122 73 53 36 
118 586 128 128 95 68 
340 741 170 190 173 162 
250 778 193 207 153 125 
334 517 116 178 172 174 
162 456 172 68 88 106 
221 864 129 192 143 108 
165 473 144 58 73 89 
246 261 119 115 19 58 
159 691 145 92 97 111 
236 315 120 122 128 138 
276 205 74 89 40 56 
166 457 217 91 107 125 
173 615 200 138 155 178 
217 367 301 86 101 118 
162 589 145 64 70 108 
155 555 139 40 67 119 
323 790 103 175 156 139 
249 660 106 135 134 138 
311 396 80 122 136 157 
271 82 277 107 92 79 
260 146 47 139 104 76 
245 172 250 84 81 82 
271 185 54 53 42 49 
284 270 198 44 70 91 
260 63 110 114 91 66 
209 921 214 145 117 96 
278 245 195 85 54 69 
297 352 80 180 170 169 
197 541 43 141 139 142 
160 479 143 66 61 59 
180 491 242 147 157 176 
145 552 87 62 98 131 
158 684 168 28 55 84 
262 637 110 139 137 144 
291 759 91 146 128 113 
220 736 72 149 166 188 
294 468 179 134 147 166 
244 879 122 188 136 96 
126 570 112 122 97 71 
276 154 261 119 37 17 
239 158 282 95 46 62 
267 168 41 122 52 35 
320 583 115 97 110 126 
199 958 175 75 61 51 
274 282 301 88 115 139 
257 269 150 137 135 140 
265 31 278 125 111 101 
279 952 128 91 69 48 
262 461 84 72 95 122 
259 409 288 97 109 159 
260 250 46 133 117 101 
270 337 308 169 135 98 
251 162 247 74 66 75 
248 409 73 140 144 177 
442 669 161 113 91 67 
169 510 221 140 145 159 
235 373 79 58 116 163 
119 660 137 148 108 88 
197 408 277 108 121 138 
263 770 90 155 133 114 
329 464 105 176 173 178 
253 970 124 93 76 65 
155 659 125 47 61 86 
292 345 76 156 156 171 
228 962 216 122 94 81 
280 932 196 76 61 47 
176 650 138 30 68 118 
214 745 218 113 85 88 
126 800 153 134 97 87 
256 397 300 140 143 168 
150 549 196 49 75 107 
198 818 100 177 147 128 
221 347 250 141 124 107 
274 136 275 106 110 116 
290 652 211 88 118 144 
326 566 114 117 133 153 
297 938 182 98 78 62 
338 622 112 77 115 145 
211 397 137 83 47 55 
166 632 161 93 94 117 
237 869 120 210 146 98 
147 735 157 78 94 112 
227 905 215 150 111 94 
276 321 217 159 129 96 
251 371 69 52 81 127 
291 274 258 158 157 164 
259 157 221 138 80 66 
284 195 178 104 46 42 
283 296 148 128 139 155 
198 703 59 149 174 210 
271 889 135 123 94 77 
264 953 120 75 59 49 
332 506 110 136 141 153 
283 297 247 85 114 140 
221 423 293 178 183 196 
152 808 175 126 143 169 
252 162 245 89 66 69 
163 644 167 126 130 140 
247 346 67 151 155 183 
286 284 204 177 161 150 
201 946 188 105 84 71 
271 44 272 138 125 117 
282 271 187 77 109 136 
276 406 71 56 90 135 
232 275 41 68 98 123 
433 705 127 68 102 173 
256 23 138 170 153 149 
217 392 88 57 89 172 
264 238 178 114 31 64 
220 321 292 168 144 118 
197 944 160 68 53 44 
174 630 45 69 139 191 
181 823 105 209 132 67 
287 280 206 122 140 162 
149 536 172 101 115 138 
238 448 85 102 112 127 
253 485 76 92 100 111 
252 835 106 218 152 119 
250 244 227 118 114 114 
357 742 101 137 120 106 
290 259 202 155 151 153 
192 443 88 71 98 122 
254 498 69 100 109 120 
256 183 33 84 61 69 
252 166 245 82 66 41 
197 683 219 137 148 164 
289 236 179 50 60 82 
169 423 193 81 104 127 
244 856 112 226 162 125 
117 610 132 128 97 69 
296 129 180 107 95 86 
277 118 184 93 85 79 
172 542 212 124 150 181 
274 894 193 149 107 76 
291 944 149 83 67 52 
303 228 165 91 113 135 
350 612 143 88 104 122 
168 741 213 49 67 132 
105 713 96 161 160 173 
297 800 156 207 151 122 
205 645 49 118 107 133 
156 568 136 31 57 87 
297 180 132 46 91 127 
225 981 187 84 66 52 
203 406 152 57 53 51 
295 671 203 149 112 71 
150 533 109 65 74 86 
221 356 227 134 116 98 
284 438 192 104 126 149 
298 200 259 76 100 124 
290 475 81 169 166 170 
257 265 142 134 132 135 
127 637 140 133 99 77 
290 270 72 77 100 121 
267 799 177 201 141 118 
265 560 79 214 199 190 
149 765 175 87 88 101 
200 948 156 85 72 63 
273 394 258 88 103 128 
302 206 218 160 85 70 
238 956 121 138 105 74 
179 439 240 113 122 138 
244 321 185 134 122 111 
284 506 201 148 154 166 
245 87 290 117 95 76 
240 266 233 89 95 103 
190 678 53 201 193 198 
235 613 95 132 155 200 
156 709 93 96 135 201 
248 166 251 60 72 84 
235 573 58 114 149 181 
311 509 178 42 76 139 
263 537 59 165 160 163 
309 409 137 56 91 119 
281 296 167 104 122 142 
162 457 173 66 89 109 
132 745 150 77 101 141 
231 203 266 84 66 71 
287 272 248 161 159 165 
249 171 247 84 78 77 
380 711 158 107 97 92 
224 985 168 111 74 46 
237 913 106 79 64 52 
250 169 247 80 69 58 
313 543 179 68 81 96 
267 799 92 137 145 158 
304 168 199 62 49 64 
296 223 260 116 83 102 
218 875 145 164 126 96 
251 170 246 81 77 77 
305 589 104 189 176 170 
261 182 220 59 39 72 
403 741 130 196 111 123 
343 643 124 127 128 178 
272 886 171 139 109 78 
376 765 148 51 40 67 
289 244 199 100 26 59 
256 34 124 119 87 69 
249 825 104 208 145 107 
310 410 135 57 94 122 
298 321 72 227 176 126 
228 349 51 208 146 38 
275 452 230 80 95 116 
255 169 242 80 63 58 
299 592 102 146 149 159 
215 369 213 147 129 112 
296 564 89 135 145 172 
255 170 243 84 76 74 
282 898 156 86 69 52 
162 699 193 92 114 137 
274 608 90 175 185 201 
258 612 107 80 142 190 
258 266 305 139 135 136 
168 446 203 82 96 112 
272 383 265 53 83 129 
187 730 67 123 154 201 
235 889 121 131 92 61 
111 684 120 94 68 53 
190 382 74 124 89 104 
275 886 155 108 82 55 
231 578 66 132 148 169 
262 791 91 167 146 129 
179 485 243 85 105 148 
280 461 233 118 134 154 
231 569 42 186 184 191 
231 956 221 179 143 126 
183 413 98 61 95 121 
162 790 99 183 99 91 
267 377 73 78 96 119 
131 565 110 123 97 72 
165 518 54 75 100 126 
232 338 217 118 53 48 
291 753 192 203 152 119 
319 601 122 93 103 115 
133 647 98 72 66 64 
302 236 171 111 111 123 
253 1007 173 104 78 57 
231 226 295 92 106 123 
263 996 124 149 114 75 
291 442 178 120 134 151 
291 571 90 209 201 202 
212 597 39 105 154 197 
211 662 75 98 131 170 
258 250 142 101 50 72 
156 717 152 85 97 120 
254 175 247 83 76 80 
264 114 295 120 106 93 
284 904 145 100 84 71 
288 938 189 96 80 65 
233 585 220 149 158 173 
455 679 134 184 193 210 
275 301 225 100 108 121 
188 455 261 149 153 164 
260 214 210 91 78 88 
218 857 152 162 118 88 
266 455 227 70 88 119 
227 223 263 119 112 108 
220 532 46 73 93 113 
312 548 96 156 161 172 
304 353 96 87 56 66 
248 721 94 105 45 29 
272 498 219 65 100 145 
261 136 76 88 78 69 
269 891 134 119 87 69 
275 507 73 76 92 107 
337 794 113 165 112 76 
140 587 104 108 87 74 
267 904 122 80 64 51 
219 878 204 142 111 86 
275 403 253 91 87 97 
252 758 89 96 83 73 
366 622 141 54 68 90 
252 174 248 82 84 90 
271 367 293 97 111 146 
338 541 142 61 71 125 
211 363 264 104 94 86 
256 266 139 135 133 137 
245 395 72 74 92 142 
235 245 247 84 76 71 
310 506 84 93 112 133 
274 884 181 148 116 84 
160 488 159 62 101 131 
422 680 118 176 180 194 
325 380 102 109 129 152 
212 635 62 118 127 141 
