ply
format ascii 1.0
comment Created by CloudCompare v2.11.1 (Anoia)
comment Created 2/28/22 9:36 PM
obj_info Generated by CloudCompare!
element vertex 2027
property float x
property float y
property float z
property uchar red
property uchar green
property uchar blue
end_header
290 157 200 112 42 48 
230 762 87 169 133 107 
221 611 229 122 146 172 
150 749 171 88 106 124 
274 199 107 90 45 64 
238 123 99 104 84 64 
182 628 213 177 178 188 
276 239 151 82 101 121 
143 575 87 160 160 169 
408 641 170 109 90 69 
137 559 122 113 93 73 
173 716 81 155 167 188 
283 592 103 76 100 122 
240 286 123 124 94 66 
212 740 78 204 23 39 
239 69 323 130 101 89 
223 285 78 92 80 88 
197 657 57 85 157 212 
240 268 115 127 50 72 
239 274 115 135 134 138 
365 614 130 90 117 143 
217 304 277 157 133 108 
356 644 189 135 158 184 
200 704 236 113 137 162 
212 387 155 87 81 75 
226 642 105 157 161 180 
248 642 229 81 70 66 
217 252 277 116 119 128 
173 425 167 70 84 105 
153 498 181 54 82 121 
278 252 230 63 103 134 
157 523 214 110 108 112 
237 126 98 106 86 65 
243 123 316 54 78 95 
283 331 68 111 147 197 
177 602 50 176 174 182 
257 639 116 129 133 145 
278 384 215 185 155 123 
165 595 129 57 74 101 
258 540 63 135 133 135 
238 126 98 105 85 65 
157 706 164 83 101 132 
230 561 226 183 180 185 
267 115 193 97 83 71 
239 124 100 102 83 63 
284 177 262 77 47 54 
292 226 219 58 79 113 
248 318 43 150 146 147 
201 400 124 95 109 127 
172 460 238 79 98 135 
250 977 220 93 74 59 
272 982 144 129 103 73 
218 347 237 101 77 54 
277 209 305 127 34 60 
283 192 141 70 81 96 
242 97 107 109 88 67 
353 641 196 121 153 183 
348 640 190 94 129 159 
129 540 133 117 96 75 
205 905 159 154 101 79 
243 98 107 107 86 64 
243 99 107 107 86 64 
286 651 220 146 99 40 
243 96 108 110 88 67 
298 137 189 107 95 87 
295 950 183 88 70 52 
216 303 284 163 137 109 
241 100 107 109 88 67 
282 157 109 113 101 91 
240 102 106 108 88 68 
199 394 274 98 113 132 
272 688 103 119 137 157 
190 807 185 220 177 134 
224 964 221 111 87 76 
306 591 192 107 115 127 
275 195 106 43 58 82 
420 671 114 100 130 169 
282 185 137 95 42 41 
281 219 265 82 32 50 
230 517 248 102 125 167 
131 534 149 128 97 78 
242 103 106 106 85 64 
304 561 192 159 157 161 
241 629 225 143 126 120 
268 500 73 91 106 123 
322 606 137 80 85 94 
178 571 48 102 119 143 
274 120 163 134 94 63 
262 237 35 136 140 151 
266 585 232 123 145 193 
278 845 131 208 155 112 
245 99 107 112 90 69 
256 68 81 120 100 81 
229 461 66 93 101 112 
233 991 134 168 125 84 
305 152 154 134 114 97 
390 633 188 68 69 73 
227 609 67 184 184 194 
258 253 198 67 97 128 
125 758 111 116 138 185 
246 99 107 115 92 70 
321 720 193 183 149 113 
263 773 204 206 151 122 
245 283 213 114 42 48 
234 390 301 77 105 165 
271 797 188 199 136 115 
263 223 233 73 89 104 
394 745 155 104 99 103 
219 365 178 81 69 62 
250 96 330 119 100 82 
276 240 68 118 44 16 
238 880 131 156 112 76 
117 732 107 73 91 200 
146 687 153 85 97 112 
385 747 159 154 138 130 
177 429 106 74 101 128 
246 100 107 113 91 69 
147 523 77 100 112 136 
249 152 287 60 67 75 
316 534 106 103 124 148 
295 227 255 136 95 85 
268 257 301 88 123 152 
246 102 106 113 92 71 
155 605 147 60 59 71 
245 211 264 67 81 95 
236 269 239 94 36 40 
287 244 169 136 108 90 
324 600 169 81 77 74 
207 441 85 94 105 119 
237 592 84 116 133 157 
372 661 120 165 164 190 
250 111 330 151 64 2 
218 324 291 102 111 123 
201 402 153 50 58 66 
208 627 56 188 186 195 
208 529 52 110 118 129 
280 883 148 133 111 89 
211 592 225 185 180 183 
366 696 161 144 91 70 
246 309 149 83 117 145 
396 663 109 45 73 156 
242 105 106 105 84 64 
308 703 211 130 95 67 
213 599 48 85 137 187 
306 539 194 124 140 167 
267 201 239 76 65 73 
154 633 72 144 148 161 
306 813 149 204 148 119 
270 116 178 107 89 71 
210 328 53 108 24 51 
324 596 157 115 112 114 
240 109 104 101 82 62 
251 400 292 73 89 156 
173 528 61 84 102 121 
235 782 203 171 158 152 
215 347 106 127 125 129 
215 552 46 110 122 137 
259 826 113 218 153 114 
226 862 199 130 101 72 
281 532 216 96 113 151 
281 118 316 159 68 2 
162 486 75 84 105 126 
286 365 248 177 150 122 
286 564 94 132 137 171 
284 196 243 67 51 63 
164 804 114 160 147 146 
211 810 187 125 110 101 
284 148 203 95 61 54 
270 203 79 83 44 64 
203 959 168 100 84 74 
273 320 157 78 114 144 
277 111 289 104 94 86 
224 298 77 132 129 132 
140 606 113 117 92 71 
176 601 50 159 158 168 
304 745 97 134 99 61 
152 680 97 43 86 170 
277 149 265 95 37 40 
286 168 231 51 20 26 
244 331 185 108 28 52 
288 145 209 80 67 58 
247 104 105 113 91 70 
337 738 176 67 51 50 
166 735 210 132 155 181 
177 520 61 130 132 137 
295 196 156 120 68 78 
252 406 285 137 145 169 
247 106 105 110 89 68 
247 107 104 109 88 66 
244 108 105 104 83 63 
221 1004 151 128 100 71 
308 166 210 44 62 86 
265 172 202 98 75 92 
278 205 185 114 39 63 
244 110 104 101 83 65 
127 557 129 110 90 69 
265 214 233 63 93 117 
126 743 107 125 142 171 
336 690 114 113 115 120 
144 529 80 109 129 154 
198 727 237 106 154 192 
249 483 65 90 103 119 
150 488 84 84 99 116 
304 185 242 112 63 86 
188 680 215 67 96 128 
217 438 283 119 131 163 
337 675 174 44 52 106 
154 477 170 58 90 121 
242 72 332 125 101 83 
268 325 235 111 68 63 
382 633 121 62 83 101 
158 448 178 68 97 122 
309 146 268 107 82 60 
363 779 125 187 169 158 
167 740 208 106 133 159 
203 826 174 110 111 120 
362 787 136 219 157 118 
233 195 283 80 59 53 
255 98 98 116 94 71 
198 491 257 95 115 179 
312 175 259 151 110 83 
221 883 155 147 115 84 
254 275 170 101 120 139 
154 781 111 150 157 170 
252 96 103 116 93 71 
237 908 232 189 144 125 
299 569 201 124 144 174 
321 737 188 137 81 82 
131 810 161 119 111 122 
240 870 130 209 148 99 
296 215 169 109 112 123 
353 760 168 144 132 125 
234 559 228 166 174 190 
310 648 213 102 81 73 
220 864 155 171 125 96 
254 375 306 83 115 160 
259 664 242 207 152 85 
156 817 123 198 156 104 
273 957 213 134 104 85 
182 410 192 58 73 90 
262 188 186 45 89 119 
226 444 77 84 97 111 
172 448 115 92 100 111 
254 98 100 118 95 72 
196 922 163 100 61 46 
241 266 231 91 72 80 
167 590 57 165 165 173 
207 445 280 106 123 162 
188 682 64 181 180 191 
282 164 131 136 70 2 
220 320 264 137 119 101 
419 648 182 63 66 71 
348 619 195 136 95 78 
160 606 167 110 107 119 
230 266 250 98 100 105 
272 415 228 93 79 69 
240 339 47 107 135 179 
195 926 160 131 101 84 
289 434 175 71 105 136 
274 73 335 113 93 73 
214 924 130 87 67 48 
212 501 58 96 110 126 
315 696 106 123 29 28 
216 355 78 128 117 111 
159 451 185 57 59 66 
246 293 39 81 115 143 
328 794 165 197 150 116 
228 309 50 134 136 143 
257 108 273 113 101 89 
317 719 199 182 153 124 
302 189 269 113 95 112 
252 101 103 119 96 73 
300 318 70 143 109 69 
283 165 260 42 45 60 
284 171 253 74 36 39 
351 799 142 210 145 109 
238 185 280 92 72 51 
271 586 97 88 117 144 
282 18 123 130 120 115 
264 401 281 89 110 161 
296 239 266 124 57 75 
197 782 204 204 191 184 
232 681 105 95 115 138 
272 878 187 129 101 68 
271 216 63 67 45 46 
221 340 68 137 101 71 
216 355 80 133 114 93 
257 150 104 83 72 61 
234 861 124 194 134 82 
202 358 255 67 65 64 
218 374 153 100 93 87 
220 695 86 72 118 157 
316 414 94 106 109 116 
232 915 232 148 116 92 
326 460 104 154 159 173 
132 743 158 100 104 149 
256 267 192 133 133 139 
255 200 262 82 53 48 
237 575 56 136 162 194 
227 289 64 70 104 132 
253 156 326 110 36 43 
178 615 132 75 91 115 
119 715 137 83 102 135 
280 109 309 93 82 73 
133 526 149 131 99 82 
321 665 188 151 72 76 
167 617 58 153 154 163 
373 769 125 146 126 110 
178 463 247 89 111 145 
224 601 59 148 95 100 
236 580 60 105 156 198 
381 666 117 168 167 194 
280 266 88 142 136 135 
280 358 220 149 29 71 
258 994 189 160 135 110 
215 809 107 147 120 93 
276 391 211 172 143 111 
168 621 57 132 122 123 
265 921 124 83 64 50 
214 978 171 93 68 53 
179 737 87 185 181 190 
277 242 279 86 87 104 
263 144 248 102 80 91 
165 798 193 110 104 113 
240 330 198 75 71 73 
200 913 157 145 95 72 
252 96 104 117 93 72 
244 410 79 153 154 172 
293 266 264 163 162 168 
208 812 108 183 149 112 
174 441 237 90 106 129 
255 290 49 158 166 181 
266 310 231 107 22 48 
356 621 193 132 99 76 
327 447 108 112 129 149 
263 227 182 117 55 72 
384 675 164 136 171 205 
232 353 159 136 123 112 
209 368 106 132 113 93 
235 347 153 116 122 133 
156 676 143 36 54 76 
159 469 149 89 73 59 
249 827 176 168 115 97 
248 109 103 106 85 65 
288 337 86 88 102 121 
275 32 90 134 99 84 
262 66 98 113 94 75 
292 675 108 109 110 115 
276 303 210 136 127 122 
223 868 190 124 95 68 
277 441 246 152 157 173 
198 382 188 66 59 53 
324 805 118 207 145 108 
270 448 221 80 106 138 
271 291 204 100 105 113 
252 324 48 142 137 137 
222 974 143 108 81 52 
376 625 148 48 61 78 
325 681 114 111 115 122 
197 390 115 125 128 136 
221 325 300 126 92 56 
275 885 198 157 119 89 
314 426 90 99 105 183 
269 44 87 125 100 81 
236 308 320 152 150 155 
287 155 216 65 42 49 
157 455 173 59 87 115 
195 597 221 144 145 154 
286 257 60 101 114 129 
203 529 231 200 196 202 
241 840 175 164 122 92 
278 103 318 103 93 84 
285 975 166 124 95 62 
273 491 241 138 147 162 
254 105 98 113 92 69 
315 417 89 122 125 134 
379 625 134 52 59 80 
148 573 75 112 128 149 
255 107 96 112 91 70 
140 636 111 80 70 60 
157 461 134 85 77 69 
245 345 56 173 172 185 
210 371 90 149 122 89 
316 363 98 98 118 141 
252 104 101 114 92 70 
216 900 155 108 82 48 
274 312 222 155 117 91 
264 45 317 80 74 70 
209 504 251 126 142 185 
283 341 125 78 77 84 
225 210 285 124 120 120 
259 49 114 116 91 65 
306 132 226 109 95 85 
176 653 59 177 162 167 
181 413 160 66 71 77 
274 893 210 145 105 75 
260 277 45 154 151 155 
174 650 124 73 88 121 
308 523 189 112 128 159 
307 534 192 158 165 177 
276 204 191 104 35 55 
220 339 92 108 118 131 
280 261 86 106 74 88 
282 407 186 113 105 100 
218 857 151 186 133 105 
232 239 260 109 106 106 
173 787 101 118 87 89 
248 217 318 124 118 115 
271 281 119 149 68 4 
265 910 222 168 127 106 
150 538 161 99 111 126 
162 729 110 93 116 167 
271 757 212 208 184 163 
276 200 111 81 36 49 
262 69 95 113 93 70 
306 426 90 135 146 186 
284 129 243 91 68 42 
272 409 78 97 120 154 
151 606 150 75 61 55 
283 554 86 176 183 213 
252 298 173 127 126 130 
274 156 57 124 97 63 
275 367 180 159 139 119 
222 780 207 211 182 156 
212 643 64 187 182 187 
230 445 276 166 167 183 
286 425 189 72 88 113 
252 111 100 107 86 64 
225 697 236 120 148 174 
192 766 90 183 100 115 
134 717 100 76 118 182 
274 303 275 129 128 140 
393 745 123 122 99 92 
154 662 83 91 140 179 
263 494 252 84 108 161 
249 105 104 112 90 71 
187 829 120 178 146 124 
198 934 183 74 59 46 
307 598 196 66 64 65 
244 265 123 125 31 72 
259 240 216 74 97 117 
274 248 131 105 56 58 
162 749 187 113 132 153 
246 816 107 117 137 160 
283 154 131 129 115 103 
279 632 116 155 154 168 
393 669 171 138 167 197 
213 767 215 168 168 176 
240 989 197 92 67 48 
218 300 40 75 99 121 
302 148 157 120 100 85 
308 596 122 77 86 96 
254 345 320 99 115 143 
272 328 68 124 137 169 
171 677 69 82 140 185 
237 587 69 120 145 175 
241 673 111 141 137 138 
279 320 116 76 108 136 
289 218 160 96 81 92 
273 461 240 71 99 125 
243 118 103 96 78 58 
238 668 111 109 126 146 
137 521 130 135 103 88 
149 523 156 57 91 119 
305 140 260 104 89 77 
308 727 208 145 119 91 
129 589 119 120 93 65 
258 928 233 178 135 110 
246 131 302 118 87 89 
273 274 285 121 134 151 
283 203 271 86 35 48 
270 375 284 51 93 132 
327 575 132 154 144 140 
319 144 259 144 91 46 
322 481 102 116 124 137 
216 258 279 106 116 129 
220 365 132 130 130 135 
239 205 318 116 45 75 
253 842 118 215 148 111 
218 260 296 74 110 139 
245 119 103 93 76 57 
292 775 98 132 87 49 
153 506 196 83 112 138 
201 789 200 170 140 117 
257 200 24 90 51 55 
324 746 183 135 130 129 
246 119 103 94 76 57 
256 96 93 109 89 67 
268 799 186 201 141 119 
387 755 127 210 168 124 
286 541 83 106 115 127 
188 377 225 128 139 155 
335 602 178 72 70 72 
367 711 112 96 42 37 
240 115 104 100 80 60 
416 714 160 81 52 79 
157 563 205 112 132 174 
143 695 155 123 124 130 
273 327 200 140 111 85 
189 399 227 63 84 103 
223 315 258 136 121 109 
334 784 112 121 100 82 
269 41 353 172 156 149 
225 288 307 150 149 153 
201 946 163 71 58 48 
273 308 280 129 102 121 
222 979 202 86 73 62 
347 622 119 102 127 151 
270 174 44 88 70 78 
244 113 104 100 80 61 
248 300 149 88 69 86 
175 557 217 65 94 121 
256 283 320 95 96 111 
246 112 104 100 82 65 
225 525 53 115 126 140 
230 301 63 120 113 112 
190 394 185 81 103 126 
427 666 117 78 101 125 
343 645 177 112 158 197 
297 386 139 149 144 146 
343 770 110 190 166 147 
213 528 234 172 177 189 
349 667 167 81 88 124 
282 404 177 130 115 103 
315 139 234 151 79 12 
297 596 202 78 101 131 
241 123 102 98 79 58 
241 123 103 97 78 58 
330 520 164 136 146 161 
195 583 219 160 171 190 
110 741 118 171 169 176 
194 498 63 152 147 148 
221 501 56 114 126 144 
440 661 144 89 77 68 
165 704 205 112 134 157 
194 480 70 113 118 125 
240 124 99 102 82 63 
296 180 206 90 52 61 
292 372 134 110 116 126 
151 617 149 75 64 57 
263 182 264 74 66 62 
290 233 168 115 120 129 
308 327 86 136 76 93 
381 710 113 141 27 32 
236 989 194 94 66 44 
232 321 312 106 120 136 
152 523 198 141 139 144 
257 702 105 117 125 136 
252 290 160 75 98 119 
218 649 230 84 117 147 
230 320 119 84 78 89 
290 457 184 140 147 163 
389 626 133 56 84 113 
156 738 115 45 51 98 
262 218 242 69 85 100 
281 318 185 110 131 153 
293 200 157 88 76 92 
263 583 93 136 144 157 
417 711 161 142 50 70 
225 263 261 109 104 102 
205 356 241 84 70 55 
251 882 133 155 112 74 
255 837 117 217 151 116 
337 527 141 66 90 125 
284 524 213 140 148 163 
259 163 277 62 70 80 
276 328 129 106 125 144 
279 221 147 132 38 63 
148 595 74 139 151 169 
167 460 150 64 69 80 
250 959 227 143 107 91 
176 482 72 89 104 120 
165 767 106 146 154 172 
274 22 138 147 105 81 
327 771 104 71 60 70 
225 498 255 90 115 158 
217 548 225 198 192 194 
172 460 107 91 99 108 
281 336 241 123 33 55 
170 626 204 115 135 168 
288 446 189 65 99 141 
262 460 234 82 100 122 
283 192 272 97 38 47 
423 723 133 193 72 96 
346 785 163 190 139 109 
281 911 192 148 110 85 
240 269 320 93 119 143 
229 908 227 154 118 101 
266 643 237 120 80 96 
224 873 146 179 132 101 
389 648 185 79 110 176 
245 126 103 89 72 55 
244 81 329 112 92 73 
274 325 150 84 115 144 
220 466 269 175 178 192 
276 79 332 112 93 75 
236 259 37 102 68 89 
297 140 243 109 71 57 
413 705 163 150 152 161 
274 265 229 76 69 90 
300 195 161 146 98 92 
259 247 199 72 111 142 
403 652 113 83 104 125 
314 709 203 144 131 123 
247 127 103 86 69 50 
146 493 103 95 113 154 
267 331 235 139 120 102 
265 28 366 157 116 95 
263 969 136 135 104 74 
303 706 219 124 117 118 
119 733 139 101 115 140 
265 157 226 51 41 62 
153 559 154 108 117 132 
206 913 138 124 101 79 
302 806 160 205 146 121 
170 670 156 104 107 115 
226 396 82 126 142 169 
266 66 319 104 90 78 
220 736 231 189 141 110 
232 488 252 125 142 173 
235 339 141 72 55 65 
223 561 224 133 153 179 
264 107 254 113 101 92 
242 344 178 123 110 99 
152 517 198 77 109 136 
189 783 97 181 140 82 
251 115 100 98 80 63 
271 699 102 132 144 161 
269 159 253 122 46 71 
250 115 102 97 79 60 
365 750 163 172 141 112 
216 287 275 156 132 107 
279 276 91 143 138 140 
130 733 156 152 151 157 
290 248 253 70 109 140 
170 646 168 38 50 90 
177 611 139 76 88 116 
130 805 138 177 189 206 
205 843 153 197 144 119 
404 666 178 141 174 208 
356 743 104 146 102 53 
252 419 277 107 126 170 
188 412 120 52 91 121 
271 315 167 81 117 147 
343 725 172 140 124 111 
276 233 68 91 45 48 
422 648 143 65 69 75 
225 778 93 132 159 185 
280 688 101 116 103 105 
253 113 98 107 88 69 
253 113 99 106 88 69 
255 434 84 101 122 148 
319 764 101 198 160 114 
252 115 99 101 81 63 
298 134 227 108 72 54 
404 689 163 137 159 184 
117 723 130 84 107 140 
134 821 158 210 171 116 
283 170 247 80 32 44 
434 707 154 128 168 204 
275 981 175 80 54 37 
290 127 193 92 75 64 
308 337 76 153 116 81 
175 689 70 98 131 166 
367 749 163 171 143 112 
289 128 174 125 64 3 
279 942 209 95 78 65 
170 735 94 120 146 178 
274 312 197 124 120 121 
317 364 104 88 113 139 
305 506 93 83 104 135 
226 606 229 122 145 168 
316 675 203 126 24 46 
308 185 250 109 111 118 
183 489 68 65 87 113 
315 154 213 81 53 73 
147 556 182 55 84 121 
261 16 345 113 101 93 
163 589 60 161 165 178 
268 606 100 65 158 217 
248 891 226 132 93 76 
260 62 345 125 96 71 
222 779 207 196 162 127 
199 918 167 126 84 66 
193 566 46 169 165 168 
239 401 79 80 104 151 
390 648 109 19 61 99 
255 544 60 147 145 148 
170 433 220 109 118 131 
281 419 205 125 108 94 
321 616 118 68 87 105 
265 413 230 97 68 60 
284 549 81 138 146 161 
269 312 198 94 96 102 
273 384 69 83 113 169 
398 652 110 49 58 86 
211 335 43 224 164 87 
193 388 242 88 105 123 
249 458 76 107 117 129 
193 711 72 141 166 202 
285 253 212 170 165 165 
167 447 216 132 132 137 
201 512 244 214 207 211 
286 799 177 203 144 121 
221 661 92 109 134 172 
247 392 301 115 133 175 
224 738 229 157 140 131 
296 601 209 48 55 64 
196 655 57 109 163 209 
157 709 106 69 73 137 
273 231 300 150 145 146 
371 729 160 74 70 82 
276 756 97 123 100 78 
262 140 250 67 85 106 
231 609 84 107 138 184 
281 119 182 107 85 65 
197 923 172 77 54 39 
248 884 224 183 135 112 
231 982 205 137 113 90 
255 268 197 129 130 136 
240 236 318 108 95 82 
286 211 206 32 37 45 
261 34 84 89 77 65 
143 587 115 98 85 75 
271 482 79 86 96 109 
358 646 111 132 152 203 
170 471 235 131 139 153 
176 625 127 70 80 111 
276 343 151 135 123 120 
293 336 71 153 159 175 
277 719 98 59 43 98 
251 125 101 89 72 55 
219 731 78 154 171 193 
410 641 147 80 81 84 
266 436 263 86 111 150 
266 213 29 80 75 74 
336 565 147 151 147 148 
221 783 95 166 142 136 
270 383 230 126 97 65 
290 891 154 103 83 64 
322 616 201 142 102 86 
236 522 243 109 134 165 
333 655 124 80 108 157 
255 205 318 129 30 68 
257 192 157 136 86 68 
162 542 64 109 123 141 
311 429 91 94 121 182 
269 358 72 82 96 111 
287 376 145 124 130 141 
282 523 215 141 150 164 
298 392 144 101 113 129 
261 125 203 109 96 87 
179 558 218 99 147 184 
163 621 196 107 122 157 
215 623 59 151 166 188 
270 166 255 100 47 63 
373 637 111 46 98 140 
261 991 183 116 91 63 
299 575 199 71 108 152 
148 582 105 109 121 137 
278 259 55 148 145 148 
252 123 100 89 73 56 
280 662 109 115 118 126 
175 651 125 75 92 119 
209 693 237 133 154 181 
268 931 123 79 62 52 
149 574 108 74 65 75 
149 538 122 87 88 93 
170 827 171 169 139 108 
253 126 99 85 70 53 
325 528 117 180 176 181 
213 401 293 68 94 141 
254 125 97 86 71 55 
209 506 58 91 103 118 
267 306 58 108 90 91 
255 125 96 89 73 58 
301 440 92 90 106 123 
220 890 156 138 107 77 
196 918 159 109 77 58 
231 215 273 114 110 109 
296 138 232 110 65 50 
119 690 137 111 131 160 
229 341 197 80 72 72 
161 696 160 63 85 125 
383 646 187 146 167 198 
203 635 56 194 190 198 
252 124 100 88 72 56 
275 266 221 144 143 150 
141 644 104 41 65 83 
150 585 108 62 94 119 
220 869 165 160 120 90 
141 758 169 82 112 138 
310 715 210 157 137 120 
228 904 138 69 55 42 
414 672 113 121 143 181 
169 517 64 71 97 125 
274 180 238 42 41 50 
333 657 124 63 98 144 
246 767 208 118 137 158 
145 574 80 122 142 166 
214 384 154 98 90 84 
357 681 124 84 91 110 
240 14 129 103 93 86 
150 682 98 94 119 186 
266 135 214 133 61 0 
170 590 206 96 115 138 
309 404 125 41 77 103 
196 919 152 107 76 58 
403 743 149 83 77 96 
320 707 196 114 105 102 
392 716 160 120 34 63 
214 611 227 102 129 157 
219 875 164 155 117 89 
263 14 147 103 86 75 
264 146 133 123 109 98 
166 459 224 69 96 128 
210 950 219 185 142 117 
224 622 70 127 152 182 
220 264 78 120 31 47 
261 204 252 75 37 37 
293 430 169 103 117 135 
163 618 171 80 91 123 
168 543 217 139 141 150 
355 633 203 79 103 167 
403 666 111 86 119 190 
278 33 350 148 135 127 
202 470 268 168 171 187 
294 212 249 123 84 92 
355 610 179 93 83 74 
243 14 133 98 87 78 
192 638 216 76 124 160 
140 484 155 128 92 78 
243 15 134 98 86 77 
263 1009 154 131 98 66 
362 614 170 61 64 69 
244 78 330 120 99 80 
256 131 77 88 80 72 
244 11 130 111 99 91 
245 11 130 111 99 91 
263 770 205 205 150 124 
258 179 173 108 92 88 
259 75 91 105 86 66 
194 461 81 122 123 128 
250 460 262 118 139 179 
176 417 215 79 97 116 
251 300 191 124 118 116 
240 932 117 63 48 34 
229 547 48 102 114 130 
260 240 179 81 97 115 
243 445 269 179 181 191 
252 975 220 101 85 71 
272 176 86 101 31 43 
157 596 143 59 67 87 
251 455 264 185 186 197 
285 152 209 74 51 46 
284 159 247 100 47 42 
245 12 131 111 99 91 
218 421 90 86 98 113 
146 510 127 144 106 99 
301 499 90 131 139 160 
272 287 162 96 118 140 
293 884 155 133 103 75 
419 686 117 107 116 147 
321 398 107 43 84 132 
318 432 142 82 98 117 
241 288 222 144 126 109 
303 613 101 61 83 105 
209 661 67 162 161 167 
140 505 128 146 107 92 
164 700 198 56 92 139 
284 507 81 96 111 128 
236 958 230 165 128 113 
280 151 112 118 108 98 
128 585 120 119 95 68 
289 273 257 137 139 147 
202 964 175 98 80 65 
273 571 229 53 93 125 
229 997 183 166 141 118 
257 226 241 70 84 99 
274 71 323 103 88 75 
266 190 38 92 48 38 
252 685 109 74 108 136 
302 143 262 109 88 75 
247 12 136 118 105 96 
247 13 136 120 106 97 
201 371 206 70 44 18 
148 598 75 110 138 167 
261 184 265 77 64 54 
274 270 265 107 106 110 
197 821 113 86 73 74 
239 319 135 88 108 129 
122 701 139 119 137 159 
321 655 190 151 141 169 
240 683 109 89 108 129 
241 1005 134 97 76 56 
274 115 199 94 84 77 
271 926 223 164 128 99 
216 369 124 128 130 138 
204 392 281 84 104 126 
318 574 181 128 126 131 
207 765 88 173 33 40 
164 578 59 140 147 160 
278 194 188 108 52 51 
299 183 269 102 102 109 
306 321 85 130 70 78 
250 10 131 115 103 94 
332 570 137 152 147 147 
273 148 82 114 103 95 
279 265 81 81 93 109 
158 768 188 106 65 70 
260 350 67 66 90 118 
244 285 33 153 155 164 
139 588 116 111 90 73 
156 732 177 99 119 140 
403 660 109 56 107 148 
144 505 81 77 88 103 
306 787 102 114 123 138 
293 233 176 111 110 122 
208 542 225 125 68 84 
254 544 59 148 145 147 
170 571 54 142 144 154 
317 151 252 152 75 4 
222 818 109 205 161 106 
218 340 110 118 124 134 
300 188 229 129 28 70 
319 381 109 94 121 150 
280 174 280 63 50 71 
285 169 229 53 21 27 
151 748 172 89 108 128 
279 643 115 116 121 132 
242 597 100 166 165 190 
299 135 236 118 84 68 
383 626 155 61 68 77 
210 371 82 126 87 107 
264 264 47 172 175 185 
201 440 279 74 99 149 
279 203 119 60 42 51 
215 322 50 134 120 109 
263 612 115 72 133 181 
353 611 161 99 93 90 
346 630 106 129 149 176 
250 778 203 202 154 127 
324 786 108 106 95 90 
245 286 213 116 14 52 
222 355 126 126 127 132 
246 264 323 138 134 134 
274 407 227 143 72 24 
200 442 88 91 103 116 
286 675 214 142 110 70 
181 440 128 72 93 113 
246 321 197 107 85 86 
303 131 215 99 78 65 
293 913 179 114 85 61 
296 940 167 86 66 57 
279 604 221 160 117 102 
257 259 166 132 132 137 
277 335 132 83 116 143 
235 33 352 134 122 115 
319 690 192 136 121 115 
395 651 109 49 66 98 
290 833 141 207 153 123 
200 363 231 87 76 66 
333 497 118 50 85 132 
265 108 246 112 101 94 
300 129 197 98 84 71 
270 243 197 91 39 57 
194 382 246 141 139 144 
229 619 91 124 148 178 
247 510 59 54 83 119 
281 399 186 124 97 74 
270 132 153 128 98 75 
246 297 323 154 151 155 
255 220 317 120 129 141 
248 14 137 125 111 102 
269 30 328 124 110 99 
252 68 343 121 95 72 
230 625 107 147 159 181 
264 142 222 101 71 62 
197 415 277 136 141 152 
318 751 183 120 88 66 
235 175 307 115 88 67 
250 12 137 123 110 101 
208 844 126 158 135 117 
250 12 138 124 111 102 
183 489 248 86 106 158 
283 380 241 152 68 5 
403 633 127 91 104 123 
330 535 130 121 130 154 
251 13 139 126 113 104 
282 202 251 80 60 70 
122 647 149 150 109 85 
310 590 188 139 135 137 
225 328 74 114 122 134 
211 480 62 86 101 117 
262 143 144 122 110 99 
165 424 194 84 103 131 
120 724 124 71 90 138 
314 812 150 209 148 115 
244 78 312 121 93 79 
307 185 247 111 106 119 
247 843 119 212 149 107 
265 117 181 106 88 67 
237 1008 155 153 112 65 
256 587 89 70 102 139 
289 173 239 50 28 30 
433 657 164 115 94 71 
262 165 179 118 78 68 
262 456 84 41 77 109 
262 163 189 116 79 65 
168 706 83 190 186 193 
205 717 238 148 105 108 
255 10 137 126 114 106 
264 992 133 141 108 67 
299 781 182 201 145 117 
254 263 212 107 106 109 
255 445 268 110 132 183 
249 293 197 135 120 108 
204 932 210 156 122 93 
348 751 170 154 146 143 
335 757 172 100 75 56 
336 550 143 146 145 150 
308 628 213 86 95 108 
279 116 205 95 83 74 
272 435 216 94 82 71 
231 891 135 102 78 59 
284 317 262 117 126 140 
310 732 202 146 144 147 
236 592 79 91 124 153 
195 840 128 196 177 163 
173 548 57 100 120 142 
194 382 196 60 58 57 
220 752 223 152 145 156 
205 640 221 152 150 156 
247 325 187 108 21 48 
245 879 226 177 138 109 
310 370 108 78 52 62 
149 561 73 142 144 153 
219 518 244 137 155 195 
250 454 80 44 78 105 
282 128 174 120 77 45 
272 268 227 113 113 123 
231 614 98 102 132 178 
202 382 178 83 78 74 
272 243 46 101 118 139 
255 12 143 129 117 110 
354 670 127 93 104 130 
254 14 142 133 120 112 
283 170 223 50 30 26 
237 437 83 69 85 101 
308 473 178 88 107 133 
215 915 223 61 56 57 
339 604 176 86 79 76 
267 384 229 128 98 63 
273 137 322 85 49 77 
280 199 199 102 36 54 
215 687 78 79 122 157 
190 393 234 93 107 123 
285 140 198 109 75 58 
244 399 298 110 126 175 
305 610 123 76 92 108 
162 462 208 104 115 129 
242 59 338 129 103 83 
227 887 222 162 118 103 
241 17 130 113 99 90 
340 693 114 114 117 123 
232 604 92 143 160 190 
239 912 231 136 103 78 
175 457 155 70 81 94 
144 468 137 95 83 72 
308 763 185 188 139 105 
238 564 53 153 141 147 
222 238 274 93 101 111 
163 483 224 124 134 150 
262 232 179 105 35 58 
194 644 53 91 154 204 
304 747 197 190 152 122 
328 565 172 78 101 132 
336 514 135 162 163 169 
209 962 206 130 102 86 
162 668 72 90 137 176 
290 500 198 155 160 172 
389 669 170 140 165 193 
225 338 207 112 100 92 
225 488 257 127 144 178 
276 223 124 147 53 44 
232 818 109 182 158 137 
198 627 51 210 202 207 
231 468 62 104 108 115 
157 703 162 98 111 127 
273 242 136 93 78 101 
271 171 258 88 49 57 
298 382 135 136 135 140 
295 562 206 78 110 150 
270 193 62 84 46 65 
177 722 81 152 166 190 
183 428 251 100 109 130 
150 543 199 123 136 153 
208 746 229 192 149 134 
163 577 60 119 134 155 
246 295 204 117 86 69 
325 754 100 158 137 118 
338 769 168 175 131 98 
267 219 43 52 43 48 
285 205 205 83 29 43 
134 581 149 122 90 67 
298 419 161 90 105 123 
367 736 162 117 107 100 
198 753 223 177 152 128 
248 425 84 103 119 155 
213 397 91 94 111 144 
220 549 226 198 190 191 
209 379 285 53 81 118 
268 598 222 50 67 100 
280 377 164 97 121 146 
349 641 186 101 136 167 
132 607 114 127 96 69 
319 603 134 89 95 104 
292 674 108 103 107 114 
305 571 107 156 164 181 
430 714 148 201 211 231 
127 649 151 145 103 84 
267 171 205 110 51 73 
151 821 130 207 96 62 
262 156 208 96 90 95 
235 246 316 114 110 111 
280 718 98 120 99 95 
154 522 206 75 108 134 
211 947 139 93 75 57 
167 760 214 85 47 117 
250 735 94 106 54 60 
319 619 202 135 98 82 
123 591 124 111 88 62 
305 733 209 212 194 181 
234 209 314 136 128 126 
307 630 114 217 210 224 
270 263 296 86 111 134 
278 994 164 133 106 80 
215 623 60 153 168 190 
212 773 211 126 109 99 
224 729 81 152 167 186 
231 688 102 121 123 130 
217 978 153 83 66 50 
228 311 111 133 125 122 
416 643 134 51 69 85 
279 718 98 115 120 132 
322 730 99 55 53 89 
338 550 155 98 119 142 
231 992 182 96 66 40 
291 230 250 140 125 118 
272 287 291 100 118 139 
246 20 135 149 137 131 
286 354 76 80 95 111 
279 829 115 237 170 130 
260 241 165 101 67 79 
274 236 123 99 81 104 
229 343 312 118 74 96 
414 644 183 72 67 64 
246 23 132 151 137 129 
227 300 100 99 112 129 
247 22 133 154 141 135 
294 149 198 103 94 92 
316 518 102 135 144 161 
256 142 283 79 86 96 
238 897 128 92 74 58 
113 763 129 110 129 167 
272 803 183 199 136 115 
249 451 81 98 108 121 
242 331 157 137 136 140 
262 222 24 136 53 83 
292 501 194 77 107 140 
277 245 277 93 63 76 
317 428 141 63 83 105 
300 158 142 132 117 104 
216 314 282 159 132 104 
254 120 275 98 63 3 
274 233 125 107 71 101 
185 402 176 73 92 112 
283 152 286 84 45 60 
258 244 161 105 74 83 
190 803 189 170 144 128 
275 363 173 168 146 124 
398 703 159 141 30 43 
166 589 143 41 77 107 
281 139 308 101 36 21 
338 622 118 86 119 150 
226 984 190 81 57 38 
220 981 183 125 97 67 
256 50 76 101 85 71 
246 24 131 136 118 114 
125 658 119 115 80 64 
238 634 115 123 138 164 
274 265 223 145 142 147 
218 879 169 153 117 89 
261 235 207 76 88 103 
448 681 126 101 129 158 
246 27 129 151 136 133 
284 296 247 82 111 139 
322 775 105 198 176 159 
213 323 51 149 116 65 
232 599 70 143 156 175 
247 84 302 118 98 77 
275 952 213 122 94 77 
266 201 243 68 61 76 
268 126 157 125 86 54 
281 191 286 130 47 37 
255 687 108 75 111 141 
352 761 111 170 139 105 
220 992 136 133 105 77 
285 152 242 102 71 61 
383 690 160 128 112 127 
276 227 72 82 58 62 
188 842 141 187 180 180 
281 594 219 102 130 181 
295 207 224 158 87 70 
213 424 288 104 120 160 
443 680 123 107 121 140 
165 673 166 55 90 118 
256 190 166 110 75 93 
256 192 265 81 61 48 
299 771 99 137 108 81 
248 311 192 102 116 131 
371 721 160 137 106 99 
273 343 168 139 138 143 
191 392 221 75 95 115 
250 604 113 189 185 195 
348 679 124 121 124 132 
278 299 101 113 99 98 
282 157 106 119 108 98 
243 666 113 147 145 150 
276 216 140 145 43 75 
384 718 112 84 24 32 
385 627 169 98 83 68 
256 83 86 99 84 68 
297 569 101 137 153 177 
148 598 149 88 69 58 
138 679 95 135 130 183 
280 301 217 141 17 73 
233 493 251 145 156 177 
201 384 80 113 125 183 
241 261 20 129 151 182 
234 387 303 105 130 167 
222 263 264 93 103 115 
211 331 55 117 24 51 
395 640 120 38 76 104 
123 725 104 115 129 195 
282 397 242 129 117 110 
280 220 271 112 79 87 
163 643 65 79 133 175 
225 481 58 85 103 125 
246 266 223 82 94 107 
242 236 319 132 120 111 
294 827 145 206 151 121 
234 277 316 84 115 141 
304 554 194 119 137 163 
265 355 230 113 68 49 
407 639 163 95 81 66 
220 504 56 97 116 147 
310 354 104 79 70 83 
195 632 217 59 70 95 
375 696 120 111 112 118 
221 538 231 175 179 192 
274 289 107 69 98 125 
260 156 273 68 80 91 
258 812 182 194 130 107 
289 275 255 133 137 146 
257 258 196 95 28 33 
298 749 200 206 157 125 
251 621 221 139 112 92 
173 659 158 38 65 91 
320 731 99 93 119 142 
279 21 104 121 112 107 
246 813 106 114 128 145 
204 913 163 150 91 77 
278 330 185 143 144 150 
222 278 75 73 108 135 
178 412 223 124 124 128 
211 485 61 84 101 119 
255 421 79 104 119 163 
256 300 53 80 113 144 
328 624 111 60 103 134 
266 25 138 138 101 82 
250 767 90 189 127 70 
258 800 102 146 108 73 
287 911 153 66 50 38 
225 796 101 224 195 171 
155 820 127 201 13 53 
223 316 83 90 106 123 
202 960 188 94 76 64 
148 684 98 131 147 194 
121 716 140 126 138 153 
232 933 123 82 65 52 
274 437 250 114 135 171 
254 18 142 162 145 139 
281 153 102 112 103 98 
271 107 335 123 110 99 
250 286 145 91 107 126 
281 371 151 110 121 134 
241 426 85 118 122 130 
183 644 212 103 112 149 
268 407 76 63 103 162 
276 350 225 142 17 66 
159 703 167 69 91 131 
135 487 151 137 100 86 
217 326 282 102 115 130 
401 641 189 110 126 158 
253 22 137 131 116 111 
253 23 136 118 97 91 
301 474 90 109 117 129 
263 82 278 106 89 73 
254 759 211 137 138 143 
271 900 218 172 130 100 
302 459 177 91 107 128 
161 462 161 60 68 80 
280 341 217 178 148 116 
157 556 66 96 114 135 
335 508 138 127 134 148 
201 408 147 40 58 73 
272 283 159 83 110 135 
265 217 213 97 83 88 
164 617 167 104 106 119 
158 470 185 41 77 115 
283 173 227 49 28 31 
364 616 127 56 105 143 
311 615 108 63 69 78 
323 593 139 85 91 99 
249 311 164 137 131 130 
233 945 235 207 163 143 
267 166 267 98 53 63 
162 462 209 92 110 128 
245 518 59 52 90 127 
161 604 197 170 183 206 
274 332 207 110 60 50 
452 669 130 146 152 165 
248 24 133 129 115 106 
233 611 108 116 141 173 
245 353 69 35 67 148 
447 674 166 174 178 198 
257 194 155 133 82 67 
139 816 171 174 112 54 
271 189 54 83 53 54 
272 926 220 162 126 96 
300 908 168 153 127 101 
197 398 104 101 109 122 
220 740 230 185 110 111 
209 388 160 75 72 71 
222 327 301 121 101 87 
343 657 127 79 110 154 
268 612 222 44 65 113 
269 913 220 156 123 91 
273 18 361 104 92 83 
293 491 191 92 112 148 
277 419 80 136 145 164 
139 499 127 111 82 72 
191 387 236 118 122 132 
251 27 133 158 141 133 
417 730 135 220 74 103 
271 665 108 69 106 134 
248 29 369 165 121 106 
267 180 40 121 39 18 
285 247 168 123 82 83 
223 869 147 182 138 105 
300 649 217 61 75 89 
306 175 156 134 74 52 
257 130 170 91 65 33 
245 328 171 111 115 124 
407 704 160 68 67 96 
246 852 180 146 113 81 
251 490 255 92 118 177 
250 28 131 113 88 78 
268 350 235 105 58 64 
251 28 131 139 118 113 
149 539 185 99 108 130 
172 423 174 79 94 112 
207 965 162 85 73 63 
214 324 38 126 148 183 
293 261 260 128 122 124 
374 661 118 191 186 202 
263 152 268 113 61 82 
267 582 231 159 171 188 
338 540 152 148 152 161 
241 878 132 162 116 76 
210 662 229 152 149 153 
308 354 103 85 67 75 
117 772 126 138 158 192 
291 146 221 81 48 41 
199 388 269 120 128 141 
285 397 76 82 111 191 
170 680 139 73 87 107 
395 641 193 44 94 136 
350 706 110 120 35 23 
294 459 88 178 172 179 
358 747 107 165 140 123 
270 19 344 128 116 109 
255 25 135 130 102 100 
254 27 133 133 121 116 
223 328 78 97 111 127 
271 812 177 189 128 110 
275 226 300 155 152 155 
286 246 168 126 84 82 
160 700 90 99 105 127 
185 498 248 97 114 165 
250 383 305 149 160 182 
279 666 221 121 64 43 
342 616 196 150 109 92 
415 645 164 104 87 69 
314 417 89 137 137 142 
178 482 71 97 109 122 
275 278 234 135 135 141 
169 668 161 57 74 113 
135 761 163 127 137 151 
227 321 61 130 132 139 
272 87 340 125 101 75 
175 710 224 125 139 157 
279 928 207 103 80 55 
293 195 207 87 32 45 
272 878 203 150 111 78 
284 241 184 113 71 71 
159 760 110 88 106 129 
246 1010 156 128 98 75 
199 352 62 108 100 103 
215 358 119 137 136 141 
273 162 56 148 69 6 
164 467 223 108 123 146 
236 501 247 170 174 186 
117 621 139 126 95 66 
364 647 109 178 180 199 
373 756 118 214 196 183 
179 647 209 80 103 147 
289 151 186 132 62 2 
112 686 117 84 113 156 
274 506 76 100 114 130 
122 627 149 135 100 74 
160 641 135 33 53 84 
273 356 269 114 124 141 
224 948 232 207 157 137 
245 420 82 115 129 160 
261 479 259 104 128 170 
228 759 218 174 154 140 
218 361 185 93 81 73 
255 39 358 137 113 113 
297 786 100 147 134 126 
244 291 132 129 113 98 
251 32 128 172 156 151 
369 736 162 152 139 130 
264 42 318 88 80 76 
283 156 232 99 77 70 
167 468 229 78 100 132 
183 812 182 163 135 110 
274 363 227 138 102 70 
324 806 119 207 144 108 
175 534 59 83 101 121 
223 399 85 138 153 178 
216 519 242 127 148 190 
294 614 95 93 153 201 
298 165 267 67 65 82 
223 163 63 117 88 68 
188 824 171 156 142 133 
272 191 227 54 60 73 
237 323 135 96 114 134 
347 803 148 206 143 113 
215 983 150 99 76 53 
193 394 206 54 85 123 
191 572 219 136 155 178 
260 347 68 78 104 126 
214 588 226 89 78 98 
282 907 187 153 107 81 
274 185 308 97 43 44 
216 794 101 153 132 118 
230 143 13 136 106 86 
273 322 174 119 115 115 
419 702 118 160 165 177 
127 614 150 128 96 70 
253 374 308 94 125 166 
268 301 57 94 70 84 
277 428 81 143 143 150 
259 187 178 106 87 101 
355 786 127 136 119 106 
179 412 227 142 138 140 
214 613 54 157 113 110 
267 873 182 150 118 83 
270 1004 150 128 101 82 
167 712 212 136 145 159 
146 618 110 108 88 75 
213 580 44 120 147 183 
163 492 112 51 65 95 
222 300 41 127 132 143 
291 233 168 106 119 132 
270 445 218 89 90 120 
238 296 30 85 129 168 
222 919 231 108 90 73 
233 141 11 146 108 85 
164 658 133 72 86 107 
280 541 218 59 88 133 
259 507 252 115 135 175 
264 46 110 113 89 63 
233 143 10 147 106 80 
234 140 10 146 109 88 
249 925 237 174 135 109 
185 733 81 175 180 200 
243 749 216 153 132 115 
328 624 199 48 45 43 
300 911 173 158 132 108 
278 297 260 81 80 86 
228 317 64 132 132 137 
277 326 239 95 64 67 
187 400 175 72 86 102 
272 303 140 113 125 141 
256 200 23 92 57 58 
135 814 167 150 132 109 
267 44 320 73 66 62 
322 783 168 196 145 109 
220 919 131 87 67 58 
350 687 121 116 117 123 
300 938 190 103 82 64 
258 284 46 99 134 185 
232 141 15 136 108 88 
330 580 157 90 108 127 
281 167 130 137 65 3 
258 146 98 79 67 55 
232 142 12 144 106 82 
155 579 143 47 60 92 
256 93 98 120 97 72 
160 819 123 202 171 133 
189 546 221 141 162 187 
234 140 14 143 111 89 
232 300 114 138 137 141 
291 290 259 100 122 145 
308 417 146 71 101 127 
115 704 128 86 108 140 
307 412 83 151 153 172 
285 265 185 74 108 136 
237 139 10 147 111 90 
243 275 29 164 162 166 
219 980 190 130 106 79 
279 278 190 79 118 148 
239 139 11 147 113 92 
257 660 243 202 145 68 
251 924 236 166 134 104 
236 139 13 146 114 93 
235 908 232 205 156 135 
314 345 98 104 101 119 
253 94 289 116 95 77 
262 372 64 77 93 110 
269 231 38 177 159 164 
197 390 87 98 106 129 
311 171 213 61 78 100 
295 945 165 104 87 74 
223 309 94 75 99 121 
192 418 268 121 130 144 
329 466 155 90 118 150 
256 230 155 57 80 104 
314 163 260 149 58 86 
245 377 65 58 96 154 
354 668 166 146 171 200 
278 118 289 121 63 3 
283 308 94 74 103 128 
229 795 100 190 166 144 
119 709 137 123 137 154 
236 141 9 147 107 84 
275 263 279 146 144 148 
437 704 130 123 134 185 
112 697 133 112 138 169 
270 553 75 182 185 197 
182 788 100 180 33 31 
236 142 9 146 106 83 
254 853 122 224 161 125 
243 841 175 166 129 99 
280 886 161 95 74 51 
312 415 86 155 156 165 
238 141 10 147 105 78 
220 581 225 89 133 170 
282 629 115 198 188 196 
210 368 75 162 170 204 
134 814 166 108 107 118 
280 953 202 107 86 73 
186 740 231 117 131 159 
284 124 231 85 56 16 
283 772 97 138 117 100 
230 143 16 128 106 90 
285 121 166 131 87 53 
220 268 81 103 69 85 
277 149 109 116 106 97 
217 786 203 215 189 168 
182 572 217 116 111 119 
265 203 314 140 40 41 
135 567 122 119 94 71 
187 617 216 72 96 158 
231 142 19 125 105 92 
216 592 226 100 63 83 
270 160 244 128 35 58 
277 96 331 120 98 76 
288 219 267 61 44 57 
299 913 174 151 126 104 
323 709 191 87 96 110 
250 46 347 140 106 85 
231 143 21 124 106 93 
197 519 57 131 129 131 
159 589 163 115 111 123 
380 657 110 149 164 212 
283 230 266 60 63 75 
210 404 290 87 104 143 
286 357 75 77 94 111 
230 143 25 107 90 74 
266 639 114 124 128 142 
273 883 186 138 109 77 
252 985 207 95 74 60 
164 759 106 172 169 187 
216 300 278 159 135 110 
245 511 245 117 139 178 
385 623 132 62 99 129 
160 704 170 47 71 124 
237 974 223 86 68 56 
228 322 309 122 110 105 
262 29 369 152 127 98 
232 142 18 128 106 90 
259 194 177 52 86 113 
244 81 324 120 99 81 
264 43 110 118 93 68 
168 617 57 153 154 162 
227 896 224 154 116 95 
153 496 182 59 90 120 
293 511 86 81 100 120 
262 151 39 137 119 103 
282 192 299 70 56 63 
299 147 195 136 69 11 
281 232 206 41 62 95 
313 135 214 110 76 61 
161 733 190 127 143 162 
317 687 109 115 121 130 
262 793 193 203 141 118 
265 125 225 138 59 1 
201 574 221 175 174 182 
192 395 205 62 89 123 
147 488 91 106 119 135 
234 141 20 132 108 91 
217 373 170 74 68 66 
256 547 59 151 146 148 
266 548 67 165 162 167 
271 459 226 66 99 146 
271 500 237 87 104 130 
268 967 209 100 80 63 
280 490 212 93 115 155 
273 243 189 73 47 59 
236 139 16 144 114 92 
211 359 108 105 113 124 
139 648 149 83 75 77 
226 858 171 156 118 92 
375 638 196 63 69 157 
244 561 55 158 135 134 
143 643 101 64 80 95 
158 598 182 130 132 141 
196 921 153 120 100 78 
178 789 199 173 136 129 
243 858 190 101 78 50 
276 253 281 152 147 149 
284 124 227 93 59 18 
279 913 140 83 63 43 
237 139 21 140 108 86 
200 530 54 90 103 117 
199 393 271 121 127 138 
237 700 101 110 122 137 
306 477 181 68 95 127 
239 139 21 143 109 84 
281 215 270 92 62 74 
275 830 160 175 129 104 
252 152 326 49 35 51 
328 745 182 92 92 96 
236 140 16 143 113 91 
328 663 122 55 67 91 
244 889 228 145 111 83 
228 577 50 113 88 106 
177 636 155 40 76 104 
275 403 208 142 78 39 
237 140 19 141 111 89 
143 492 158 132 98 89 
169 447 223 115 122 134 
115 717 117 131 146 167 
289 454 87 184 177 181 
303 510 91 94 113 136 
296 444 86 102 117 139 
248 856 206 123 94 65 
267 234 38 170 166 170 
271 175 66 125 44 19 
285 743 214 163 156 155 
227 263 60 95 66 80 
277 200 111 64 27 46 
282 405 176 119 106 97 
224 296 304 156 151 154 
285 284 252 144 146 154 
228 828 112 106 84 77 
195 528 232 174 171 183 
395 738 158 147 121 104 
125 633 151 138 98 77 
210 845 154 191 141 113 
207 948 142 111 90 70 
295 921 167 105 86 70 
279 973 154 129 98 70 
298 128 195 96 83 72 
238 417 84 98 114 150 
341 784 165 188 142 108 
268 308 205 95 95 101 
165 613 200 104 120 147 
121 764 146 111 129 153 
315 689 109 107 115 127 
218 359 121 133 132 138 
271 1004 165 123 85 64 
190 455 85 87 99 112 
126 528 142 110 87 64 
275 827 161 180 129 104 
200 365 225 88 76 66 
235 142 26 115 96 81 
161 598 165 141 134 132 
262 397 284 95 120 163 
154 483 168 55 95 127 
243 341 182 121 109 100 
247 277 212 97 103 112 
277 392 218 182 154 125 
245 591 94 82 130 170 
355 790 132 217 159 120 
254 273 173 130 137 148 
262 296 315 157 153 156 
276 230 149 133 94 54 
311 756 99 146 121 101 
394 632 170 102 86 69 
217 353 89 111 102 97 
282 668 218 125 115 110 
167 447 211 72 89 106 
425 677 171 120 152 193 
118 673 130 126 89 72 
236 141 25 126 100 83 
304 333 71 154 119 82 
129 806 142 179 66 83 
219 323 294 110 111 118 
236 141 26 122 99 82 
201 843 151 168 139 110 
328 484 164 162 163 172 
268 260 302 80 119 150 
255 383 64 58 89 134 
213 822 111 193 160 125 
275 860 153 163 123 90 
226 307 48 126 130 139 
305 445 168 70 96 130 
289 326 252 113 129 147 
275 334 154 82 97 114 
117 627 131 123 90 60 
309 170 226 48 70 102 
298 482 185 126 134 147 
206 644 223 160 156 160 
336 808 130 219 152 121 
247 39 359 186 173 170 
280 152 269 90 36 27 
276 212 306 123 38 74 
298 350 77 151 157 181 
275 310 209 149 127 106 
391 637 121 48 74 95 
132 651 150 128 96 75 
195 662 59 88 152 205 
237 142 30 111 92 75 
195 716 72 166 177 203 
257 252 176 131 126 126 
287 442 188 112 133 155 
238 141 29 121 99 83 
432 714 141 168 190 217 
273 926 218 161 125 96 
207 894 197 142 103 78 
149 523 188 110 122 136 
226 682 99 140 141 149 
239 140 30 124 100 83 
239 141 30 121 99 83 
200 719 73 166 170 197 
258 188 155 133 89 70 
273 212 109 102 46 49 
171 788 102 91 90 140 
210 353 245 80 57 27 
257 525 65 105 124 152 
278 233 286 87 92 112 
193 793 102 181 141 118 
256 750 215 133 132 136 
327 655 185 98 146 185 
283 175 253 69 33 33 
268 267 300 95 78 91 
302 390 130 93 106 122 
279 162 93 154 67 3 
258 117 272 115 58 1 
326 797 164 203 152 117 
194 417 143 34 48 65 
231 144 12 142 106 82 
281 151 256 87 37 35 
272 530 75 80 108 136 
287 370 143 144 142 145 
420 706 163 175 101 115 
265 134 329 35 59 115 
125 580 125 107 86 62 
374 707 115 113 120 129 
231 146 12 143 105 76 
230 149 11 151 89 56 
231 148 10 153 91 61 
272 178 49 82 53 65 
270 437 230 51 75 111 
211 443 83 78 96 114 
303 526 92 114 125 144 
227 888 144 118 89 61 
236 520 56 92 109 129 
231 150 11 154 87 53 
316 763 100 182 144 100 
271 262 117 127 23 72 
238 60 330 133 107 90 
288 315 252 126 133 144 
185 803 188 185 165 149 
272 321 158 81 117 147 
171 498 232 141 151 167 
243 448 79 92 107 123 
233 597 229 87 125 157 
222 438 284 111 127 165 
259 157 277 55 73 88 
175 550 55 115 132 152 
197 396 163 86 92 99 
261 817 178 183 119 102 
289 321 253 108 120 136 
215 355 101 103 110 120 
230 151 12 159 76 35 
230 151 13 156 74 34 
275 232 130 111 67 74 
208 926 221 169 133 106 
230 151 15 137 85 46 
224 928 129 76 60 50 
303 519 92 110 121 142 
282 505 212 157 159 168 
231 152 10 161 77 18 
197 400 272 91 110 135 
252 956 131 122 95 64 
281 604 221 151 108 95 
241 280 226 125 106 90 
139 623 112 133 99 73 
146 807 123 176 46 64 
223 899 148 98 75 50 
149 833 150 66 86 104 
276 934 214 123 96 73 
259 133 157 112 106 103 
230 152 15 144 70 19 
286 233 163 113 71 94 
222 228 278 120 122 128 
281 459 87 132 135 145 
163 818 121 186 144 84 
218 335 265 114 56 9 
328 711 102 101 74 70 
175 472 78 54 81 104 
135 752 161 103 113 143 
280 353 144 149 146 150 
183 775 209 130 150 175 
221 251 268 75 87 100 
259 958 224 153 114 93 
271 266 134 134 133 136 
148 583 75 109 124 144 
231 157 12 160 71 11 
323 661 187 72 79 138 
198 920 177 78 61 47 
343 710 106 98 74 71 
153 594 67 166 162 167 
230 157 15 150 67 14 
366 718 109 99 32 22 
273 357 236 120 95 76 
342 627 108 85 124 163 
313 574 189 124 136 152 
281 970 192 83 67 55 
279 204 120 80 40 52 
308 166 155 148 68 5 
262 573 236 188 199 217 
231 158 15 148 72 14 
231 159 14 153 70 18 
289 312 254 113 126 144 
274 930 217 154 118 87 
204 819 180 140 122 108 
224 566 224 136 147 163 
146 576 174 178 164 156 
244 349 58 130 143 168 
390 704 158 148 119 92 
303 473 181 73 96 128 
286 372 74 74 110 146 
203 954 199 101 80 63 
251 110 330 142 73 2 
233 265 245 100 104 111 
281 826 157 192 138 115 
334 490 122 69 100 133 
212 851 145 212 161 125 
311 384 109 70 83 98 
333 772 105 176 151 129 
149 550 171 110 118 135 
273 397 229 119 49 9 
172 597 141 54 75 108 
312 494 95 156 157 169 
289 330 67 188 168 154 
304 652 214 143 134 135 
197 941 176 68 53 42 
370 774 126 161 120 77 
296 144 248 102 61 45 
230 201 304 118 9 61 
145 491 98 65 87 106 
284 256 208 173 169 173 
255 488 258 112 133 189 
233 151 8 166 69 16 
297 200 174 129 81 97 
241 329 41 185 179 187 
132 539 130 121 97 75 
235 148 9 159 67 23 
206 394 131 99 109 123 
268 362 293 97 114 148 
227 488 57 108 118 132 
234 151 8 168 70 16 
260 745 217 161 151 147 
200 700 68 125 155 205 
262 123 250 145 70 0 
299 170 170 126 73 39 
272 213 82 34 64 99 
236 145 9 149 99 66 
167 688 197 71 92 130 
230 344 194 91 82 77 
173 613 150 46 85 113 
191 610 220 64 66 89 
158 506 215 143 142 149 
281 958 198 86 68 54 
290 371 75 74 109 143 
297 732 216 104 112 124 
287 638 222 68 70 83 
151 499 161 91 72 70 
278 13 131 113 95 78 
239 145 10 151 95 63 
266 866 177 156 122 87 
218 712 78 151 153 168 
368 659 167 133 164 195 
284 158 183 104 73 63 
185 814 113 72 40 56 
165 725 96 114 138 182 
280 127 288 107 113 118 
232 283 240 113 38 54 
418 730 147 202 43 59 
249 1011 157 121 86 59 
195 691 233 141 158 179 
227 402 85 136 148 178 
266 115 201 99 88 79 
214 612 55 150 88 101 
187 539 225 143 31 61 
236 257 34 113 59 77 
292 149 145 124 111 98 
275 110 250 108 97 90 
166 786 108 170 83 85 
372 772 155 81 92 118 
328 490 167 109 128 150 
282 198 245 69 57 69 
219 364 127 134 135 140 
240 490 251 161 172 190 
238 150 9 167 75 0 
289 744 212 110 120 134 
290 948 195 81 64 52 
316 761 181 181 129 98 
279 836 122 249 183 138 
203 432 282 94 114 149 
232 152 9 164 72 18 
241 771 90 166 143 123 
172 757 95 151 160 175 
242 382 306 68 94 168 
195 632 52 206 200 209 
293 214 250 126 93 96 
311 172 218 57 79 107 
292 716 222 166 146 129 
259 890 127 109 84 62 
188 836 160 188 109 126 
247 458 262 145 159 185 
204 905 195 148 106 80 
116 647 138 128 93 64 
239 576 59 146 169 199 
277 615 107 58 156 221 
259 127 180 90 66 44 
213 885 177 138 107 78 
285 294 79 83 95 109 
151 557 72 133 138 149 
212 882 207 143 105 79 
187 719 75 143 160 208 
180 747 88 164 166 176 
264 140 87 85 76 68 
233 156 10 167 69 7 
135 823 155 180 21 50 
323 586 176 134 129 129 
289 250 253 80 119 149 
282 283 83 135 131 134 
144 492 159 129 96 87 
257 160 279 63 67 80 
151 594 69 147 148 157 
333 662 178 169 85 91 
352 717 167 138 115 101 
234 157 10 165 68 1 
263 567 92 176 189 215 
277 29 354 140 128 121 
275 337 156 116 128 142 
290 140 167 98 88 81 
327 600 175 67 64 62 
322 411 112 54 91 133 
270 375 270 73 99 130 
274 288 277 167 127 77 
166 467 102 116 119 124 
158 599 181 131 130 135 
277 393 213 181 152 120 
239 375 70 99 131 165 
283 131 177 117 70 36 
304 421 156 70 93 115 
265 53 88 117 97 78 
236 155 9 155 66 0 
239 316 37 171 170 180 
287 306 264 98 69 86 
202 358 274 73 71 70 
273 275 105 112 120 132 
232 458 68 89 101 114 
260 214 246 68 84 99 
173 829 126 206 178 157 
275 968 202 88 71 59 
230 1012 159 201 168 135 
163 455 209 104 115 130 
233 510 248 118 137 171 
127 581 145 133 99 75 
194 414 270 98 108 131 
175 441 146 65 74 84 
141 803 124 116 76 109 
241 304 323 135 137 146 
278 343 201 126 94 92 
168 740 213 150 41 79 
294 796 175 202 143 120 
299 294 75 98 111 126 
