ply
format ascii 1.0
comment Created by CloudCompare v2.11.1 (Anoia)
comment Created 2/28/22 9:36 PM
obj_info Generated by CloudCompare!
element vertex 2029
property float x
property float y
property float z
property uchar red
property uchar green
property uchar blue
end_header
374 745 117 109 95 85 
143 707 164 50 76 113 
275 947 220 124 97 79 
300 599 122 79 90 102 
299 726 224 191 162 138 
212 687 73 101 141 182 
270 456 240 65 83 113 
222 385 85 81 104 144 
286 174 258 81 32 44 
371 702 164 129 98 94 
272 437 218 137 122 109 
252 188 154 103 88 99 
139 534 159 133 97 80 
187 612 224 50 78 154 
280 887 169 108 82 55 
187 625 60 175 168 180 
182 428 152 51 64 77 
236 862 222 167 123 109 
289 349 79 176 165 162 
123 667 124 72 80 103 
261 359 62 88 106 125 
243 857 128 226 156 115 
203 349 276 84 81 80 
283 127 216 95 65 42 
258 816 113 203 177 154 
216 330 42 136 154 183 
305 556 196 177 171 172 
286 452 189 110 130 156 
141 602 118 111 92 74 
282 113 238 108 90 79 
219 351 62 217 165 74 
273 912 126 68 56 46 
226 315 239 144 123 101 
265 30 85 86 75 65 
306 506 98 106 119 146 
139 753 169 100 110 139 
233 978 219 110 88 69 
114 672 116 124 137 156 
136 717 163 45 79 127 
262 864 199 120 91 56 
287 239 264 66 31 45 
268 92 361 139 102 85 
235 564 232 167 167 175 
199 370 200 73 65 67 
204 398 152 55 64 74 
271 200 233 80 83 92 
209 968 165 101 85 73 
226 449 274 134 129 172 
164 724 110 142 153 185 
255 160 161 137 69 0 
265 990 137 141 108 70 
357 618 131 48 89 126 
255 160 163 138 69 2 
229 610 74 76 126 174 
223 256 310 80 117 148 
330 488 150 149 149 157 
310 186 262 72 117 151 
226 906 142 79 63 50 
229 309 63 119 123 132 
270 961 216 133 104 85 
189 398 226 61 83 103 
255 162 162 141 71 0 
237 207 324 155 131 104 
430 695 123 86 118 168 
265 148 210 108 111 116 
235 871 228 153 87 90 
174 421 174 68 89 111 
230 347 179 94 86 79 
266 210 201 125 104 94 
274 412 222 152 60 8 
223 1000 177 119 86 61 
287 318 263 122 137 156 
205 376 81 127 134 177 
217 277 299 150 144 145 
124 773 156 105 114 146 
228 566 232 120 144 173 
208 964 203 117 88 78 
214 432 81 114 120 129 
256 23 393 106 77 55 
334 498 140 122 129 142 
413 640 163 91 79 67 
286 450 187 25 78 133 
214 929 143 84 67 55 
221 696 83 76 125 166 
282 385 252 141 126 115 
278 251 88 116 14 52 
318 515 183 87 104 133 
265 99 357 139 113 86 
255 169 162 73 93 115 
220 764 221 54 43 55 
181 433 169 94 96 101 
377 736 165 95 92 93 
231 273 114 136 132 135 
288 618 108 82 169 224 
168 711 214 124 139 157 
328 446 152 71 104 136 
221 840 126 210 135 88 
216 331 56 122 98 99 
281 373 154 113 125 140 
279 374 72 43 81 112 
396 631 183 109 89 69 
204 625 58 202 195 201 
259 888 134 115 83 63 
298 708 227 37 33 62 
169 637 202 105 129 154 
259 128 277 109 91 73 
188 402 101 65 96 125 
293 385 148 132 134 140 
309 585 194 135 132 135 
254 932 127 64 53 45 
222 567 230 121 73 81 
141 791 128 184 191 206 
272 985 184 78 52 35 
215 287 292 113 117 125 
314 536 188 96 109 127 
213 699 243 112 147 178 
266 869 214 145 111 79 
171 561 219 42 70 95 
215 262 287 105 119 136 
274 899 220 160 113 86 
281 374 244 142 74 43 
144 469 146 100 86 74 
236 974 227 96 79 66 
241 214 266 70 69 76 
237 875 136 140 102 64 
119 771 134 117 135 184 
148 553 188 75 96 129 
248 40 346 73 65 61 
263 661 115 76 111 140 
250 444 83 79 95 113 
135 762 117 153 162 188 
281 152 320 100 35 62 
157 774 194 57 62 99 
191 717 79 160 175 213 
244 299 144 112 120 132 
180 425 154 52 63 74 
253 556 241 103 123 173 
262 28 85 44 39 38 
203 386 97 128 103 111 
286 227 225 131 18 54 
283 141 160 127 105 87 
299 201 215 144 71 60 
278 854 152 156 115 85 
440 702 136 202 205 218 
349 620 130 57 98 130 
171 795 198 149 128 128 
160 461 140 83 75 68 
274 313 175 65 101 128 
230 278 55 74 108 136 
312 767 188 192 139 106 
319 813 125 218 160 117 
193 533 59 57 80 123 
266 146 91 89 79 71 
250 598 109 204 203 217 
278 86 352 123 101 77 
249 300 322 166 162 166 
247 463 67 125 125 128 
324 406 128 75 102 135 
259 358 301 60 108 149 
284 486 214 110 133 159 
293 828 152 203 149 119 
325 607 147 76 79 86 
211 353 62 208 17 86 
212 356 67 208 17 108 
159 573 153 44 49 80 
188 512 62 84 110 143 
341 792 170 194 147 115 
274 279 196 66 105 136 
231 622 90 152 172 212 
337 516 143 102 121 142 
300 147 165 122 105 93 
231 184 300 58 76 92 
285 151 241 91 75 70 
222 315 88 85 103 121 
119 671 124 61 80 106 
259 234 23 139 120 122 
308 903 163 96 83 70 
155 577 150 50 60 90 
290 180 248 49 31 33 
286 931 145 64 52 42 
255 183 174 81 92 106 
161 606 61 150 150 158 
267 154 241 59 65 83 
207 948 148 112 90 69 
255 184 160 93 86 91 
154 586 67 68 101 136 
313 392 103 44 87 128 
255 185 161 83 83 88 
255 184 162 92 86 95 
184 611 222 103 105 158 
341 612 200 143 101 90 
129 778 126 94 135 188 
206 396 140 74 86 100 
313 516 106 120 133 154 
167 687 165 73 86 115 
180 616 143 86 97 119 
228 617 234 191 181 179 
234 571 54 141 155 181 
167 551 221 52 57 64 
189 494 254 180 180 191 
210 340 269 106 96 89 
287 204 180 95 82 101 
281 115 245 118 64 3 
182 441 119 46 82 110 
199 944 167 88 70 58 
376 666 171 135 166 197 
279 298 217 123 110 119 
253 459 262 105 128 178 
235 270 18 92 133 180 
370 638 191 123 155 196 
329 764 108 205 152 83 
169 633 202 86 113 154 
255 187 164 98 84 90 
266 258 311 87 123 154 
177 433 160 96 105 118 
266 154 246 85 59 77 
328 468 112 129 139 157 
278 265 55 67 79 88 
119 723 129 126 140 163 
259 995 189 142 111 82 
221 336 224 142 120 98 
135 705 160 78 96 120 
182 423 254 95 107 128 
391 692 164 133 66 77 
383 686 165 115 147 176 
192 395 214 56 81 104 
227 774 98 76 121 157 
291 206 175 132 80 96 
296 939 200 92 77 64 
269 395 78 93 118 185 
286 487 87 153 151 156 
198 706 242 110 138 166 
299 726 225 195 166 143 
255 977 220 88 70 58 
254 190 163 121 84 80 
215 317 42 134 139 148 
254 191 163 125 85 71 
301 453 179 47 80 117 
322 442 103 123 133 148 
125 659 122 95 96 108 
364 650 176 137 172 207 
180 742 231 93 61 68 
382 740 164 58 48 48 
253 983 135 106 81 48 
229 799 200 174 135 101 
446 663 158 112 90 67 
266 474 75 99 108 120 
301 155 212 76 53 72 
229 431 281 118 122 171 
199 937 196 86 70 57 
172 631 170 47 54 80 
278 454 248 140 147 159 
311 372 99 96 117 138 
353 673 128 71 86 117 
289 211 178 59 93 120 
220 997 144 154 126 100 
284 418 194 131 123 119 
264 38 82 112 92 71 
224 968 224 84 67 57 
147 820 178 91 90 111 
252 956 234 185 134 109 
276 245 57 82 81 90 
324 480 169 87 99 118 
244 480 255 100 121 170 
284 703 104 142 36 48 
327 474 111 74 94 114 
274 443 230 65 91 133 
274 295 260 96 70 69 
279 386 175 132 101 89 
316 534 111 119 139 162 
278 442 214 100 116 137 
264 361 233 129 106 79 
277 342 226 181 150 117 
273 354 229 130 26 56 
149 586 119 64 69 86 
179 836 139 198 171 148 
228 860 203 121 93 64 
429 711 132 186 201 222 
254 185 173 107 88 83 
151 496 109 98 108 142 
227 989 174 105 77 52 
330 700 109 115 32 28 
283 417 178 57 101 137 
217 971 214 93 74 64 
286 394 76 70 113 178 
145 530 161 107 78 68 
261 526 250 124 149 185 
263 915 232 103 88 72 
299 218 271 105 83 109 
292 177 254 49 34 33 
178 567 220 69 43 57 
282 427 87 93 114 153 
230 276 54 73 109 138 
213 367 289 75 94 128 
325 501 177 107 120 136 
260 13 145 120 108 103 
282 253 61 104 109 117 
296 378 135 105 114 127 
283 842 135 226 171 133 
296 621 102 77 167 225 
189 560 225 134 59 86 
277 126 296 104 94 83 
135 779 170 137 154 174 
174 536 227 187 184 191 
184 560 224 121 157 188 
273 259 158 104 66 85 
305 908 169 108 93 80 
264 134 239 107 97 88 
262 123 260 144 72 0 
139 579 157 118 88 68 
276 66 362 125 103 80 
257 627 122 150 147 156 
281 291 86 120 121 127 
255 465 72 100 112 127 
202 933 211 140 108 79 
243 428 83 75 96 117 
307 391 84 105 120 140 
201 382 114 94 80 67 
237 582 66 126 111 149 
308 157 272 102 82 78 
293 189 262 61 34 33 
279 828 119 236 169 128 
194 420 140 58 76 93 
295 561 211 127 147 170 
320 768 181 192 136 105 
223 275 259 105 75 80 
178 636 162 50 68 108 
201 517 243 203 196 199 
254 188 173 120 80 60 
116 755 128 92 113 169 
219 268 78 86 78 91 
169 443 228 147 144 147 
270 645 116 116 132 152 
358 620 128 69 107 139 
238 789 206 189 158 133 
141 738 168 93 108 137 
226 330 203 69 71 74 
212 884 212 142 102 77 
444 698 137 178 197 220 
338 532 148 156 156 163 
225 288 101 136 133 136 
244 569 63 98 152 195 
284 131 199 103 73 59 
366 660 170 122 151 179 
300 187 243 119 46 73 
212 675 73 139 154 175 
165 761 214 143 24 36 
418 692 171 167 190 218 
285 240 220 64 109 144 
277 243 187 109 79 68 
278 759 214 199 145 119 
284 945 144 88 70 55 
356 616 135 42 90 123 
261 402 77 81 109 169 
129 525 143 121 99 77 
241 313 35 124 148 181 
265 138 215 142 64 0 
255 181 182 92 97 105 
255 181 183 94 97 104 
279 411 245 118 116 122 
142 512 106 124 133 146 
248 396 288 99 118 157 
276 192 197 111 52 59 
223 241 310 147 142 143 
239 545 57 119 122 128 
227 324 38 201 193 199 
152 468 157 92 77 63 
262 57 372 133 104 75 
333 623 212 62 73 85 
255 181 184 95 97 103 
255 181 185 98 99 105 
327 565 178 162 157 159 
281 309 186 93 117 140 
184 584 222 60 67 78 
264 934 129 74 55 40 
270 225 54 78 43 61 
288 318 66 116 118 123 
283 937 209 74 57 47 
424 695 122 119 120 151 
292 655 119 76 104 131 
258 252 176 128 128 133 
288 146 195 130 59 2 
346 670 173 141 40 46 
237 810 112 154 144 140 
168 419 194 85 105 126 
285 235 258 85 40 57 
270 889 220 152 112 82 
254 184 179 96 97 101 
196 792 109 106 124 142 
179 417 203 64 93 119 
359 673 169 148 26 39 
138 525 137 103 81 72 
254 732 225 133 117 103 
226 856 136 186 133 97 
378 763 130 139 113 85 
166 596 140 63 81 109 
228 305 29 101 153 197 
141 599 156 109 81 61 
261 972 141 127 99 78 
254 187 179 111 95 93 
273 229 204 48 42 72 
256 212 327 156 150 150 
289 798 184 204 145 123 
184 451 108 66 86 105 
252 354 310 74 106 162 
273 557 93 216 206 206 
261 393 73 83 109 179 
259 64 320 80 72 65 
168 555 220 45 58 73 
307 406 87 95 117 140 
277 566 230 31 83 119 
201 924 196 94 77 60 
143 719 105 160 177 212 
266 210 106 98 35 27 
269 311 160 89 122 149 
411 723 161 166 84 66 
210 732 83 180 190 209 
228 506 58 114 137 172 
401 743 131 180 160 143 
215 824 119 201 172 148 
262 616 122 80 126 160 
151 545 166 58 74 114 
258 79 292 97 78 57 
312 813 121 216 159 117 
269 324 153 79 114 143 
210 922 228 136 105 85 
377 650 107 61 110 191 
299 827 130 235 175 138 
277 196 304 148 40 20 
179 471 251 131 142 158 
274 993 151 142 115 87 
271 194 54 98 38 36 
240 56 360 142 109 97 
233 970 229 100 84 73 
289 488 202 93 118 148 
255 188 180 114 82 86 
240 375 69 43 75 111 
279 648 117 90 108 128 
183 663 145 112 115 123 
268 311 237 110 18 50 
211 479 60 85 104 124 
223 921 128 74 60 47 
398 674 173 153 176 203 
192 391 205 70 96 124 
169 606 156 51 73 106 
204 368 121 127 113 103 
264 137 258 80 63 77 
213 900 164 110 69 30 
236 306 221 109 96 84 
262 155 32 141 78 14 
281 667 112 138 136 141 
213 711 77 136 159 198 
236 435 78 83 96 111 
274 288 211 98 72 88 
227 219 313 118 110 102 
233 993 140 172 130 93 
242 457 68 99 108 120 
246 493 60 168 168 174 
257 59 326 80 73 67 
242 195 128 107 36 32 
286 561 219 121 143 171 
281 196 154 91 91 100 
223 504 254 109 125 159 
210 732 241 128 19 45 
179 449 161 71 78 89 
228 197 310 118 19 63 
163 437 194 83 102 124 
173 805 115 180 111 55 
158 465 191 47 71 88 
400 632 184 108 89 70 
367 614 149 65 78 91 
243 193 133 100 33 32 
263 810 189 197 133 109 
243 194 132 100 38 33 
132 692 100 69 74 131 
236 478 255 165 178 200 
267 520 74 99 120 149 
181 817 182 166 136 107 
250 875 135 212 152 110 
247 300 151 125 127 135 
265 144 74 115 103 95 
178 616 143 85 96 118 
191 395 256 117 122 131 
275 352 228 141 32 64 
323 544 182 94 117 156 
375 773 135 194 179 171 
236 862 131 182 128 80 
280 889 170 103 77 54 
321 515 115 132 139 168 
274 894 217 145 105 74 
217 682 78 74 103 125 
170 587 211 113 127 143 
178 636 63 82 145 200 
322 789 113 65 92 114 
240 411 84 83 105 151 
243 198 131 84 38 37 
197 672 66 187 181 188 
269 307 125 134 133 138 
190 401 258 109 118 131 
223 248 265 96 101 109 
303 418 160 67 93 115 
304 322 79 159 122 82 
272 226 66 89 44 43 
294 158 150 108 98 91 
268 587 234 115 138 206 
323 546 181 170 169 176 
149 559 201 82 104 128 
328 476 139 154 151 156 
327 456 116 114 130 150 
199 409 145 58 74 90 
232 231 264 109 105 104 
232 648 234 81 131 168 
256 179 180 78 93 109 
304 734 215 155 150 149 
217 358 300 103 118 175 
308 385 112 74 86 100 
203 445 276 31 60 144 
219 899 159 111 84 51 
275 68 345 97 83 71 
367 614 158 58 66 73 
120 745 139 130 135 145 
244 198 132 85 38 35 
156 452 177 63 88 111 
244 199 132 78 34 34 
285 427 89 129 138 162 
392 723 164 107 114 127 
301 470 185 83 102 130 
281 324 221 197 167 135 
256 264 181 143 144 150 
202 387 129 116 123 134 
218 339 99 110 112 119 
241 355 313 64 118 161 
281 231 259 52 42 57 
272 592 98 133 155 193 
142 521 136 82 83 88 
204 377 84 113 118 155 
275 487 251 142 159 181 
157 507 216 77 94 121 
242 475 61 79 97 117 
300 341 77 226 157 67 
282 826 163 192 138 113 
243 29 384 138 125 118 
151 552 166 93 106 126 
292 222 222 60 64 106 
260 509 255 116 128 173 
306 535 104 112 130 162 
136 778 173 139 141 151 
254 639 233 74 50 33 
318 134 230 125 95 73 
278 828 120 236 167 128 
240 725 233 46 26 64 
191 575 58 163 166 176 
208 369 180 105 96 91 
247 193 140 97 50 44 
265 156 246 105 66 80 
247 192 142 99 29 39 
247 193 142 95 42 47 
129 801 149 181 42 66 
246 194 140 86 33 35 
176 623 140 65 80 111 
319 457 161 102 117 136 
296 468 185 97 113 132 
263 134 213 136 75 0 
164 622 155 51 52 63 
143 709 164 80 96 130 
161 509 224 69 91 138 
420 655 187 134 152 174 
290 707 103 70 80 108 
171 431 215 97 106 118 
292 793 104 130 124 124 
328 798 119 179 125 88 
214 422 285 138 146 170 
274 147 275 98 38 38 
268 288 306 154 152 157 
288 927 158 68 51 46 
265 79 290 100 80 59 
130 792 137 188 195 210 
197 358 273 145 161 185 
297 577 113 148 146 153 
277 30 118 110 95 106 
241 939 128 74 56 39 
306 624 212 116 84 79 
317 421 136 57 79 100 
187 787 203 58 46 65 
223 335 228 134 115 97 
183 513 244 78 107 162 
150 474 129 128 93 56 
228 309 67 130 130 134 
260 159 181 101 99 104 
302 588 122 96 96 99 
196 468 267 156 162 182 
285 214 161 93 71 69 
153 490 189 50 86 114 
149 542 195 138 140 148 
229 348 141 83 68 70 
282 967 195 87 72 57 
200 662 65 102 106 145 
218 338 46 223 153 64 
262 418 273 116 138 171 
153 710 111 108 122 174 
278 245 56 108 107 111 
181 464 91 67 88 107 
153 628 152 81 65 56 
160 460 206 87 101 116 
252 545 244 115 130 178 
279 291 243 102 113 127 
228 354 154 82 98 114 
287 364 139 139 136 137 
261 139 89 87 76 65 
245 651 119 84 116 146 
252 261 32 141 117 97 
268 319 150 84 117 145 
264 266 140 112 120 131 
220 383 88 42 65 113 
211 652 230 160 157 163 
182 413 201 60 90 115 
306 711 223 147 128 116 
257 583 236 177 189 212 
229 284 312 100 53 67 
242 203 129 40 39 50 
239 156 323 117 39 58 
325 626 216 103 119 155 
299 133 221 84 63 44 
292 604 113 89 102 116 
143 554 107 103 130 156 
269 365 287 74 113 148 
243 200 132 69 30 38 
166 724 101 113 132 171 
204 623 226 179 173 177 
232 448 270 143 143 169 
123 646 131 130 88 67 
240 542 241 153 160 175 
242 204 129 50 54 76 
221 371 161 85 82 81 
260 647 118 92 105 122 
323 601 205 145 114 93 
445 692 161 82 110 185 
213 379 161 71 68 66 
151 499 172 85 115 144 
243 205 131 53 69 95 
265 625 228 145 106 88 
193 386 241 79 101 123 
199 385 126 105 115 129 
222 451 275 158 159 175 
350 708 112 118 32 25 
259 378 290 140 150 173 
160 692 94 178 178 191 
243 207 131 36 53 81 
281 307 84 80 90 103 
169 604 157 65 88 107 
261 356 300 79 106 148 
386 622 163 57 67 78 
280 320 186 107 124 144 
250 319 192 91 80 84 
218 276 265 89 98 110 
336 610 150 82 76 74 
223 306 254 82 101 120 
282 205 181 120 61 70 
323 624 107 58 94 127 
244 201 134 77 55 76 
279 276 92 142 138 139 
260 76 95 113 92 68 
170 680 161 101 105 114 
269 395 262 65 89 131 
163 470 226 69 92 127 
162 794 199 112 124 146 
273 770 210 208 150 126 
289 260 256 78 68 79 
168 783 113 150 135 140 
284 158 252 103 59 49 
316 625 212 52 47 46 
243 273 136 145 69 22 
209 502 253 130 142 187 
245 475 62 88 102 121 
318 727 102 146 130 125 
341 774 116 174 161 155 
283 364 76 97 113 132 
351 681 125 116 117 123 
248 314 193 78 84 92 
280 923 208 100 76 62 
399 629 151 59 72 86 
156 573 201 204 193 192 
262 145 153 123 109 98 
301 344 96 99 46 56 
234 922 242 158 125 99 
241 594 90 115 142 174 
292 130 188 118 69 7 
244 206 135 38 59 87 
116 679 108 102 124 152 
298 169 267 56 43 49 
211 503 251 137 153 194 
168 456 151 80 73 68 
245 200 136 88 59 76 
215 887 181 127 99 70 
257 210 259 72 56 56 
333 685 118 117 117 122 
310 385 97 71 104 134 
202 406 140 62 79 95 
330 522 129 187 183 190 
284 153 248 91 74 75 
291 834 145 210 158 127 
141 547 100 85 123 156 
176 451 164 74 81 91 
248 314 167 117 122 131 
125 707 104 129 140 186 
270 375 67 107 124 158 
247 201 139 93 66 89 
282 292 194 146 146 152 
150 703 106 131 143 190 
273 184 110 39 66 113 
223 718 238 117 74 86 
223 314 243 147 126 104 
286 565 220 122 141 170 
291 390 77 107 116 128 
164 444 207 129 130 136 
217 306 291 156 114 68 
274 504 231 75 98 150 
263 510 70 60 95 138 
264 224 206 113 74 91 
204 910 182 148 109 82 
200 919 185 79 59 44 
178 838 144 226 192 158 
199 785 206 168 148 135 
221 899 226 161 122 101 
266 309 59 126 123 126 
279 882 171 124 97 68 
228 355 165 88 80 82 
264 227 224 72 92 110 
194 380 205 59 88 121 
205 694 240 112 133 155 
194 817 118 64 42 68 
266 822 179 180 117 97 
260 353 65 80 100 120 
312 688 111 119 123 130 
210 893 215 148 110 84 
305 132 223 90 70 57 
300 815 117 220 160 122 
178 670 213 102 114 142 
252 467 68 121 125 133 
296 818 161 212 153 125 
232 965 231 96 78 68 
281 173 296 69 52 71 
266 35 116 125 93 71 
278 70 351 116 98 82 
369 674 168 93 134 167 
248 193 143 92 41 55 
147 562 115 118 120 127 
221 284 77 71 107 137 
203 368 194 65 59 53 
154 507 82 97 112 129 
253 709 107 113 120 132 
142 583 122 99 85 77 
352 630 112 99 130 162 
293 946 165 85 68 50 
269 570 102 162 166 181 
249 50 336 82 74 69 
215 273 273 117 109 104 
213 344 116 125 124 127 
347 670 128 79 98 127 
350 617 137 55 91 121 
280 184 268 72 27 36 
323 751 190 113 88 71 
282 329 119 89 104 120 
289 147 174 133 114 95 
264 356 233 133 112 90 
378 695 123 106 109 116 
258 862 194 131 102 67 
205 923 155 95 75 62 
179 446 163 72 79 88 
261 781 99 142 118 95 
423 647 162 98 83 69 
234 342 182 91 84 79 
198 414 277 111 120 142 
224 1010 165 172 146 122 
162 699 156 101 103 110 
258 797 105 193 173 158 
166 666 74 94 150 194 
185 837 139 193 160 126 
284 884 166 100 79 57 
247 1011 179 107 84 60 
284 529 222 95 112 150 
143 599 156 105 77 61 
253 618 123 123 98 108 
278 236 48 141 137 138 
329 704 108 109 29 24 
269 825 175 172 119 96 
205 673 233 53 60 81 
291 153 201 115 91 89 
207 520 58 124 137 155 
242 129 333 94 82 65 
232 358 71 218 213 217 
358 750 115 81 83 92 
305 676 114 103 113 127 
199 517 59 59 105 147 
422 727 146 119 98 113 
153 652 144 67 83 100 
279 254 52 112 136 161 
270 206 235 50 57 66 
281 113 324 102 56 2 
298 564 102 205 194 192 
248 647 237 89 76 81 
195 730 242 201 121 126 
261 563 243 110 145 183 
378 708 118 126 91 86 
238 986 133 108 81 51 
196 356 270 113 129 152 
281 165 294 43 51 71 
280 279 221 101 122 145 
262 987 195 83 60 54 
263 132 249 112 117 122 
172 596 142 62 81 108 
130 785 166 125 138 154 
303 348 98 95 44 53 
171 508 69 99 114 143 
239 485 253 109 129 163 
308 598 209 107 94 84 
187 406 253 91 106 125 
123 759 125 73 102 154 
268 33 121 176 155 153 
232 590 235 77 113 142 
242 921 242 149 119 91 
302 624 108 84 163 215 
331 713 105 110 51 44 
269 319 163 77 115 145 
275 230 69 102 44 36 
212 941 230 183 141 117 
285 839 150 189 135 104 
297 936 186 83 67 55 
267 22 146 151 109 92 
253 286 172 75 111 142 
168 821 127 97 89 90 
262 516 252 180 181 192 
292 762 206 198 144 113 
374 646 106 58 104 177 
392 742 161 162 148 141 
410 677 175 149 170 195 
278 398 256 159 141 123 
282 917 202 101 73 51 
300 222 265 141 89 79 
229 195 288 88 74 71 
245 312 153 77 108 135 
237 315 210 96 81 73 
248 121 344 122 96 97 
149 679 101 195 188 198 
274 236 93 99 41 36 
276 175 116 137 82 56 
294 280 75 96 116 136 
217 329 114 97 83 83 
264 221 199 113 77 75 
273 468 215 68 93 127 
240 170 292 103 90 80 
154 468 159 87 75 63 
266 160 272 100 48 58 
333 767 109 192 157 120 
278 393 75 116 132 188 
279 324 215 158 131 101 
179 439 169 75 81 90 
233 301 228 111 97 83 
299 381 126 118 119 124 
241 667 236 90 93 104 
296 954 184 103 81 60 
288 341 91 129 99 55 
116 688 126 58 74 109 
202 378 177 74 68 62 
161 767 201 127 36 51 
278 338 214 144 119 89 
274 178 255 49 35 49 
274 761 99 62 53 52 
304 138 206 140 56 2 
316 470 173 53 87 127 
329 804 126 209 148 112 
165 590 137 65 82 113 
277 145 289 88 37 32 
448 667 168 67 105 140 
316 405 113 76 107 138 
201 604 230 127 143 163 
222 889 160 135 103 75 
327 720 192 152 137 126 
122 645 132 127 86 64 
171 654 174 40 51 84 
253 193 155 98 68 88 
245 638 119 79 111 145 
276 379 241 127 75 43 
220 538 57 100 111 125 
280 169 182 59 43 73 
276 219 279 104 90 91 
203 351 285 88 112 137 
278 895 204 153 112 82 
275 76 315 111 94 77 
241 151 312 107 55 59 
264 245 134 108 51 62 
213 346 237 89 64 35 
343 778 119 154 131 109 
278 282 95 134 133 138 
155 742 181 89 106 132 
303 397 141 82 101 121 
248 973 136 91 79 68 
273 175 128 109 106 110 
310 562 111 126 134 148 
294 745 102 155 125 91 
253 194 157 113 74 85 
268 438 86 137 142 163 
263 161 278 100 61 66 
304 199 257 72 94 118 
450 679 132 102 122 146 
313 420 141 83 98 114 
280 315 111 79 110 136 
197 365 216 91 96 104 
293 458 93 177 172 180 
353 674 128 90 102 125 
210 905 216 174 133 108 
282 584 227 79 114 157 
306 173 245 89 79 97 
310 664 217 167 141 112 
219 521 243 121 152 192 
134 523 156 133 102 84 
236 299 226 118 106 94 
276 232 43 151 147 147 
234 193 284 64 51 46 
273 32 387 174 157 148 
164 680 188 57 75 94 
233 492 58 161 160 167 
259 168 185 69 88 106 
271 174 239 125 33 57 
208 522 240 175 175 185 
245 452 73 94 107 121 
255 890 230 169 131 101 
253 197 157 129 61 66 
252 651 241 89 79 81 
343 602 193 111 96 83 
438 657 171 90 76 62 
332 786 117 113 140 167 
114 682 112 113 131 154 
147 532 185 113 127 145 
128 691 153 106 125 147 
397 734 123 214 174 118 
214 367 83 128 112 159 
259 330 310 116 126 148 
328 581 146 80 88 99 
197 602 229 124 132 147 
206 508 59 147 148 154 
249 201 144 81 54 80 
311 448 169 79 107 135 
130 806 164 79 16 35 
258 678 115 73 105 133 
269 449 235 62 80 115 
272 215 89 29 49 69 
168 597 143 60 79 108 
167 740 209 134 150 170 
395 647 188 66 98 163 
130 765 162 108 118 144 
267 299 150 147 145 150 
251 201 146 110 64 80 
338 527 146 63 88 130 
284 185 264 55 34 39 
188 741 89 193 189 203 
341 682 121 99 110 124 
264 108 353 129 112 97 
149 541 195 87 104 123 
235 221 322 161 73 7 
271 228 52 74 39 53 
171 586 59 136 145 162 
200 440 86 94 106 119 
216 244 278 105 109 116 
270 336 292 179 130 69 
306 706 103 62 67 94 
219 977 202 112 91 70 
240 766 216 97 88 100 
145 767 179 110 128 148 
360 637 106 109 129 170 
344 781 121 159 155 157 
304 925 185 167 128 98 
292 387 149 114 126 140 
213 380 156 88 82 79 
152 658 89 67 113 148 
259 914 232 97 81 77 
280 116 223 98 78 57 
436 691 125 75 119 172 
192 382 197 70 94 117 
240 515 245 137 149 175 
226 585 55 94 156 206 
224 325 244 138 120 103 
275 881 202 154 120 86 
214 896 168 99 70 46 
433 681 121 120 144 186 
253 196 328 146 37 40 
142 539 109 107 127 151 
214 365 174 90 81 75 
250 205 146 131 41 35 
328 617 125 64 89 113 
251 204 146 134 52 44 
315 587 129 69 77 86 
320 686 114 118 119 124 
306 657 116 130 144 165 
265 1007 160 147 122 99 
276 191 190 110 67 53 
309 339 88 145 101 106 
271 190 111 38 47 75 
281 337 216 166 139 110 
251 205 148 129 44 40 
252 860 195 120 94 63 
295 194 173 117 115 118 
278 132 256 88 70 68 
216 363 132 127 128 136 
263 269 124 147 76 5 
427 653 134 46 64 80 
242 339 47 125 151 192 
308 651 220 103 129 154 
156 754 117 52 72 129 
354 757 114 153 131 112 
245 278 322 95 131 162 
242 272 224 99 98 100 
277 323 243 94 78 81 
300 170 166 160 65 4 
236 258 38 80 104 125 
283 270 262 74 78 86 
278 238 209 100 18 56 
195 813 187 218 197 182 
126 555 141 114 86 60 
200 388 89 81 112 175 
217 495 58 154 153 158 
176 511 239 169 175 188 
215 909 225 138 112 93 
181 574 60 106 118 138 
150 622 78 161 165 176 
229 977 219 98 81 69 
256 38 122 121 88 68 
269 63 339 88 78 69 
225 359 144 121 122 128 
189 719 242 97 140 175 
228 322 214 90 68 57 
326 649 192 81 144 189 
207 728 81 129 160 202 
264 317 301 136 76 14 
264 965 222 103 76 59 
274 180 119 46 59 99 
269 161 63 147 78 4 
293 602 222 138 105 84 
245 362 66 84 96 118 
219 235 300 94 71 69 
198 545 229 94 143 186 
143 811 180 151 58 73 
288 952 154 76 59 53 
230 258 52 122 39 69 
247 466 66 128 126 129 
286 344 250 170 148 126 
145 593 79 132 146 166 
271 319 173 74 76 90 
283 215 183 105 64 68 
261 123 348 129 106 111 
149 662 150 13 54 85 
330 707 107 116 35 30 
274 314 241 128 102 75 
253 200 153 130 61 49 
360 765 121 164 135 108 
315 404 128 26 63 90 
155 835 166 184 159 140 
151 710 165 101 108 119 
266 484 255 113 131 166 
120 741 135 86 109 143 
243 71 337 109 85 70 
279 375 190 140 120 99 
274 356 182 154 136 120 
255 61 324 82 74 69 
394 644 192 73 99 146 
203 548 229 87 135 174 
173 427 215 119 118 123 
148 718 168 68 86 123 
264 358 65 91 106 122 
308 618 211 135 96 85 
203 789 204 167 140 120 
187 453 263 147 149 158 
245 350 64 128 140 182 
279 116 315 101 52 5 
217 342 50 227 167 79 
260 463 77 48 79 107 
258 171 184 53 81 105 
253 200 157 132 68 69 
220 886 166 139 108 79 
277 134 293 62 45 54 
264 647 117 94 110 129 
384 769 142 205 184 161 
162 836 165 57 62 84 
217 284 297 144 144 150 
268 289 159 143 145 154 
193 491 256 104 116 177 
276 122 297 103 54 4 
267 374 233 127 102 75 
249 293 153 130 131 137 
224 333 78 138 114 90 
279 254 85 97 82 91 
317 585 190 125 124 130 
149 535 171 60 86 122 
290 284 256 126 133 145 
234 366 82 54 78 132 
216 785 208 217 174 124 
320 470 167 110 122 138 
394 626 144 57 73 89 
220 987 162 99 80 58 
239 987 132 97 74 50 
181 665 148 90 101 115 
135 638 118 83 70 57 
240 60 345 106 87 70 
184 674 217 99 110 143 
252 204 157 121 54 45 
229 410 86 125 126 132 
250 189 329 113 34 44 
122 621 127 123 92 64 
252 204 159 111 44 42 
185 432 114 33 73 108 
251 423 82 104 125 150 
322 409 124 64 102 140 
271 61 346 95 82 71 
283 410 207 135 123 116 
429 652 132 65 78 91 
279 166 184 45 39 70 
232 272 319 78 114 144 
260 137 81 95 88 81 
215 302 283 161 135 108 
321 614 131 70 83 97 
318 570 187 156 150 151 
223 907 145 85 69 52 
185 414 101 68 102 153 
296 960 177 124 97 69 
228 759 224 60 58 61 
274 497 77 111 120 134 
310 593 196 95 92 92 
317 738 198 154 153 157 
310 693 220 149 109 85 
183 641 217 133 146 172 
291 137 194 108 95 80 
278 449 253 117 137 165 
274 271 165 133 132 136 
322 690 195 86 58 77 
211 451 72 114 118 123 
285 139 237 87 74 71 
192 777 103 112 16 37 
158 577 66 123 140 161 
278 435 247 91 111 134 
243 208 132 46 53 87 
212 850 152 209 157 124 
226 279 28 108 123 140 
273 18 95 107 101 97 
194 378 199 68 85 104 
154 498 132 92 79 81 
371 623 123 73 99 122 
300 826 144 212 158 125 
267 665 242 169 111 48 
263 569 241 87 105 145 
216 248 294 73 107 135 
188 708 78 156 177 209 
146 635 113 69 69 74 
201 585 228 129 150 175 
284 153 191 134 56 3 
218 495 258 184 188 199 
179 795 198 114 113 117 
192 402 206 74 93 111 
246 451 263 178 179 188 
326 788 114 117 112 112 
258 254 211 74 102 127 
207 746 88 161 180 205 
287 498 212 162 163 172 
210 375 89 121 107 128 
287 460 196 69 98 140 
302 152 165 130 117 106 
264 13 146 116 101 94 
171 450 238 97 111 132 
285 273 187 80 120 153 
275 278 168 137 137 143 
276 265 210 69 84 101 
355 610 160 98 91 86 
312 528 106 73 108 142 
259 561 89 131 155 182 
359 674 168 144 26 38 
318 634 115 99 100 114 
128 738 157 137 138 148 
172 415 194 86 100 117 
237 455 67 89 102 117 
244 211 132 63 40 74 
244 211 133 69 49 78 
318 742 197 92 116 138 
286 740 102 77 74 96 
176 625 160 84 96 113 
236 404 84 146 148 166 
301 796 176 202 144 119 
161 768 206 80 78 100 
304 316 90 119 87 99 
227 626 81 125 154 192 
231 264 317 90 110 134 
275 142 283 111 31 30 
325 457 125 78 102 129 
277 669 229 167 116 56 
245 212 135 110 42 42 
219 326 39 142 161 188 
222 307 91 111 119 131 
244 272 220 134 117 102 
223 300 94 134 132 136 
295 525 203 133 144 161 
182 442 255 81 98 127 
361 615 134 55 99 131 
142 514 93 129 139 156 
266 533 72 113 123 136 
251 840 124 211 147 108 
286 155 224 61 28 32 
250 271 36 127 132 141 
220 363 136 125 126 133 
300 184 272 94 84 87 
187 681 219 104 123 145 
224 350 181 93 84 78 
249 296 154 131 130 135 
284 669 112 90 107 125 
292 570 214 145 154 169 
151 528 130 87 94 104 
270 39 103 120 95 70 
169 619 61 128 42 51 
270 204 117 103 32 41 
217 638 232 102 53 74 
237 539 59 92 110 128 
141 693 100 163 160 187 
276 264 97 135 131 132 
305 176 226 65 54 75 
277 215 190 100 42 66 
281 355 195 128 34 47 
187 470 259 108 125 155 
198 385 90 94 113 136 
291 444 90 103 110 138 
313 568 198 86 116 149 
284 129 222 95 63 37 
329 626 112 123 138 157 
272 487 239 88 108 132 
246 211 140 103 51 41 
179 447 162 70 77 86 
220 687 84 80 125 163 
244 297 144 113 118 127 
290 135 200 78 48 21 
246 211 142 101 30 28 
274 225 151 119 58 69 
166 730 213 145 162 184 
247 211 142 104 39 34 
165 592 161 44 49 91 
252 315 45 86 122 151 
178 626 157 108 114 128 
398 662 181 164 187 215 
133 524 139 126 101 83 
246 277 30 135 151 172 
219 596 55 88 145 192 
232 375 301 58 85 145 
231 696 239 74 97 124 
246 212 138 105 57 33 
293 818 116 240 170 134 
279 138 253 87 70 68 
256 270 185 139 139 146 
299 192 224 147 18 61 
252 698 236 157 83 36 
278 371 258 125 117 122 
358 654 171 117 146 174 
256 179 164 56 89 115 
286 425 175 91 112 136 
234 303 29 92 151 199 
264 35 350 96 87 81 
266 159 273 105 54 59 
200 505 59 115 130 148 
188 567 224 187 179 179 
207 603 54 99 157 206 
283 115 241 104 74 48 
242 72 351 129 101 86 
254 981 215 106 87 71 
318 496 180 92 110 141 
292 722 101 129 17 30 
293 143 219 82 43 21 
232 321 135 76 92 109 
301 162 269 60 45 48 
221 535 236 169 173 186 
196 439 90 91 102 115 
232 416 287 154 156 170 
284 793 191 200 145 121 
157 497 118 86 95 106 
238 211 325 176 151 124 
350 730 106 57 74 103 
235 517 60 124 140 162 
280 284 77 79 85 95 
234 724 91 121 136 154 
321 685 195 131 62 79 
202 375 116 112 94 79 
168 467 235 97 113 134 
269 369 284 59 104 141 
206 348 267 78 74 70 
137 808 175 147 100 108 
281 396 247 131 121 115 
171 817 182 105 97 96 
143 714 166 59 85 128 
274 809 184 195 135 116 
191 781 209 104 106 116 
423 722 157 110 60 67 
274 840 164 166 125 98 
130 603 123 128 99 71 
197 380 182 56 55 57 
238 713 100 111 120 132 
242 219 129 100 42 26 
314 898 152 103 87 73 
204 364 70 173 78 107 
163 739 118 61 71 105 
243 219 130 102 46 28 
187 519 242 186 182 189 
198 368 207 70 82 97 
208 374 129 94 111 130 
274 412 232 117 95 81 
253 305 47 72 107 138 
200 351 268 88 82 77 
269 390 278 103 118 157 
202 589 54 171 173 185 
330 643 203 128 161 194 
266 831 174 163 123 97 
330 797 120 174 122 82 
174 505 238 98 119 152 
280 194 294 144 37 26 
295 201 245 122 81 107 
277 598 103 92 81 125 
346 646 129 140 144 185 
307 905 168 100 87 75 
262 664 246 214 157 82 
315 150 237 124 109 111 
243 221 131 112 44 46 
283 298 261 63 77 92 
166 740 203 126 144 164 
202 566 54 87 112 141 
207 766 96 167 30 30 
271 275 53 90 121 150 
192 386 237 129 132 141 
163 764 205 48 42 89 
335 623 120 59 102 136 
183 733 89 183 182 192 
403 704 163 133 73 76 
210 340 49 213 152 78 
276 953 140 87 66 52 
282 885 135 101 84 69 
330 511 167 100 117 139 
290 366 136 121 125 134 
150 545 170 96 109 128 
220 345 54 229 175 90 
272 902 136 77 63 53 
205 509 249 144 158 188 
181 479 252 90 106 142 
348 627 113 95 128 159 
278 201 288 97 41 32 
205 450 77 114 118 125 
232 270 48 77 111 138 
261 114 351 167 68 6 
157 495 130 46 62 78 
372 618 128 98 122 146 
273 558 237 61 88 146 
257 979 215 101 83 66 
284 385 155 138 127 122 
310 617 103 59 68 74 
287 418 171 93 112 133 
119 612 140 125 92 63 
392 736 121 144 119 89 
244 221 132 100 35 37 
197 795 200 198 170 145 
142 539 160 122 87 72 
160 792 200 121 122 142 
268 217 137 140 39 72 
259 119 228 114 102 93 
119 664 109 86 108 134 
158 676 150 43 58 77 
222 758 90 176 18 24 
221 362 78 145 125 180 
253 667 237 113 94 78 
362 611 167 86 85 86 
278 147 256 98 71 62 
276 157 276 59 41 51 
237 524 60 88 108 134 
195 390 85 7 75 193 
246 220 134 105 40 36 
297 600 217 94 85 80 
161 632 153 50 45 57 
145 652 152 50 68 86 
277 288 59 102 118 137 
262 207 257 71 39 33 
279 218 157 118 55 61 
326 489 112 106 123 144 
215 335 58 112 107 101 
246 216 136 105 47 40 
148 529 187 115 129 146 
267 927 128 77 60 48 
192 750 93 168 187 212 
279 745 222 172 172 178 
259 662 245 176 144 106 
181 439 134 73 95 115 
268 1002 147 124 80 56 
256 168 164 77 100 121 
300 596 206 93 104 118 
192 372 219 112 119 132 
142 504 100 162 162 169 
261 162 202 105 58 53 
271 25 88 93 82 73 
178 734 93 170 171 183 
340 669 177 97 137 169 
263 226 234 114 112 114 
283 222 163 97 76 104 
262 273 137 156 71 5 
334 712 107 113 36 34 
298 804 110 190 129 88 
283 664 226 144 104 64 
246 216 143 110 43 45 
230 614 83 154 177 221 
446 685 165 112 124 192 
304 313 89 119 103 110 
276 418 84 112 126 145 
246 218 140 99 36 43 
278 324 186 119 129 143 
349 761 113 181 158 138 
268 149 126 114 104 95 
282 299 92 85 107 128 
242 668 235 73 70 71 
274 412 219 161 60 5 
164 837 155 213 190 178 
238 205 274 75 67 73 
239 433 81 103 111 123 
266 57 345 86 75 66 
241 592 107 174 173 184 
294 711 228 128 113 98 
232 315 133 130 122 122 
262 380 287 77 107 167 
267 597 228 80 72 103 
324 404 126 75 105 142 
147 470 135 99 88 79 
275 250 161 82 84 100 
114 667 121 70 102 133 
367 748 116 175 135 98 
286 379 151 120 124 133 
221 339 230 118 103 87 
278 333 225 175 144 109 
193 792 110 180 123 130 
124 752 120 119 123 163 
291 160 234 55 26 27 
284 358 138 132 130 134 
166 580 139 52 71 110 
305 905 170 106 90 76 
269 145 149 136 118 103 
246 221 140 103 39 54 
246 221 141 103 42 58 
284 135 244 81 71 67 
259 134 278 46 41 55 
246 844 125 213 150 111 
313 757 190 175 129 95 
262 18 146 133 92 79 
314 695 108 120 16 23 
251 564 238 92 109 149 
227 241 264 102 102 105 
247 223 140 97 31 43 
284 187 263 55 34 44 
247 587 103 112 125 179 
255 494 257 149 165 189 
283 350 136 126 124 128 
190 440 267 77 108 137 
282 408 85 175 177 200 
271 214 68 85 41 29 
238 316 138 100 117 135 
263 633 120 149 148 157 
126 550 144 127 95 69 
250 850 184 150 116 83 
313 813 123 219 161 122 
265 479 74 95 109 127 
412 730 130 143 73 88 
234 270 120 133 130 130 
251 63 323 85 77 72 
158 820 133 187 67 103 
272 317 290 173 139 101 
250 288 158 136 135 139 
237 357 312 58 111 167 
278 183 280 88 32 57 
291 219 250 90 84 105 
372 615 173 76 73 71 
328 480 112 151 152 160 
277 477 247 86 111 146 
238 271 231 102 34 46 
250 768 95 156 129 110 
225 289 66 68 101 128 
283 359 245 164 140 116 
181 620 135 71 84 117 
196 385 174 66 70 75 
274 528 246 104 130 173 
208 401 96 61 80 137 
169 585 142 57 74 109 
267 887 223 155 116 85 
263 842 127 233 169 129 
150 579 177 120 117 146 
272 874 199 137 108 74 
235 617 98 84 129 169 
254 33 395 174 128 114 
287 528 89 130 147 171 
295 714 101 67 76 112 
281 27 374 131 120 115 
253 345 63 29 66 124 
250 209 147 105 48 39 
247 507 251 128 144 176 
256 151 168 135 70 0 
208 390 286 88 107 137 
249 259 324 108 84 94 
271 187 55 101 51 45 
402 633 162 90 79 68 
204 472 64 120 124 132 
324 451 105 87 112 143 
272 361 263 52 73 116 
252 833 122 210 145 108 
277 358 73 98 111 132 
233 226 319 133 108 89 
278 97 344 119 99 78 
348 743 176 171 159 153 
305 449 97 89 103 120 
258 566 100 236 209 189 
308 586 196 115 121 132 
215 913 137 139 114 91 
250 210 151 104 30 43 
226 825 184 193 137 115 
442 674 126 101 113 126 
257 148 148 118 105 95 
330 791 117 150 136 127 
173 625 212 150 160 179 
409 642 129 89 100 114 
274 986 174 88 71 56 
131 766 162 111 123 146 
234 422 283 161 164 180 
278 83 328 120 102 85 
215 314 283 151 60 0 
213 485 60 71 95 120 
195 404 272 109 120 136 
271 379 68 76 98 170 
211 972 164 105 86 71 
271 260 103 130 53 74 
277 59 357 121 99 79 
298 198 214 129 38 47 
261 506 68 171 173 184 
281 146 295 82 44 40 
234 314 214 98 83 74 
276 349 75 67 88 107 
231 260 246 101 101 104 
335 508 146 144 148 158 
261 146 340 40 47 67 
161 430 186 119 126 139 
347 745 107 131 105 87 
275 396 257 149 135 128 
166 693 200 97 113 155 
176 522 236 186 182 187 
212 969 206 98 78 62 
262 231 223 70 99 124 
230 536 58 89 108 128 
280 903 148 104 75 55 
278 680 227 152 131 115 
135 592 155 120 89 66 
187 726 241 153 177 202 
267 605 110 75 162 220 
226 315 229 127 50 61 
139 779 175 130 133 142 
285 326 262 162 159 163 
326 467 162 90 103 124 
232 181 299 51 75 94 
251 209 152 120 36 54 
276 275 268 118 116 120 
227 210 311 100 112 127 
250 209 154 118 18 55 
290 185 158 127 85 73 
291 227 177 93 109 127 
259 233 234 108 107 109 
219 351 186 94 87 82 
215 249 286 119 106 106 
250 603 117 212 203 215 
250 348 315 105 113 161 
245 857 208 120 92 62 
171 683 144 73 89 117 
203 477 265 204 205 212 
268 870 199 132 102 70 
267 432 269 119 138 169 
337 531 154 88 110 135 
360 750 115 105 93 94 
158 443 184 65 66 70 
278 160 256 104 41 37 
283 808 181 194 138 117 
251 209 157 123 34 59 
323 689 113 117 118 124 
248 36 390 171 149 145 
159 440 183 57 61 68 
207 471 268 103 126 175 
192 717 79 166 182 216 
172 688 151 71 83 103 
256 164 30 133 66 20 
255 644 243 69 70 113 
246 148 303 81 65 61 
250 210 159 126 46 63 
166 417 191 98 112 129 
138 659 105 63 102 148 
414 639 143 59 73 87 
257 178 275 74 61 60 
298 135 201 107 83 55 
292 792 186 203 144 119 
243 438 269 153 162 184 
226 327 65 104 113 124 
129 565 152 129 95 72 
242 197 274 64 51 55 
260 140 93 84 71 58 
307 502 99 99 119 151 
278 527 229 86 114 150 
224 322 244 137 118 98 
271 929 122 61 49 47 
250 213 152 99 43 52 
119 722 142 101 119 145 
407 722 122 186 189 201 
264 62 326 77 69 63 
225 277 256 113 38 53 
365 780 132 178 155 140 
279 495 220 129 137 151 
333 569 167 99 116 136 
206 395 153 56 64 74 
183 489 251 161 168 181 
235 490 251 120 136 168 
276 212 150 103 42 62 
258 872 223 145 117 87 
233 281 39 135 138 146 
304 707 103 118 35 37 
239 442 77 74 94 113 
201 367 203 67 52 47 
153 486 93 115 118 125 
321 613 133 71 82 95 
254 68 314 83 73 66 
239 976 226 93 76 62 
207 717 244 172 145 159 
284 949 145 86 69 53 
162 460 136 86 76 66 
296 780 192 201 142 115 
387 642 115 45 68 93 
257 877 226 149 121 92 
184 453 105 65 86 106 
209 920 226 151 123 101 
395 741 161 125 117 117 
296 956 183 101 77 58 
306 417 86 182 180 199 
256 147 102 78 63 48 
263 228 193 102 46 58 
160 561 68 83 103 126 
242 131 331 116 89 102 
144 534 90 112 130 152 
283 928 141 63 48 36 
235 220 267 75 70 68 
274 977 202 77 59 45 
187 430 265 94 108 136 
268 25 398 126 98 70 
260 388 70 82 109 184 
284 137 305 127 45 14 
231 362 79 104 115 183 
193 731 241 178 92 90 
411 638 148 70 84 99 
149 728 114 107 126 155 
168 627 204 86 100 168 
249 217 149 99 35 46 
217 629 65 190 189 198 
303 548 104 73 91 110 
141 761 175 117 138 162 
442 689 128 93 134 193 
315 667 198 106 128 153 
242 130 313 136 85 83 
269 285 110 80 101 123 
249 218 149 100 30 47 
226 453 271 178 178 184 
245 403 78 135 141 166 
258 30 360 111 100 92 
135 753 115 145 157 188 
249 219 150 100 41 55 
255 412 275 102 123 173 
329 815 152 233 170 138 
376 670 170 150 151 163 
373 640 109 106 132 158 
281 286 79 109 108 112 
173 432 173 71 80 93 
257 365 299 64 108 147 
222 338 79 133 94 54 
231 452 269 133 130 167 
299 191 225 150 34 72 
245 523 244 142 157 180 
248 223 144 95 41 52 
248 492 61 141 150 169 
282 785 197 198 141 119 
185 829 128 112 96 97 
233 607 80 158 185 221 
271 462 222 53 86 140 
231 277 32 141 143 151 
244 992 197 103 77 49 
154 702 109 116 140 188 
275 128 168 140 109 87 
246 75 355 124 101 82 
442 699 157 131 147 207 
248 221 150 60 31 40 
210 971 195 95 79 67 
221 392 293 165 168 179 
145 546 160 106 77 67 
281 380 206 172 147 123 
323 602 158 67 70 76 
224 950 236 209 158 139 
293 943 164 86 72 59 
273 367 232 141 113 81 
144 566 107 136 141 152 
237 43 350 43 38 32 
381 738 118 91 114 134 
262 25 374 132 119 112 
330 637 117 69 168 222 
362 789 144 221 160 117 
281 467 89 121 120 123 
282 211 263 70 35 43 
264 128 168 124 89 64 
207 365 76 132 86 110 
249 218 327 115 108 111 
393 629 182 110 91 70 
281 475 216 59 97 142 
249 218 152 107 43 65 
204 480 62 62 94 121 
432 690 167 117 163 203 
165 427 179 78 89 101 
255 876 138 172 125 88 
249 218 155 77 33 54 
200 371 79 84 112 137 
257 563 79 131 128 129 
267 401 80 93 121 165 
327 776 111 137 129 126 
144 550 114 128 137 151 
304 409 151 48 86 117 
409 679 175 148 175 206 
267 312 142 148 149 155 
249 219 156 57 38 54 
249 219 157 56 43 61 
277 346 142 83 107 129 
275 235 189 99 72 67 
148 529 190 77 101 133 
250 98 347 95 83 70 
221 235 274 88 98 109 
351 676 171 58 58 110 
357 757 171 148 136 127 
250 218 158 51 38 58 
170 645 135 48 69 107 
269 467 255 96 115 158 
229 944 135 70 53 39 
277 314 117 81 114 140 
241 901 238 184 131 115 
297 324 86 82 19 32 
152 657 87 83 133 171 
301 755 200 195 144 109 
280 818 113 225 157 116 
295 415 88 148 165 199 
310 710 215 149 135 125 
233 347 162 120 115 114 
130 517 142 129 100 81 
273 184 112 21 64 114 
159 476 107 97 101 109 
245 633 230 72 120 156 
436 709 142 168 196 227 
277 47 367 138 114 90 
236 264 34 136 134 137 
308 611 214 162 112 100 
145 510 110 112 121 135 
166 694 199 79 98 152 
236 369 77 23 88 146 
236 314 313 127 133 146 
313 723 210 206 159 106 
278 150 323 92 52 68 
310 715 102 110 93 69 
221 368 86 108 121 168 
281 240 166 125 94 99 
149 760 180 115 126 140 
137 493 135 127 94 85 
250 221 159 64 48 69 
264 213 18 98 80 74 
276 993 156 133 109 85 
197 941 187 91 75 61 
185 440 116 51 73 98 
164 599 154 54 74 103 
270 199 52 69 42 43 
245 388 295 116 129 169 
251 223 159 60 50 68 
246 1009 154 112 78 51 
407 743 146 150 133 120 
204 729 243 100 150 188 
424 644 128 100 113 130 
291 492 197 99 116 148 
280 974 192 102 85 70 
136 542 158 133 97 78 
166 454 136 86 86 88 
244 412 281 103 113 164 
328 465 125 70 98 124 
269 311 153 79 62 73 
253 194 163 132 79 64 
459 679 155 133 161 208 
280 340 132 82 105 126 
283 418 186 76 96 121 
306 429 92 99 117 180 
318 433 108 118 132 149 
263 217 183 99 82 107 
232 200 280 67 69 73 
244 273 221 107 71 54 
311 698 107 111 98 93 
275 918 132 63 51 45 
278 253 51 116 139 165 
272 337 162 133 137 147 
187 432 265 88 107 134 
277 307 113 87 107 128 
285 739 102 75 62 80 
301 673 220 164 72 9 
204 844 153 202 155 120 
253 907 231 151 118 93 
250 314 175 99 110 125 
316 582 128 65 77 90 
280 356 222 150 23 71 
214 884 185 141 110 81 
201 920 151 97 71 62 
195 355 247 85 87 91 
298 600 118 84 96 108 
242 184 281 88 51 53 
270 651 115 75 110 139 
282 146 152 136 118 102 
345 695 117 106 111 118 
305 469 183 98 115 137 
310 511 190 96 116 154 
286 441 199 131 143 160 
317 495 180 73 98 136 
241 713 236 154 34 42 
262 143 58 124 105 91 
233 860 220 162 124 105 
249 493 255 111 131 161 
278 151 287 76 34 28 
308 458 98 137 135 139 
283 834 156 189 139 113 
238 337 186 94 86 81 
164 743 114 44 72 111 
246 330 186 90 68 72 
276 595 102 130 139 164 
332 709 185 115 95 83 
128 693 153 103 123 152 
290 197 176 127 82 93 
252 199 163 120 67 63 
134 779 125 154 169 196 
286 248 184 138 67 86 
290 656 118 71 100 127 
115 701 136 98 120 152 
281 370 204 180 155 131 
253 196 164 129 75 59 
283 567 102 146 165 195 
307 493 190 56 87 124 
166 684 201 90 109 131 
117 716 108 149 155 195 
156 680 93 177 173 181 
374 760 125 171 154 143 
281 287 84 119 119 123 
270 169 221 106 62 87 
153 575 149 46 58 87 
292 153 147 140 121 106 
304 443 172 76 101 131 
139 711 102 94 121 200 
246 316 38 119 67 63 
204 479 264 109 120 164 
284 161 257 101 45 48 
302 533 100 166 165 174 
221 339 227 125 107 89 
321 742 194 110 96 98 
232 175 304 65 90 111 
282 235 210 79 54 62 
237 613 105 104 137 170 
253 193 171 128 78 64 
252 194 168 128 81 63 
303 903 176 161 134 107 
263 162 35 137 71 3 
253 195 169 124 76 54 
307 791 108 179 171 169 
291 133 186 109 64 15 
270 259 49 148 150 158 
335 746 184 149 141 139 
259 82 297 95 71 38 
276 939 220 123 99 80 
258 136 95 90 75 58 
253 193 172 127 75 65 
145 571 81 105 123 145 
169 657 197 69 98 131 
248 274 212 103 105 110 
274 20 391 129 113 101 
194 378 213 67 92 124 
226 654 99 68 104 168 
188 407 122 40 78 104 
257 861 205 121 94 59 
154 610 108 99 61 70 
194 463 267 179 175 182 
317 451 103 114 133 188 
366 688 125 112 114 120 
244 43 343 70 62 57 
130 804 153 122 61 62 
281 257 263 75 63 62 
217 251 273 93 103 116 
223 291 28 76 107 134 
401 631 128 81 106 131 
252 197 168 119 62 54 
272 215 148 120 44 62 
249 990 138 154 115 72 
157 721 172 69 83 108 
271 624 227 122 98 87 
181 540 229 151 150 166 
167 451 229 84 102 121 
162 477 104 97 113 129 
213 885 184 139 107 79 
230 1005 147 169 132 96 
252 198 168 119 49 58 
208 356 287 83 108 167 
139 622 157 109 82 64 
294 389 150 115 123 136 
312 355 99 155 153 158 
200 364 212 77 75 76 
222 983 171 62 49 35 
120 666 137 132 92 71 
279 243 165 115 96 95 
362 681 167 103 52 55 
220 414 90 115 116 121 
246 34 390 151 134 126 
323 451 136 111 126 147 
270 900 131 96 79 62 
218 404 90 118 136 162 
148 622 156 88 70 61 
323 592 180 122 116 115 
155 468 160 81 68 58 
292 534 209 82 113 154 
274 303 62 170 167 173 
246 345 318 118 126 167 
317 167 260 152 81 93 
222 812 113 143 111 78 
282 393 163 131 33 78 
336 686 119 113 115 121 
252 198 175 136 60 68 
160 777 206 143 36 50 
367 785 149 217 155 114 
367 645 106 72 106 201 
223 304 43 102 124 146 
227 782 102 192 136 57 
283 491 217 92 112 151 
276 350 241 111 92 80 
231 283 244 142 122 102 
282 728 103 145 114 74 
242 963 233 124 93 79 
114 698 110 109 134 162 
314 909 163 96 83 71 
253 201 160 118 52 53 
240 154 322 117 41 58 
152 791 191 140 109 78 
252 200 163 114 53 58 
140 781 176 137 112 118 
204 928 215 156 123 94 
222 365 145 112 117 126 
270 463 234 58 82 128 
211 928 230 172 133 108 
252 203 160 110 51 50 
223 307 105 82 107 129 
270 359 277 79 99 129 
270 400 260 75 90 127 
229 967 228 88 70 60 
180 652 159 43 58 102 
259 151 177 144 68 0 
205 526 57 121 125 136 
290 967 179 120 98 75 
321 611 206 141 103 88 
252 589 233 134 150 171 
218 234 284 76 101 123 
149 609 102 69 102 131 
323 503 112 116 123 148 
275 377 229 176 147 116 
207 638 61 189 186 199 
130 801 147 175 90 100 
263 227 319 139 140 147 
309 395 118 54 77 100 
428 703 125 150 146 180 
324 145 265 165 75 12 
174 589 215 96 114 144 
177 431 120 69 94 117 
377 771 134 221 180 136 
286 165 247 89 41 50 
279 142 323 142 33 18 
246 298 202 114 104 94 
252 937 128 65 50 40 
272 167 85 151 61 9 
270 179 226 132 35 70 
226 554 232 197 188 189 
344 808 150 228 156 124 
389 760 151 215 187 159 
226 636 86 184 188 201 
252 207 160 128 38 63 
191 500 252 131 137 174 
252 136 287 103 79 65 
225 787 208 181 161 146 
231 858 182 148 115 85 
286 137 310 135 45 11 
292 309 83 78 78 85 
275 299 61 179 180 191 
164 475 104 79 102 125 
241 1010 174 102 78 57 
319 771 109 194 163 132 
170 729 224 170 192 219 
214 616 58 148 158 186 
185 409 250 69 90 115 
300 784 187 204 146 118 
223 428 81 103 111 122 
294 194 165 160 125 96 
153 512 207 79 117 148 
359 692 167 105 39 40 
386 766 144 227 183 132 
252 207 167 124 51 70 
133 781 169 135 149 167 
290 455 185 158 158 165 
165 641 140 49 67 109 
159 551 219 83 48 117 
285 139 305 131 40 18 
309 376 92 55 94 125 
304 204 261 76 109 135 
272 286 167 111 121 134 
315 674 208 141 56 65 
143 661 101 97 118 148 
256 115 93 108 88 67 
261 153 275 126 65 63 
276 618 227 181 131 120 
367 659 170 128 158 188 
255 1012 155 140 107 75 
224 323 244 137 118 100 
137 650 109 99 128 166 
281 187 269 52 38 51 
338 774 114 148 139 138 
177 460 119 93 97 103 
187 663 65 64 131 188 
187 591 223 72 74 78 
