ply
format ascii 1.0
comment Created by CloudCompare v2.11.1 (Anoia)
comment Created 2/28/22 9:36 PM
obj_info Generated by CloudCompare!
element vertex 2035
property float x
property float y
property float z
property uchar red
property uchar green
property uchar blue
end_header
293 651 129 77 101 128 
320 810 172 205 147 115 
202 334 259 94 84 82 
232 466 65 127 127 132 
306 663 130 92 101 119 
233 222 262 87 82 81 
254 44 371 67 60 55 
257 248 230 73 74 78 
187 522 249 181 176 183 
185 620 148 67 81 119 
203 798 210 148 109 91 
285 223 224 42 55 78 
214 334 295 99 117 150 
258 217 24 119 92 77 
365 655 182 112 147 179 
390 760 168 201 150 85 
294 370 101 57 90 129 
188 379 247 141 138 141 
187 732 104 190 188 198 
299 919 186 102 83 67 
436 688 179 140 168 204 
226 913 156 82 65 48 
240 1005 198 110 82 63 
279 198 323 154 36 21 
225 334 51 150 159 178 
254 280 141 153 77 7 
179 405 226 93 97 104 
307 681 240 150 63 12 
268 46 407 189 169 164 
222 293 135 106 110 120 
148 526 191 98 115 133 
289 189 236 140 43 76 
192 420 125 9 52 99 
241 14 114 126 114 107 
257 189 109 46 46 66 
242 13 113 123 111 104 
289 843 145 203 155 123 
243 13 113 121 109 102 
281 452 240 58 83 129 
158 792 133 121 71 81 
182 820 190 172 141 108 
122 618 156 130 96 67 
294 175 229 60 41 58 
240 13 116 127 115 109 
194 772 223 150 101 95 
357 624 136 58 97 133 
244 992 144 130 96 62 
204 684 252 144 160 180 
231 199 282 83 76 73 
260 154 16 152 74 6 
273 127 264 133 69 2 
264 507 257 49 97 156 
426 644 160 61 70 81 
242 13 117 125 113 106 
273 126 246 113 67 18 
287 350 262 191 166 142 
260 28 131 146 125 132 
156 631 168 77 64 55 
322 644 131 62 88 117 
218 224 277 90 97 107 
316 437 164 103 113 127 
237 310 157 133 131 135 
276 172 206 73 74 82 
218 233 268 89 96 106 
153 489 222 88 90 96 
149 504 180 87 75 77 
358 660 183 131 155 181 
188 694 89 188 186 199 
163 679 106 162 161 169 
218 303 217 139 79 60 
265 701 120 117 127 140 
271 525 254 70 96 153 
270 204 80 98 45 48 
342 637 134 151 175 218 
221 1003 165 141 107 83 
297 728 240 144 129 120 
257 507 75 79 105 144 
152 614 172 91 72 60 
271 963 226 132 103 87 
223 879 177 145 112 83 
300 613 117 62 83 109 
299 146 224 95 63 52 
243 552 66 121 128 138 
210 788 121 143 117 89 
246 12 114 115 103 96 
292 339 101 140 90 59 
269 181 60 100 36 30 
321 600 156 84 85 89 
281 534 239 125 137 154 
228 325 185 74 72 76 
304 492 105 74 97 122 
259 293 156 95 99 107 
374 614 197 107 90 72 
225 321 53 133 136 145 
271 194 58 39 43 51 
445 698 157 152 174 220 
340 813 166 230 161 132 
207 485 268 186 190 204 
184 395 182 88 102 119 
196 376 202 82 100 117 
276 83 374 112 91 70 
169 671 195 17 43 91 
128 571 163 135 100 75 
216 747 245 88 84 123 
200 395 164 67 75 84 
241 13 120 126 114 107 
262 251 27 162 89 63 
253 287 32 142 149 164 
265 164 57 108 111 116 
267 43 400 171 151 146 
237 650 248 81 123 158 
271 638 251 71 49 57 
212 293 268 149 126 102 
427 701 178 132 156 181 
251 279 174 106 83 70 
243 12 121 120 108 101 
244 674 112 107 130 161 
214 240 304 79 112 140 
164 724 129 61 48 106 
276 260 249 63 94 119 
322 631 117 121 123 137 
336 528 169 84 103 134 
231 229 257 103 99 97 
171 791 129 103 89 89 
214 516 68 177 184 201 
259 171 150 126 77 43 
227 297 68 106 120 137 
328 799 182 202 148 116 
295 485 96 104 118 138 
266 665 256 179 126 52 
198 384 179 49 57 65 
303 154 238 128 84 84 
247 367 291 125 138 167 
287 378 212 178 152 127 
133 759 139 75 105 165 
286 538 238 58 73 108 
290 312 80 210 150 74 
427 643 177 95 82 68 
274 450 257 99 126 164 
232 334 159 82 102 122 
271 118 310 141 66 3 
213 262 297 143 141 146 
207 905 223 169 129 102 
293 522 223 107 130 165 
278 539 244 118 136 160 
277 524 88 72 99 136 
373 659 182 129 157 186 
190 415 162 91 97 105 
151 516 97 107 125 146 
285 475 234 72 99 131 
344 704 195 104 99 104 
279 249 57 103 106 114 
248 340 62 52 76 133 
273 182 163 108 79 65 
264 197 256 42 51 62 
202 484 71 84 102 120 
267 171 45 121 38 31 
244 11 125 111 99 92 
236 633 246 95 120 144 
162 583 179 32 37 106 
166 567 75 134 155 183 
244 235 161 41 46 85 
253 287 194 67 75 85 
257 127 216 109 70 37 
269 314 245 110 29 53 
396 674 128 59 84 169 
122 622 152 127 93 64 
185 621 148 66 79 120 
244 764 106 100 134 162 
158 451 215 123 126 135 
261 378 220 116 71 63 
266 666 127 72 99 129 
260 177 255 123 22 55 
198 926 194 75 63 53 
271 97 342 119 97 76 
316 461 116 146 147 159 
256 389 273 98 121 167 
190 394 214 71 88 106 
331 515 183 124 140 159 
160 436 195 56 68 88 
305 143 233 141 75 38 
222 319 228 137 117 97 
266 222 209 118 68 65 
390 695 137 118 117 119 
255 912 128 87 70 56 
358 642 194 144 176 209 
191 468 102 74 98 119 
319 454 171 88 103 131 
284 930 219 85 71 57 
196 774 223 165 118 120 
245 523 252 98 121 160 
179 625 72 99 83 94 
251 11 113 97 86 78 
181 531 69 107 123 144 
289 597 236 64 76 95 
251 11 114 99 88 80 
259 123 213 130 104 68 
263 556 79 205 204 212 
274 317 269 92 77 93 
145 506 119 48 84 120 
316 629 233 122 127 167 
187 494 260 182 187 200 
364 692 181 151 109 56 
294 201 263 69 28 35 
268 511 255 108 121 145 
268 134 366 103 38 68 
250 313 315 116 136 160 
238 127 327 138 89 82 
271 293 283 124 63 78 
269 313 246 111 26 54 
237 682 253 115 152 185 
268 131 367 143 31 18 
324 703 115 98 78 66 
445 690 144 151 171 199 
262 175 98 72 27 31 
271 222 99 95 38 28 
266 401 88 48 82 154 
241 452 72 88 103 119 
330 545 145 96 106 121 
138 788 148 181 184 195 
155 602 128 77 71 82 
252 11 115 97 86 78 
241 575 71 110 144 177 
227 1001 155 168 130 95 
440 680 184 140 160 202 
200 463 272 191 188 191 
230 616 82 90 112 154 
271 974 166 110 88 71 
327 651 135 70 75 104 
185 477 98 102 119 138 
206 707 85 135 167 219 
223 330 302 108 122 148 
260 130 271 148 52 6 
317 143 270 105 58 18 
221 915 151 132 107 81 
253 11 117 99 88 80 
267 574 111 114 128 146 
234 315 305 119 110 104 
326 461 153 69 98 137 
145 742 183 117 122 140 
281 277 197 74 115 149 
170 531 71 93 121 151 
254 11 117 97 86 78 
311 562 210 62 94 125 
308 183 259 100 89 104 
252 563 88 93 153 198 
119 696 143 70 87 126 
151 568 189 139 136 139 
298 578 130 177 161 152 
251 73 392 130 99 79 
273 56 395 135 110 83 
179 426 262 139 139 145 
280 895 195 134 105 76 
152 575 92 90 112 135 
270 274 301 120 135 153 
292 963 181 138 110 80 
281 896 197 117 89 56 
249 10 122 105 94 86 
178 681 222 66 88 133 
252 563 78 118 160 196 
157 493 132 98 101 109 
373 759 137 176 153 133 
250 10 121 105 94 86 
269 244 57 76 65 75 
288 203 232 99 80 88 
398 629 206 73 101 126 
225 186 318 89 73 80 
246 907 132 79 64 48 
225 982 200 114 74 42 
275 191 268 33 46 64 
162 595 214 124 126 137 
241 634 106 130 158 196 
332 621 220 75 80 86 
275 143 207 124 51 4 
248 11 126 105 94 86 
168 774 220 192 152 146 
161 586 166 58 74 101 
210 886 215 149 110 84 
249 11 127 106 94 86 
304 232 266 127 55 76 
270 237 306 159 154 157 
262 48 82 115 96 78 
200 924 166 108 88 74 
126 773 162 103 119 142 
214 229 298 74 104 130 
165 712 193 82 107 132 
314 786 192 201 146 115 
251 10 126 106 94 86 
262 326 157 82 113 140 
290 359 121 125 98 68 
261 783 218 204 146 119 
190 752 238 202 130 78 
240 830 133 203 140 100 
267 105 321 110 99 89 
261 456 262 144 157 181 
137 550 170 135 97 77 
253 10 123 104 92 84 
264 25 136 175 145 142 
204 948 169 111 90 71 
149 825 173 127 153 178 
418 731 166 182 50 71 
271 334 76 97 119 146 
205 388 164 69 72 77 
247 592 248 99 131 166 
282 139 237 101 54 29 
321 722 115 130 12 20 
252 10 125 106 94 86 
235 790 118 164 141 129 
305 145 252 87 44 24 
218 295 293 126 87 86 
265 231 236 71 77 89 
213 317 259 115 65 22 
253 10 127 109 97 88 
250 233 139 110 66 74 
230 538 251 130 156 186 
295 942 216 95 81 66 
265 170 229 123 90 87 
182 635 71 86 143 190 
189 641 70 92 153 202 
243 230 161 72 51 69 
197 833 143 210 176 143 
205 488 265 114 132 175 
186 513 253 119 137 184 
250 832 195 163 118 92 
249 245 134 91 42 35 
327 430 149 89 120 149 
176 735 112 129 145 167 
281 513 239 75 100 156 
148 618 130 123 98 73 
261 10 132 128 114 105 
271 901 237 180 135 109 
317 471 185 77 102 137 
129 739 160 63 89 136 
202 666 240 97 115 147 
268 146 94 108 98 91 
267 836 138 233 167 128 
253 261 177 102 115 131 
266 105 318 108 97 88 
217 337 105 112 113 117 
210 382 286 94 110 141 
295 325 97 104 70 75 
280 318 206 139 136 139 
315 570 205 116 127 142 
280 509 247 97 119 152 
160 449 226 93 111 130 
159 475 239 118 132 150 
277 294 80 118 121 128 
272 323 274 120 94 114 
240 17 102 104 92 82 
166 629 80 77 130 171 
164 632 165 60 49 56 
270 371 218 113 73 63 
240 18 100 104 91 80 
219 313 199 105 92 81 
271 537 254 86 118 158 
215 333 203 161 136 109 
222 325 226 125 103 80 
186 412 126 59 87 109 
284 443 225 38 74 118 
154 460 169 90 77 66 
427 678 185 127 165 199 
201 810 128 153 131 116 
275 364 179 162 143 125 
319 666 131 130 129 134 
365 790 165 210 150 113 
367 648 128 166 176 195 
315 437 122 57 92 122 
147 614 131 121 95 73 
278 543 247 69 95 144 
194 692 250 107 123 141 
240 23 96 106 93 81 
297 357 104 149 146 151 
241 915 251 129 102 76 
326 627 162 63 86 107 
281 602 120 53 84 108 
264 30 404 137 125 120 
298 591 135 65 77 91 
290 577 234 132 153 180 
272 372 268 58 77 118 
158 579 163 54 70 97 
272 385 222 131 109 86 
272 143 273 77 62 77 
273 204 198 137 57 71 
310 566 126 188 181 185 
241 16 105 108 97 89 
314 758 119 145 125 108 
229 994 198 151 125 99 
250 215 255 58 50 57 
387 681 137 97 111 140 
167 619 223 133 146 170 
321 458 172 136 139 147 
279 417 227 114 60 32 
186 725 252 106 149 185 
199 939 169 93 78 65 
219 285 252 126 120 119 
223 281 230 107 44 39 
262 315 159 79 89 101 
202 487 265 140 148 176 
269 768 226 204 153 122 
283 846 147 218 165 128 
125 704 119 159 167 184 
256 245 184 98 48 70 
275 498 255 114 135 170 
386 664 125 77 96 160 
205 621 69 158 158 168 
241 23 125 147 134 127 
335 623 166 62 90 114 
298 406 167 78 98 120 
121 717 150 82 101 151 
295 528 220 102 121 155 
279 322 95 109 110 117 
270 300 241 114 110 112 
297 342 98 209 81 122 
275 141 361 93 37 32 
227 366 89 27 84 132 
155 685 171 107 109 117 
373 641 197 197 213 235 
165 549 76 94 115 141 
266 283 117 101 119 140 
234 271 146 140 136 137 
293 157 222 42 48 77 
257 185 109 88 42 30 
269 27 86 94 82 70 
316 382 129 58 94 122 
241 26 125 151 137 129 
260 260 157 90 66 68 
153 586 121 77 109 136 
129 662 143 96 72 53 
242 24 127 155 143 137 
330 453 163 163 167 178 
237 285 209 87 75 79 
271 240 305 145 143 149 
324 680 125 125 121 123 
242 26 125 157 142 136 
286 927 215 80 57 44 
269 259 110 143 135 128 
166 634 160 54 52 66 
222 966 234 94 77 66 
175 440 258 89 105 134 
210 331 127 113 117 124 
301 198 274 85 37 46 
206 371 171 91 84 83 
175 423 216 105 108 114 
290 485 224 103 129 157 
310 598 145 77 86 96 
382 701 177 156 108 98 
150 545 110 112 132 154 
394 680 131 103 137 173 
286 396 215 167 73 4 
134 767 141 91 122 157 
266 164 49 116 112 109 
216 344 106 104 92 99 
208 385 164 69 70 74 
337 613 188 65 63 63 
265 651 260 93 58 56 
243 271 35 135 134 139 
270 722 117 123 39 44 
191 404 175 69 80 93 
316 566 202 100 114 132 
317 560 206 172 169 174 
162 575 167 41 54 94 
320 699 116 126 34 31 
241 28 124 154 141 134 
232 269 142 138 133 135 
151 505 100 127 132 142 
236 874 152 121 93 62 
295 376 139 127 128 134 
209 593 72 108 56 52 
276 678 240 118 97 80 
291 903 195 135 93 70 
186 784 214 151 113 108 
242 929 255 193 151 126 
219 341 148 123 123 129 
269 114 376 110 98 87 
287 459 225 101 119 145 
268 318 67 174 174 182 
301 612 132 62 86 108 
203 837 146 141 135 134 
257 392 272 107 123 165 
219 804 125 161 136 115 
244 29 125 159 146 139 
361 675 138 84 97 124 
380 654 187 136 167 200 
250 284 201 70 81 94 
212 243 295 90 63 59 
284 681 122 154 155 167 
268 602 241 92 87 106 
320 765 122 193 146 82 
153 531 224 83 108 136 
277 110 362 99 90 85 
285 262 259 95 63 73 
184 633 232 163 167 183 
182 529 245 207 197 198 
189 649 155 50 79 115 
246 29 126 164 147 142 
210 424 282 138 149 169 
214 406 285 113 130 161 
278 171 166 105 103 101 
168 751 222 134 48 66 
306 410 158 52 85 113 
300 419 174 65 92 119 
233 288 148 75 100 123 
157 478 233 151 149 154 
332 666 200 135 71 76 
354 605 208 120 99 78 
220 918 246 107 90 73 
165 562 76 125 144 174 
254 141 292 52 60 69 
285 931 218 83 61 44 
381 688 137 110 112 118 
244 86 370 115 95 74 
221 287 229 137 27 63 
156 711 180 100 107 119 
218 370 97 74 129 181 
182 423 129 56 84 122 
248 886 151 111 81 53 
190 415 173 77 87 100 
274 658 246 167 107 58 
279 785 213 200 140 116 
255 229 243 66 64 66 
261 779 113 154 133 116 
238 39 78 116 102 88 
273 217 28 104 90 82 
260 917 246 80 71 63 
215 708 84 197 195 210 
231 719 89 159 166 186 
260 188 232 86 83 99 
419 639 155 52 67 82 
299 790 118 118 110 104 
298 230 262 114 52 72 
355 633 217 133 156 193 
223 310 83 110 120 134 
204 377 112 104 99 109 
323 460 169 84 102 121 
288 247 229 118 33 60 
375 619 136 46 89 124 
233 760 104 211 105 70 
306 821 136 226 166 127 
280 205 259 53 32 41 
303 365 111 105 127 162 
252 248 128 123 36 51 
330 816 164 235 170 140 
207 898 206 137 102 74 
238 32 390 124 114 109 
288 341 100 155 116 69 
197 775 119 122 18 34 
169 695 206 25 47 101 
221 588 64 82 123 158 
235 45 74 118 103 88 
235 45 75 118 103 88 
269 968 159 127 99 73 
137 531 172 136 98 82 
158 761 127 131 143 186 
256 28 426 114 87 66 
246 892 247 192 137 124 
290 372 92 86 118 147 
220 329 62 129 89 34 
185 534 69 86 110 135 
175 462 138 68 89 108 
281 592 117 180 177 186 
287 383 160 107 56 93 
203 505 257 120 130 152 
260 318 49 140 140 145 
276 253 276 125 124 128 
268 177 55 119 39 32 
233 44 78 122 109 99 
166 434 224 77 94 111 
152 564 128 141 138 141 
293 401 90 115 123 137 
289 455 218 161 162 170 
285 453 234 72 97 137 
375 728 127 119 92 94 
316 680 123 111 115 122 
411 682 182 135 157 181 
231 977 231 110 89 68 
267 917 243 145 116 87 
273 242 101 48 52 69 
285 722 243 172 130 94 
272 458 257 83 107 150 
243 299 163 112 115 122 
250 54 362 86 76 68 
278 209 315 120 18 48 
283 772 220 207 151 123 
262 584 118 196 181 173 
185 630 171 79 88 113 
247 61 395 135 106 83 
282 242 221 86 54 64 
245 970 150 89 79 72 
155 642 105 148 148 155 
251 784 115 159 131 107 
329 600 216 144 109 89 
335 523 170 159 159 166 
222 978 152 91 61 30 
175 410 240 130 129 133 
166 443 242 125 128 137 
267 511 255 141 152 171 
176 696 232 94 113 132 
331 752 199 120 81 55 
246 967 242 100 77 65 
265 727 240 146 126 108 
296 151 245 70 55 50 
277 154 167 127 108 89 
214 234 295 77 107 133 
323 709 115 134 31 39 
327 138 264 121 105 92 
262 122 191 126 92 72 
284 259 224 153 153 159 
316 683 230 149 127 114 
171 425 198 44 78 109 
242 128 317 104 71 35 
257 789 216 206 145 118 
128 706 154 136 146 162 
183 787 120 151 52 93 
236 46 74 120 104 89 
173 702 102 184 184 193 
310 166 255 132 70 64 
257 225 244 58 58 63 
171 786 129 131 3 33 
186 571 239 102 97 99 
222 300 244 142 123 106 
264 345 74 102 118 141 
159 456 169 52 47 45 
238 47 72 124 108 93 
257 171 283 68 27 44 
404 731 137 180 92 72 
262 218 199 91 76 99 
201 359 138 133 107 81 
226 966 238 89 71 61 
239 46 74 124 109 93 
273 247 202 110 62 80 
258 61 400 134 106 80 
280 198 315 157 23 19 
244 313 186 81 78 79 
260 639 129 135 144 163 
275 193 204 119 66 59 
262 110 289 115 100 90 
250 236 135 97 71 92 
217 839 178 180 133 107 
249 74 342 116 97 79 
154 573 86 67 105 138 
181 627 174 70 85 102 
256 249 184 101 70 85 
225 280 111 132 127 127 
270 478 257 74 95 144 
255 749 233 174 153 133 
244 876 151 156 113 70 
262 997 150 144 104 73 
265 986 203 93 69 54 
347 642 190 116 158 196 
411 636 205 47 97 137 
307 165 268 53 43 52 
281 773 220 209 153 126 
231 45 85 132 123 118 
276 552 86 197 194 202 
269 475 78 98 113 132 
230 46 84 131 123 119 
230 46 85 133 125 122 
257 621 240 167 126 117 
153 481 121 68 77 88 
146 813 189 148 111 100 
215 343 218 87 72 59 
252 899 139 74 61 48 
148 591 170 95 73 61 
187 410 270 87 108 130 
264 116 242 106 95 87 
157 446 207 97 111 127 
167 627 210 138 142 178 
240 944 144 118 95 75 
231 45 89 94 93 94 
310 386 125 37 65 95 
176 669 177 75 89 106 
227 310 301 132 121 116 
149 817 189 132 143 170 
268 921 135 77 63 56 
192 387 207 52 77 103 
258 124 265 145 67 2 
180 744 110 161 160 168 
224 866 227 139 111 83 
160 578 79 106 125 148 
263 671 252 152 109 51 
273 392 76 127 124 185 
245 269 320 84 125 158 
254 977 230 88 69 58 
201 837 171 141 146 156 
283 504 238 36 68 140 
239 33 87 116 102 87 
280 315 106 135 129 129 
278 117 352 111 57 5 
268 547 75 178 174 177 
214 351 210 81 55 46 
160 570 167 42 42 90 
239 122 330 78 46 38 
260 478 73 124 132 146 
213 470 270 76 97 151 
243 265 35 100 114 130 
205 494 262 106 128 181 
325 475 123 136 144 160 
251 803 123 191 175 165 
171 689 176 75 89 113 
403 735 174 138 117 134 
282 651 246 185 138 75 
385 624 207 106 115 128 
265 52 377 83 73 65 
237 38 82 120 107 94 
304 597 226 90 83 79 
280 137 334 123 39 10 
221 256 98 125 111 113 
187 726 101 181 182 194 
207 478 270 184 187 200 
172 705 228 147 159 177 
277 112 367 114 103 91 
384 618 182 87 79 71 
242 781 114 131 106 83 
175 454 144 77 77 78 
239 989 210 81 53 36 
314 557 122 104 110 120 
192 411 274 142 147 158 
238 769 229 174 158 150 
163 618 212 140 144 153 
290 236 227 87 130 163 
296 416 90 179 179 200 
183 451 131 77 85 95 
342 635 201 155 188 222 
294 619 111 82 175 231 
374 713 127 118 60 79 
316 172 263 147 110 85 
258 37 120 118 90 65 
401 628 136 94 122 148 
308 153 265 87 42 21 
297 624 230 140 108 89 
238 289 204 82 72 77 
203 638 68 186 182 187 
244 383 285 141 149 168 
213 317 133 132 131 135 
280 16 117 123 111 103 
134 767 173 135 143 156 
246 139 358 35 47 80 
329 482 152 90 111 135 
151 492 199 106 122 139 
198 386 126 111 117 127 
260 506 259 135 153 176 
288 206 249 95 97 105 
239 527 256 139 149 167 
243 289 164 127 112 98 
121 670 127 92 113 137 
284 453 248 91 112 137 
258 312 307 140 130 125 
244 845 138 208 140 96 
212 298 269 156 133 110 
147 824 171 163 72 81 
263 239 111 137 9 36 
274 73 349 110 93 78 
256 127 95 110 89 66 
239 32 91 107 94 83 
305 462 192 49 87 121 
267 244 315 110 127 146 
238 34 89 111 100 91 
289 313 269 115 138 163 
313 135 242 139 73 27 
138 719 172 129 141 157 
279 252 84 107 46 66 
203 924 220 154 119 88 
119 717 142 90 115 148 
227 494 262 133 142 160 
275 927 231 157 120 90 
216 990 157 155 128 104 
193 350 241 92 100 115 
296 595 133 76 90 104 
260 345 71 135 131 131 
265 294 209 122 123 129 
261 294 125 120 128 141 
150 538 215 139 143 154 
281 390 168 125 109 90 
179 450 142 60 78 94 
283 514 239 109 130 160 
319 808 174 198 143 109 
238 34 94 127 121 119 
166 472 117 77 107 133 
129 573 145 107 86 63 
238 35 95 48 51 57 
160 712 180 51 66 89 
387 765 152 185 151 114 
129 701 157 107 123 153 
248 82 342 123 101 82 
189 743 106 181 188 206 
312 616 146 63 79 96 
164 563 76 118 134 157 
257 593 128 199 186 197 
236 38 88 125 114 106 
236 166 342 125 48 52 
234 971 155 73 60 45 
322 549 196 124 136 154 
237 38 89 127 116 109 
258 856 202 148 116 86 
139 697 171 145 146 154 
337 709 115 120 32 28 
232 158 317 102 100 102 
132 478 164 112 84 68 
221 539 72 122 141 179 
235 225 329 121 104 84 
435 680 183 146 169 204 
255 587 116 158 179 211 
299 881 175 150 115 77 
239 820 130 185 165 149 
287 600 125 85 96 109 
278 231 39 127 56 79 
269 30 402 136 124 119 
264 1006 178 137 109 79 
276 173 206 72 70 80 
280 574 247 64 106 142 
280 211 303 122 38 64 
270 251 300 155 151 155 
175 644 221 77 103 153 
271 211 83 94 49 30 
237 604 85 111 144 179 
153 527 144 68 80 92 
287 234 233 68 106 135 
275 230 173 103 116 129 
258 47 410 199 172 170 
257 730 240 138 121 108 
279 284 100 143 141 145 
236 886 152 121 87 64 
175 609 174 66 84 106 
240 205 270 68 60 59 
375 615 162 49 65 78 
289 261 261 110 110 118 
394 653 119 50 61 117 
153 756 193 119 131 148 
295 698 118 148 155 168 
208 718 257 106 151 186 
233 43 83 128 118 112 
301 242 271 125 41 76 
328 434 155 68 105 140 
260 50 367 87 81 78 
259 115 272 107 96 86 
347 627 135 57 91 120 
266 890 145 110 82 55 
260 195 107 85 43 69 
276 573 249 80 121 159 
261 223 48 51 49 57 
276 489 255 145 159 179 
306 370 114 102 127 171 
435 689 137 77 119 175 
248 521 71 69 98 129 
293 400 92 107 114 124 
198 759 113 172 184 203 
291 422 180 62 86 111 
438 667 137 76 96 115 
276 108 360 107 97 88 
251 253 139 94 58 73 
217 637 68 191 186 195 
288 176 252 57 41 50 
285 265 234 145 145 150 
235 165 341 130 60 59 
233 42 87 131 122 117 
191 594 241 51 60 69 
261 245 23 181 108 56 
259 194 157 62 70 82 
198 384 99 56 94 130 
383 666 134 135 137 182 
145 637 129 74 67 62 
270 234 49 77 49 66 
288 205 225 103 84 92 
130 493 164 132 101 85 
289 463 100 104 110 120 
212 529 247 169 169 176 
198 944 196 90 77 68 
238 127 350 113 72 64 
277 293 203 123 123 129 
127 686 154 84 120 155 
232 44 81 126 116 108 
249 160 352 116 34 41 
232 44 82 127 117 110 
215 318 211 163 137 109 
232 44 84 131 121 115 
246 312 185 83 80 81 
244 933 137 70 55 44 
268 488 257 93 115 168 
414 723 173 188 148 92 
171 709 217 110 124 140 
233 1006 166 149 105 76 
250 196 269 41 41 42 
273 231 73 115 34 21 
366 609 196 109 92 76 
263 198 208 123 63 64 
233 43 89 114 110 110 
181 574 238 65 72 84 
238 854 197 144 112 82 
172 626 223 116 126 177 
279 245 46 183 181 187 
266 195 332 119 46 44 
200 451 106 62 78 93 
274 374 178 96 120 143 
312 177 260 108 92 95 
256 190 270 37 40 48 
262 155 249 121 96 85 
273 192 283 45 45 68 
173 673 183 96 107 126 
234 43 90 68 70 74 
225 860 161 204 152 117 
268 265 167 116 111 109 
208 390 152 68 81 95 
242 765 230 89 84 83 
304 145 250 87 43 23 
215 742 98 182 160 169 
217 930 247 181 140 114 
267 347 78 137 135 140 
120 689 152 74 103 149 
333 570 176 103 110 122 
220 273 94 71 106 136 
265 169 26 119 73 66 
232 46 90 62 59 59 
257 300 42 87 131 165 
207 352 144 102 116 133 
358 659 140 112 117 150 
253 152 285 109 74 51 
233 47 91 58 54 52 
200 345 267 87 105 144 
228 807 207 177 132 120 
136 808 172 165 47 79 
217 742 98 196 9 34 
234 338 303 133 141 171 
375 629 212 60 105 176 
256 11 142 133 122 116 
305 543 120 133 128 129 
278 229 304 77 118 151 
263 176 224 97 97 108 
235 45 92 49 45 42 
247 42 419 208 182 184 
266 239 58 76 45 55 
166 709 125 46 70 137 
187 445 132 55 70 83 
184 561 239 103 103 115 
260 975 229 116 97 79 
193 486 76 77 97 115 
261 231 327 110 126 150 
156 583 201 129 136 161 
245 316 182 78 76 77 
300 914 197 154 124 102 
157 565 224 202 194 194 
285 451 101 93 102 113 
320 651 235 91 100 112 
294 355 109 136 109 82 
354 672 184 47 62 118 
234 855 148 174 119 83 
255 516 257 119 133 166 
199 335 265 63 72 82 
279 901 217 151 108 78 
279 122 348 128 63 3 
133 714 122 221 209 221 
312 573 212 78 103 132 
244 111 333 83 45 23 
372 747 131 197 133 62 
325 586 186 119 115 117 
237 43 93 48 41 39 
279 579 117 111 119 130 
247 153 354 112 40 60 
367 626 125 71 102 128 
256 124 203 119 89 45 
267 871 230 150 116 83 
388 646 120 25 67 114 
243 878 151 142 100 57 
224 207 322 99 100 107 
223 651 76 156 158 168 
218 343 205 134 61 3 
288 962 175 122 94 63 
234 225 138 100 38 62 
131 570 144 114 92 66 
212 268 294 144 140 142 
197 928 177 91 73 65 
376 653 120 158 171 214 
267 115 256 110 95 84 
298 169 244 50 77 104 
177 781 121 117 118 136 
277 280 178 130 129 134 
248 471 257 175 179 189 
304 644 238 82 115 142 
276 371 264 113 68 59 
387 646 119 15 61 116 
228 723 250 150 102 112 
236 46 94 49 39 29 
122 622 153 127 93 64 
139 748 126 124 144 177 
264 278 43 136 134 138 
298 768 116 144 123 103 
222 292 120 127 128 135 
272 117 313 130 85 24 
281 818 190 201 137 115 
217 575 246 92 139 176 
266 280 214 106 113 124 
240 335 48 163 174 203 
280 518 90 86 115 160 
397 666 122 35 83 174 
317 619 129 63 88 112 
278 741 115 45 52 77 
151 576 132 48 77 98 
272 211 74 39 56 86 
275 97 373 123 100 76 
151 520 180 59 88 120 
267 279 114 59 87 111 
150 660 117 49 89 147 
126 702 153 84 110 144 
135 759 136 100 133 166 
218 319 117 118 120 127 
211 892 196 139 108 78 
229 334 303 97 112 158 
141 687 114 88 91 137 
273 261 106 147 141 142 
259 570 111 92 90 101 
246 1009 172 136 109 82 
280 123 347 129 67 11 
147 806 148 182 95 97 
236 228 154 95 57 68 
212 347 118 123 91 64 
304 611 146 65 79 92 
290 276 271 123 132 146 
230 55 64 123 108 94 
255 403 269 83 107 156 
279 117 359 119 70 3 
286 585 240 121 149 193 
372 753 133 192 165 143 
223 830 134 149 116 103 
302 569 127 186 174 170 
261 163 260 97 58 70 
212 343 226 94 79 69 
283 302 259 115 123 135 
232 584 65 102 150 192 
218 498 65 157 170 190 
211 362 107 110 54 71 
185 415 131 41 78 109 
229 52 71 120 105 91 
282 170 173 119 116 116 
323 434 155 68 86 105 
228 873 165 168 125 94 
284 220 224 30 47 51 
328 646 213 122 164 201 
261 792 119 207 172 135 
242 121 324 87 56 31 
252 714 112 118 98 105 
240 518 69 83 115 162 
288 293 263 93 104 118 
230 53 69 122 106 92 
185 798 129 177 53 83 
286 393 80 82 106 133 
191 454 116 65 80 95 
277 612 122 74 148 205 
243 320 311 106 115 132 
336 566 168 122 124 131 
278 167 344 34 61 114 
206 782 221 179 155 133 
248 856 233 139 111 83 
199 351 231 75 77 82 
269 46 403 160 138 124 
265 747 110 35 38 66 
303 392 132 56 80 103 
428 673 187 138 174 211 
212 431 93 124 130 142 
288 424 98 154 151 181 
177 621 174 60 79 101 
335 543 160 98 114 131 
225 54 74 111 96 82 
230 655 92 60 100 140 
216 887 231 150 113 86 
274 13 143 121 102 89 
258 143 245 107 104 109 
240 979 149 92 70 44 
151 491 211 71 107 135 
255 279 314 127 143 163 
227 178 311 81 53 65 
305 625 228 86 58 51 
169 821 188 192 158 126 
226 54 72 114 99 85 
172 659 150 77 90 110 
194 763 115 200 12 30 
159 807 198 129 136 147 
158 554 232 199 195 201 
246 328 44 185 178 187 
277 239 302 106 80 86 
130 642 136 112 83 63 
314 422 129 61 87 112 
243 782 222 121 102 95 
315 178 264 149 113 101 
123 630 161 134 97 70 
259 272 36 142 127 114 
268 155 92 140 76 21 
257 149 362 65 37 49 
315 518 198 125 130 145 
152 665 165 68 87 110 
116 722 132 29 49 134 
273 870 157 155 120 88 
315 616 165 70 70 73 
383 617 184 94 82 71 
277 485 255 98 127 162 
289 187 237 133 30 64 
418 724 142 111 75 77 
315 647 234 89 76 69 
229 51 72 120 105 91 
386 703 133 100 30 36 
228 51 74 117 103 91 
150 545 116 104 130 156 
204 838 171 133 110 95 
280 666 125 145 137 140 
133 508 153 153 110 91 
267 202 238 60 80 98 
275 236 276 69 100 125 
332 529 150 105 128 161 
266 646 129 105 124 148 
155 600 86 96 127 158 
276 269 287 141 146 158 
239 1001 150 105 78 45 
271 333 75 93 115 143 
253 217 253 55 58 64 
303 236 269 121 34 68 
298 779 117 55 63 78 
174 466 135 83 93 103 
212 295 283 163 135 105 
266 155 86 141 67 3 
271 115 267 118 97 77 
182 634 71 82 145 197 
220 999 159 142 106 85 
273 323 72 201 179 161 
204 376 104 83 104 125 
153 612 129 106 85 74 
275 216 188 114 83 77 
278 25 129 139 116 105 
247 846 139 207 139 96 
206 368 118 109 82 87 
311 474 111 146 144 146 
180 422 138 83 100 117 
270 957 232 148 115 97 
215 383 161 81 85 91 
297 661 127 94 100 110 
264 922 248 145 111 88 
221 457 269 200 195 198 
212 474 69 137 135 137 
230 48 77 120 109 99 
155 610 116 67 104 132 
438 684 181 129 155 197 
237 172 341 108 70 94 
213 357 188 111 96 82 
238 275 319 77 120 155 
255 120 306 121 66 2 
239 135 338 85 72 82 
221 318 220 156 129 99 
277 236 177 127 102 77 
278 343 227 173 144 110 
276 900 164 118 82 64 
253 276 143 149 66 3 
383 654 188 152 175 201 
275 357 178 95 112 130 
276 531 87 63 90 115 
180 461 263 125 141 165 
222 298 296 97 119 142 
172 420 225 94 97 103 
229 561 70 134 136 143 
225 57 65 116 99 84 
287 939 158 70 57 43 
326 575 155 101 103 109 
279 35 409 149 135 126 
281 399 244 90 63 46 
262 224 197 45 59 88 
147 602 132 113 91 74 
224 58 64 115 98 82 
153 480 218 56 73 91 
264 110 378 112 99 90 
283 164 176 162 76 7 
227 56 65 118 102 87 
310 774 120 121 114 110 
242 52 370 87 73 60 
256 950 246 198 148 126 
227 315 48 137 139 146 
140 713 121 166 166 203 
131 784 154 161 168 181 
293 952 177 95 73 54 
297 300 79 109 133 161 
361 638 201 164 189 217 
222 367 94 45 84 147 
262 209 48 82 26 44 
330 805 138 210 148 109 
240 907 137 97 80 65 
272 835 138 238 173 134 
285 258 268 77 90 104 
269 32 122 177 150 146 
152 566 133 63 70 87 
144 731 121 84 108 199 
233 48 71 123 106 91 
267 272 167 128 126 129 
226 263 112 78 109 136 
312 390 127 33 68 104 
258 407 92 79 101 135 
274 270 200 76 114 144 
331 644 218 146 180 216 
142 498 149 121 94 74 
204 909 210 145 106 78 
268 217 61 78 45 60 
274 276 247 120 121 128 
210 962 172 108 83 59 
172 417 237 102 111 124 
318 561 200 109 120 136 
278 140 208 134 65 3 
387 754 176 137 110 80 
263 157 60 141 71 13 
181 417 141 76 93 110 
234 51 68 125 109 93 
276 313 126 93 118 140 
141 633 169 115 88 71 
214 342 113 113 105 102 
214 394 103 63 93 137 
280 271 180 71 65 74 
233 52 67 125 110 94 
175 603 151 76 91 120 
277 260 252 72 98 120 
288 959 199 104 77 73 
232 55 64 124 112 100 
303 322 90 155 78 96 
282 395 239 158 65 6 
244 443 76 96 105 117 
156 808 141 164 55 58 
149 543 207 96 102 132 
233 54 66 125 111 98 
366 750 185 104 103 108 
150 612 170 98 74 63 
260 180 345 56 43 48 
257 873 150 181 129 91 
235 53 67 124 112 99 
254 281 201 76 93 110 
218 341 72 151 115 75 
234 55 65 122 109 97 
281 179 254 65 41 54 
234 54 66 124 112 99 
272 137 273 48 62 79 
178 605 71 176 173 179 
359 623 134 81 112 139 
183 611 148 75 88 121 
190 430 132 75 96 116 
215 496 265 121 142 183 
235 52 68 126 109 91 
260 532 256 117 141 179 
294 189 247 128 41 66 
266 928 142 62 42 30 
261 625 130 163 160 167 
237 215 265 68 61 61 
220 292 86 137 135 139 
198 507 69 109 129 175 
434 649 165 84 75 69 
246 179 343 111 42 57 
269 186 49 71 42 39 
250 608 120 146 155 172 
208 344 128 122 95 66 
229 494 260 164 169 182 
238 49 70 126 111 95 
252 998 151 106 69 42 
265 293 53 84 124 157 
243 863 237 154 113 96 
175 619 178 47 65 86 
276 350 210 111 76 80 
260 861 208 129 100 63 
295 560 225 105 129 156 
293 131 237 73 66 58 
239 50 70 122 107 92 
214 792 216 195 156 116 
257 351 67 69 99 125 
269 186 45 78 38 38 
230 915 247 114 92 68 
237 54 67 112 101 90 
203 405 155 70 83 97 
280 249 56 107 111 117 
274 199 264 47 39 68 
207 355 276 73 96 122 
137 786 147 181 187 200 
275 132 321 114 118 124 
263 631 242 79 75 80 
287 131 216 121 91 52 
267 200 222 90 85 99 
356 667 138 100 112 135 
256 350 66 67 92 123 
325 485 181 112 116 126 
362 777 141 190 173 161 
272 368 70 77 103 127 
192 400 108 72 108 146 
269 221 167 81 66 81 
246 240 162 34 62 109 
279 254 82 104 80 99 
174 457 258 72 97 134 
268 297 290 115 111 114 
250 232 136 98 61 83 
299 174 247 96 71 101 
322 443 160 115 117 122 
210 261 277 154 134 117 
188 631 153 67 86 113 
253 194 269 39 40 44 
245 75 385 127 102 82 
261 29 130 165 151 149 
253 633 125 149 153 167 
235 56 64 118 105 95 
150 532 183 88 106 128 
278 957 222 108 86 74 
163 633 168 63 50 54 
362 750 132 77 72 73 
264 372 221 112 62 54 
250 687 116 86 111 136 
125 638 144 120 86 60 
287 634 241 64 63 85 
203 377 106 72 96 118 
228 541 248 173 181 197 
243 164 348 156 64 65 
157 558 83 107 121 140 
290 632 239 66 59 59 
215 776 227 166 142 124 
266 154 86 135 73 10 
159 629 120 68 92 113 
179 419 262 98 109 128 
271 360 283 104 128 160 
223 756 103 132 11 31 
320 611 220 139 104 83 
249 1009 181 103 84 64 
254 727 242 109 95 89 
283 889 164 128 98 80 
271 132 281 119 114 111 
239 60 64 114 97 79 
427 684 133 138 156 195 
229 206 330 144 69 19 
262 63 400 136 106 79 
145 526 149 86 70 65 
268 297 63 113 126 143 
239 130 324 144 91 83 
227 718 251 95 56 56 
354 603 195 105 96 89 
207 428 280 150 162 179 
200 648 69 95 155 206 
290 930 213 130 109 88 
151 506 214 63 102 136 
176 422 210 66 84 101 
289 941 161 70 56 44 
152 520 93 105 124 147 
267 493 257 164 169 182 
265 843 142 233 169 129 
328 679 127 119 118 123 
255 291 141 122 106 92 
173 692 163 99 109 123 
246 758 103 152 124 109 
332 598 191 114 104 96 
335 553 155 170 164 165 
224 925 251 172 133 110 
237 424 273 160 171 191 
164 806 199 149 128 121 
260 300 159 130 130 134 
207 607 70 97 133 163 
226 357 167 86 83 83 
250 29 419 121 102 88 
222 632 70 183 181 190 
168 628 212 117 123 165 
297 502 208 144 148 158 
227 52 80 110 99 92 
304 422 171 92 109 127 
274 137 183 148 125 103 
185 429 164 77 85 94 
256 1005 158 208 170 136 
242 205 338 125 122 134 
274 979 206 81 65 50 
225 52 85 87 81 78 
224 53 86 75 65 56 
453 690 159 190 202 227 
276 634 242 52 46 50 
175 762 229 205 170 133 
205 509 68 174 178 195 
339 746 120 134 110 95 
242 187 342 113 36 44 
157 535 234 63 83 125 
275 276 267 87 99 114 
226 52 87 59 55 52 
250 296 34 115 124 148 
186 676 230 157 152 153 
173 659 216 130 138 152 
397 757 158 77 65 71 
341 713 199 55 39 59 
281 453 245 34 62 108 
218 357 150 123 124 129 
279 323 95 97 104 115 
273 252 70 88 68 65 
156 456 155 90 81 73 
315 685 233 84 72 92 
228 51 80 113 103 95 
261 43 417 207 181 181 
237 120 357 46 81 110 
296 814 128 234 165 127 
217 804 209 138 140 155 
258 194 265 34 46 58 
228 429 80 115 124 136 
338 596 194 120 110 103 
346 715 195 82 75 83 
312 158 273 81 78 76 
289 287 271 72 111 142 
205 466 88 95 105 117 
281 124 222 105 81 70 
290 613 237 151 113 93 
259 949 145 84 65 42 
216 940 154 71 55 45 
131 742 163 158 155 160 
249 293 179 89 92 97 
439 706 162 166 178 197 
236 988 145 131 102 70 
267 996 151 173 133 92 
195 477 84 93 106 120 
158 473 237 162 156 157 
273 314 129 77 108 136 
404 629 155 66 76 88 
256 502 73 148 160 181 
167 701 190 46 70 126 
362 611 151 93 87 85 
178 783 214 120 111 107 
273 167 163 119 54 7 
321 624 116 88 102 120 
245 433 82 97 113 131 
219 742 248 158 126 89 
251 230 141 128 69 62 
208 386 104 86 116 165 
222 1005 177 163 138 117 
274 364 176 113 119 129 
169 538 72 101 119 143 
265 192 255 54 53 56 
258 936 250 178 136 108 
225 55 91 96 83 71 
228 785 117 168 131 100 
151 783 136 168 181 200 
226 53 89 82 70 57 
332 573 163 118 118 123 
115 726 139 72 84 145 
219 311 102 107 116 130 
238 244 151 69 41 63 
391 693 175 124 42 51 
182 821 188 217 175 127 
270 208 94 31 47 72 
299 406 107 28 71 101 
344 626 225 136 149 199 
253 774 110 110 98 99 
125 589 161 131 98 68 
276 273 273 132 133 141 
203 738 251 176 43 69 
332 487 173 110 124 144 
227 54 92 92 80 69 
283 420 233 98 89 82 
218 848 153 213 153 120 
238 266 320 107 134 161 
239 523 255 140 148 161 
235 313 156 134 130 132 
186 786 123 128 9 39 
221 353 152 127 127 133 
291 407 173 88 102 119 
168 568 230 158 167 187 
254 835 137 196 136 98 
118 688 128 133 142 157 
172 582 155 56 78 112 
423 656 134 84 106 127 
205 341 237 82 65 50 
229 49 91 62 53 44 
248 524 255 128 150 174 
213 372 167 81 79 79 
280 251 188 118 46 70 
354 630 123 111 136 161 
281 133 359 136 44 32 
270 585 120 186 174 170 
267 51 98 120 98 75 
255 939 250 182 138 109 
251 565 88 83 147 193 
222 318 226 141 119 97 
268 47 92 119 92 77 
292 509 224 103 118 154 
290 309 89 108 112 120 
172 704 230 136 150 168 
381 616 177 4 37 57 
236 793 216 195 160 135 
306 762 118 166 142 119 
217 330 235 92 58 13 
328 528 145 130 139 163 
273 244 200 99 55 70 
233 664 96 96 120 148 
240 147 318 83 65 51 
218 215 286 116 117 122 
457 680 170 121 143 220 
134 568 143 118 93 69 
264 312 298 155 96 25 
231 50 95 82 71 61 
195 358 258 93 110 131 
272 612 129 70 145 201 
275 233 216 80 68 83 
287 560 238 81 110 151 
217 372 165 86 83 82 
361 625 220 60 81 127 
219 358 291 82 103 139 
213 973 206 100 81 62 
225 527 254 124 157 194 
175 476 258 185 180 183 
330 627 166 62 88 111 
282 463 247 91 112 140 
263 863 218 133 103 68 
273 913 140 68 54 46 
204 384 99 73 104 171 
243 608 247 175 175 184 
269 577 110 89 118 145 
296 377 137 118 120 127 
151 469 143 110 87 56 
268 217 35 60 59 65 
230 1005 163 147 107 68 
149 509 182 70 102 128 
269 351 266 88 95 121 
267 503 78 124 138 163 
278 228 185 101 104 118 
224 57 91 101 88 76 
309 693 117 129 137 149 
205 503 258 165 179 199 
265 459 79 32 76 114 
274 190 164 116 76 68 
181 402 254 83 100 118 
290 287 270 81 120 151 
304 424 174 59 90 116 
286 563 239 81 113 141 
272 215 194 112 41 68 
276 158 209 32 56 77 
283 386 238 184 156 127 
221 381 90 54 86 120 
271 367 169 71 102 128 
327 586 172 133 128 130 
406 713 177 178 147 111 
121 720 149 127 140 161 
224 59 95 98 84 73 
247 308 181 84 89 96 
122 619 147 127 92 61 
207 487 266 169 175 193 
302 746 225 197 164 129 
151 569 165 96 76 63 
226 56 95 96 84 74 
390 752 143 177 142 105 
223 325 148 72 106 132 
425 642 166 84 76 71 
224 60 94 97 84 71 
224 60 95 98 83 70 
270 923 241 167 133 105 
167 424 183 65 83 100 
178 623 141 62 78 115 
219 297 128 87 108 128 
132 515 168 134 103 85 
218 717 87 148 165 211 
152 585 89 110 131 155 
233 521 69 108 126 177 
275 303 71 164 161 166 
270 50 392 136 112 90 
239 293 156 101 101 106 
229 361 295 74 104 150 
252 198 337 139 25 44 
119 737 135 205 197 198 
367 621 214 66 80 94 
254 628 241 47 87 117 
169 425 234 134 131 133 
234 48 94 67 57 47 
221 1008 170 197 168 142 
373 701 180 98 56 65 
240 38 79 119 104 88 
214 343 68 166 136 102 
261 318 159 84 108 130 
228 861 157 188 141 108 
316 435 128 47 85 116 
242 37 79 119 104 90 
219 303 226 158 130 100 
233 711 89 164 169 185 
165 718 129 24 59 130 
243 38 79 116 102 88 
222 324 229 114 87 51 
256 155 278 119 66 65 
179 650 76 165 125 128 
215 885 229 146 109 82 
197 749 242 193 69 84 
261 667 127 68 108 142 
300 185 253 112 55 62 
426 649 136 64 112 165 
259 206 31 58 42 54 
278 931 141 70 58 47 
281 156 248 97 69 65 
190 597 242 56 51 66 
221 308 141 80 112 138 
168 611 77 158 155 161 
241 41 77 120 106 93 
430 699 138 138 139 178 
223 913 158 92 69 45 
175 600 145 70 88 119 
404 673 127 186 189 210 
235 608 85 63 116 167 
263 334 213 132 107 84 
242 41 77 120 105 92 
391 757 171 138 111 84 
338 550 170 113 126 143 
259 718 240 99 90 88 
154 520 144 79 88 99 
204 910 210 145 105 78 
298 162 236 56 90 118 
169 751 225 106 96 109 
228 224 263 113 108 105 
162 752 129 67 98 135 
242 161 348 154 60 53 
291 353 106 139 113 83 
336 712 115 128 75 67 
235 237 142 127 30 41 
165 474 115 92 114 136 
294 817 130 237 169 130 
213 716 88 204 201 214 
197 791 213 174 153 135 
241 119 328 90 73 61 
195 837 153 196 169 145 
299 645 132 178 173 180 
332 524 180 93 116 147 
224 351 73 154 162 204 
292 641 131 169 164 174 
156 608 129 89 79 78 
184 635 145 75 85 117 
322 404 140 91 114 138 
273 311 70 127 132 143 
276 253 99 131 7 59 
210 341 142 134 133 138 
281 555 94 168 184 209 
274 375 165 110 123 138 
288 198 260 75 34 40 
136 678 169 106 121 145 
164 486 136 65 73 89 
271 134 365 127 51 52 
139 762 132 119 138 181 
244 40 78 112 100 88 
297 635 128 176 173 187 
284 908 161 70 56 44 
311 586 205 139 136 139 
214 310 262 116 53 26 
285 328 83 167 124 75 
149 486 147 90 69 72 
249 296 182 78 88 98 
274 158 202 73 85 98 
238 309 160 111 120 132 
304 563 119 145 160 193 
305 395 120 59 89 125 
281 653 125 92 115 138 
207 344 129 124 97 66 
227 179 324 32 67 90 
150 607 101 98 117 135 
228 824 196 190 138 115 
263 639 130 132 134 144 
183 559 240 92 139 176 
317 731 220 181 168 162 
223 563 245 137 74 79 
144 800 192 155 99 113 
246 42 78 113 100 89 
258 1009 167 162 135 107 
272 367 274 85 106 136 
177 674 158 116 120 130 
151 603 111 82 121 153 
244 46 74 114 104 97 
393 728 132 163 17 41 
146 609 131 121 97 74 
266 102 323 100 89 79 
269 480 78 64 98 129 
311 913 190 136 108 83 
245 289 200 79 81 85 
246 46 75 128 121 114 
361 663 140 151 149 162 
300 646 239 146 133 122 
269 353 168 139 139 145 
327 622 224 62 66 73 
272 916 126 86 71 59 
339 799 138 184 130 90 
141 730 122 109 133 176 
247 576 98 86 119 145 
285 483 233 66 95 125 
285 446 249 68 88 125 
132 677 164 86 102 137 
255 772 225 181 149 120 
212 384 163 71 75 82 
286 282 78 81 84 90 
189 368 237 93 105 121 
243 989 212 74 52 35 
222 425 280 101 110 162 
408 671 126 124 148 211 
151 620 168 93 72 63 
283 406 259 85 110 150 
175 437 145 41 72 96 
273 998 166 152 123 94 
190 404 119 40 85 116 
295 265 263 146 146 152 
289 552 95 173 175 187 
302 390 129 57 82 104 
426 713 174 142 80 81 
263 169 353 116 48 53 
251 40 79 118 111 107 
257 76 107 126 94 74 
217 344 102 104 91 101 
224 971 159 120 92 61 
350 782 137 120 105 96 
263 62 93 109 91 73 
149 511 183 82 109 136 
200 380 93 89 121 160 
248 47 75 82 76 73 
271 257 170 88 43 63 
262 316 52 133 133 137 
280 198 261 60 38 48 
249 44 77 107 103 101 
164 685 167 44 56 81 
220 716 256 113 145 172 
267 175 57 122 43 19 
278 365 240 158 128 93 
279 907 151 73 58 43 
185 696 237 98 119 140 
162 815 144 195 13 52 
232 244 322 125 141 161 
372 636 201 161 187 215 
365 718 123 146 51 52 
252 646 124 105 131 168 
276 266 56 115 120 145 
189 381 259 115 119 128 
208 748 244 163 110 106 
266 147 104 79 68 59 
365 661 139 168 162 175 
203 375 172 83 84 92 
212 356 187 112 95 81 
261 442 83 76 97 117 
392 656 192 172 187 209 
203 960 188 83 67 55 
218 345 84 124 54 79 
331 542 183 126 132 143 
325 553 142 141 146 160 
239 612 248 174 167 169 
131 497 153 140 109 86 
282 286 71 203 201 209 
266 342 274 87 102 123 
202 946 175 77 64 52 
221 894 174 114 89 61 
368 621 213 50 69 86 
214 262 267 116 107 98 
215 337 294 82 99 152 
294 785 117 177 158 143 
363 633 212 78 115 190 
301 389 144 83 98 115 
169 631 157 59 71 98 
315 731 222 145 140 140 
170 721 230 136 151 170 
250 816 127 94 129 160 
265 917 129 85 71 59 
204 436 278 53 83 151 
176 735 113 130 145 167 
272 376 223 120 77 72 
265 197 256 38 51 62 
381 633 208 28 53 148 
279 393 194 122 102 79 
238 291 37 85 112 138 
289 218 228 101 54 51 
273 846 147 248 181 143 
228 220 267 92 89 89 
195 414 121 31 69 109 
204 589 72 139 152 172 
280 296 101 91 114 137 
248 368 290 120 143 168 
131 487 165 133 98 85 
244 672 249 83 75 72 
361 612 149 90 87 86 
217 358 199 82 70 59 
171 779 127 182 2 36 
295 935 175 63 46 42 
284 666 123 161 160 170 
223 869 197 110 84 56 
312 400 127 45 83 123 
307 140 237 144 70 3 
201 719 93 162 180 206 
219 841 143 224 166 118 
273 16 147 106 63 51 
241 33 84 115 100 85 
257 132 253 142 70 0 
282 210 261 33 29 35 
240 33 86 116 101 87 
333 743 119 154 115 71 
241 32 86 115 101 86 
263 791 118 192 143 80 
199 682 240 120 134 151 
150 579 100 150 151 160 
285 919 211 96 68 53 
389 710 178 113 114 125 
241 786 116 101 89 78 
162 593 166 59 74 101 
248 155 295 98 54 51 
242 33 84 115 100 85 
309 633 126 213 211 223 
243 33 84 114 100 85 
253 539 256 132 143 176 
212 445 276 174 176 186 
276 167 305 35 40 67 
122 621 157 129 95 67 
290 882 173 120 97 76 
241 36 81 118 103 88 
132 780 173 104 132 159 
220 297 294 89 114 140 
226 988 191 108 83 54 
243 388 88 110 137 188 
242 37 80 119 104 89 
416 636 140 95 108 126 
277 265 195 77 116 146 
203 812 200 189 179 176 
321 667 229 139 61 72 
211 661 244 63 64 68 
244 33 83 114 100 87 
288 453 197 76 101 129 
272 53 397 134 108 86 
210 891 200 143 109 82 
167 684 164 72 83 101 
315 689 234 132 126 129 
207 964 206 100 80 68 
155 442 192 71 99 122 
259 302 133 108 121 138 
263 159 235 135 81 78 
259 185 207 107 97 108 
199 787 123 164 134 105 
246 35 82 111 100 89 
120 735 148 82 91 141 
298 611 132 69 95 116 
278 38 409 142 128 121 
212 286 270 148 126 106 
245 1006 162 118 88 53 
246 33 84 110 99 87 
137 794 180 140 40 60 
263 1006 161 117 83 61 
276 185 297 87 32 68 
255 771 225 144 112 84 
220 330 61 131 87 21 
245 36 81 113 101 89 
149 499 184 88 108 128 
326 465 133 86 106 127 
210 732 254 46 44 141 
157 573 160 57 69 99 
293 279 264 119 127 139 
234 902 251 191 141 126 
281 146 176 134 118 105 
241 495 254 180 181 190 
274 187 202 117 74 57 
369 631 208 56 95 175 
233 311 152 110 91 86 
285 218 235 49 67 98 
312 617 147 64 79 94 
332 621 214 61 65 69 
247 38 80 103 92 81 
170 424 197 54 84 112 
280 183 332 109 59 76 
176 498 81 81 94 108 
124 627 163 134 97 71 
164 581 173 34 42 97 
240 507 252 77 93 133 
358 648 186 125 158 190 
248 35 82 106 93 81 
282 285 260 118 125 137 
243 104 352 106 94 82 
253 496 70 112 130 163 
216 331 144 91 110 130 
250 33 82 100 88 77 
286 202 223 74 44 63 
204 708 258 121 152 182 
209 361 175 101 83 80 
154 564 178 96 103 126 
401 701 133 133 147 166 
232 647 97 89 113 151 
250 34 82 100 88 78 
288 489 89 118 126 139 
260 228 24 152 71 95 
189 643 234 107 117 156 
219 356 80 183 180 199 
164 496 244 84 101 137 
274 722 242 137 113 89 
234 188 336 109 48 61 
382 760 142 174 149 129 
406 664 192 130 168 204 
248 36 82 105 93 80 
171 517 246 126 149 174 
267 312 64 149 145 148 
262 179 156 72 51 55 
151 533 103 121 137 158 
308 586 139 53 71 87 
360 789 149 196 140 102 
211 919 153 117 87 68 
219 215 284 121 119 120 
274 129 318 114 82 51 
250 38 80 124 117 113 
281 904 212 154 110 80 
278 24 99 130 119 112 
293 697 242 114 102 105 
252 32 83 100 90 81 
272 254 64 91 81 103 
141 469 165 100 84 70 
278 37 390 131 120 114 
123 657 157 150 106 85 
152 540 98 105 125 148 
439 677 136 86 109 142 
363 702 125 126 132 141 
214 326 243 94 61 25 
327 581 162 52 68 83 
353 664 184 63 103 137 
271 574 252 92 121 170 
415 736 156 166 28 43 
273 365 74 72 95 116 
270 231 26 136 89 106 
254 34 82 119 113 109 
384 656 118 117 133 187 
175 776 124 143 149 161 
288 904 167 78 59 45 
255 35 83 61 54 51 
297 537 111 101 108 121 
216 361 84 185 186 211 
317 139 262 92 75 66 
197 580 70 116 140 173 
191 410 171 91 96 104 
189 677 232 107 123 144 
172 664 188 54 94 124 
270 719 117 119 25 28 
226 417 281 108 123 170 
305 229 269 133 81 80 
359 796 158 223 158 124 
155 502 96 91 95 107 
184 682 84 103 121 156 
248 414 269 131 145 168 
216 321 123 107 113 122 
255 36 82 54 44 37 
178 633 181 32 43 84 
273 978 208 83 69 55 
394 732 178 129 96 95 
266 383 71 142 151 194 
424 641 187 95 80 65 
403 651 125 70 101 127 
272 375 267 58 77 121 
271 311 249 143 122 99 
275 88 336 130 105 84 
197 374 133 115 89 58 
205 431 107 63 84 103 
150 652 117 132 136 145 
295 166 228 64 55 84 
352 639 119 184 187 212 
255 418 88 61 89 115 
180 439 162 56 63 72 
220 327 231 98 55 9 
323 500 189 134 140 150 
332 499 181 171 170 176 
245 328 44 200 191 198 
380 615 141 53 83 112 
254 261 129 135 9 66 
240 48 71 123 108 93 
186 413 270 162 157 158 
266 194 229 73 81 94 
241 49 71 116 102 89 
286 953 210 100 81 69 
240 51 69 109 99 91 
155 666 164 39 63 97 
311 153 268 92 46 18 
247 682 114 90 119 147 
270 319 295 190 151 104 
243 537 70 111 123 138 
242 50 71 117 107 98 
170 636 209 82 107 151 
263 180 345 54 46 53 
433 664 136 95 111 128 
241 260 37 120 123 129 
242 766 230 128 120 117 
171 689 161 42 49 88 
126 714 154 114 130 154 
218 311 203 115 93 77 
172 408 186 71 88 106 
273 319 251 105 86 90 
262 499 76 171 169 176 
241 54 68 128 121 115 
292 792 117 46 116 162 
221 912 241 90 75 62 
343 810 155 232 161 131 
296 819 177 212 148 124 
154 803 140 156 18 53 
296 691 119 136 154 175 
157 453 216 90 102 119 
337 524 156 64 88 134 
295 877 175 123 97 73 
170 735 223 136 150 169 
208 793 123 165 152 149 
274 174 201 62 89 113 
352 616 148 36 84 114 
262 162 231 130 71 71 
263 61 103 116 91 66 
260 847 196 156 118 88 
205 735 99 123 150 201 
244 53 71 111 101 93 
280 323 104 106 108 116 
248 264 320 78 129 167 
133 736 166 148 146 152 
216 559 244 72 127 165 
277 109 361 104 95 88 
425 697 136 132 133 166 
307 408 155 37 70 100 
322 153 276 141 66 6 
148 565 199 98 110 126 
150 560 116 154 155 163 
257 125 257 124 82 38 
206 361 125 131 112 92 
292 505 223 147 156 172 
304 500 206 66 94 119 
245 478 256 93 118 165 
231 376 291 58 91 160 
327 551 143 119 124 154 
255 698 116 126 140 158 
287 248 259 86 110 133 
324 744 119 134 117 106 
141 575 138 118 94 70 
243 49 73 124 115 108 
246 776 224 110 133 155 
253 934 140 70 51 35 
214 975 178 82 56 39 
129 643 166 150 108 86 
304 797 189 203 147 117 
345 753 194 140 127 118 
267 286 55 87 128 161 
211 929 159 94 78 66 
306 401 144 69 96 120 
280 384 245 116 52 0 
208 919 236 130 97 78 
293 142 221 123 54 5 
173 415 194 115 123 134 
243 687 106 110 135 162 
250 631 244 58 100 132 
254 279 144 153 75 10 
246 48 74 129 123 119 
315 171 261 131 83 68 
169 441 250 87 106 130 
225 276 232 92 80 61 
386 700 134 91 80 79 
210 403 285 61 88 141 
300 429 99 204 201 212 
372 731 183 149 136 128 
242 138 349 52 64 77 
247 51 73 85 72 61 
281 393 169 121 38 69 
398 748 170 189 169 156 
