ply
format ascii 1.0
comment Created by CloudCompare v2.11.1 (Anoia)
comment Created 2/28/22 9:36 PM
obj_info Generated by CloudCompare!
element vertex 2018
property float x
property float y
property float z
property uchar red
property uchar green
property uchar blue
end_header
159 517 312 116 132 159 
399 735 261 163 152 146 
150 790 208 137 48 52 
188 753 292 191 100 101 
184 412 329 66 93 127 
363 656 263 139 161 186 
252 929 190 64 52 42 
219 321 187 108 114 124 
220 910 293 91 74 66 
164 435 199 85 98 111 
293 682 312 93 62 51 
230 62 105 95 83 72 
258 317 125 195 185 190 
255 339 140 206 188 188 
179 631 297 126 147 173 
320 651 293 74 113 144 
216 234 128 120 24 65 
233 116 324 85 83 84 
138 489 193 160 116 98 
218 652 137 92 134 170 
378 646 272 155 180 209 
157 433 287 86 107 128 
231 62 108 98 84 73 
302 147 289 129 66 4 
198 918 244 72 55 44 
244 189 347 116 71 88 
338 641 180 186 187 198 
233 44 376 115 95 75 
217 972 201 108 85 59 
209 666 310 82 89 127 
220 336 133 155 157 178 
283 289 311 105 101 103 
287 936 209 78 61 52 
263 173 306 39 34 45 
194 479 154 116 121 131 
403 665 273 143 168 195 
235 54 97 107 101 98 
437 643 282 61 103 141 
308 418 242 50 88 118 
379 613 249 17 54 75 
303 368 187 131 116 103 
189 781 266 142 121 111 
211 911 288 91 69 52 
303 645 179 89 107 125 
234 734 159 160 180 205 
235 53 102 91 83 76 
257 179 215 111 55 68 
237 898 309 204 149 135 
265 767 293 204 175 147 
204 601 136 174 169 171 
235 54 100 105 98 94 
265 753 168 97 134 164 
225 507 150 123 136 153 
251 499 145 103 122 145 
235 54 103 86 76 68 
236 545 144 97 115 134 
262 84 369 125 101 74 
249 936 196 64 48 35 
228 204 272 121 120 123 
192 644 142 154 140 147 
234 523 323 159 156 160 
301 733 170 152 131 112 
308 400 304 87 117 146 
236 949 302 219 173 153 
352 628 289 179 188 207 
264 478 148 139 143 154 
451 696 242 162 177 201 
253 206 250 85 58 47 
263 37 89 105 84 61 
282 197 332 86 41 51 
284 209 331 151 119 122 
238 48 99 96 85 76 
274 180 277 84 41 45 
251 549 322 97 114 157 
236 867 219 159 122 91 
152 458 293 150 147 150 
142 770 210 146 161 181 
271 178 251 76 79 85 
161 490 179 63 77 104 
263 66 386 121 99 78 
266 124 293 57 55 59 
277 485 152 162 162 171 
216 225 339 145 145 152 
286 672 147 129 148 175 
251 107 314 90 76 63 
185 436 235 55 70 86 
190 572 138 132 140 156 
197 932 228 97 82 69 
178 403 200 46 83 117 
284 830 244 192 143 117 
323 601 308 160 113 101 
257 211 280 105 90 91 
283 417 255 64 85 108 
167 442 320 97 110 138 
400 732 262 122 110 110 
251 109 378 176 64 7 
275 262 321 120 140 163 
150 792 230 136 42 68 
229 260 236 99 90 82 
249 308 119 160 35 59 
259 186 143 91 34 35 
236 52 97 102 94 89 
182 760 284 195 141 115 
263 342 310 148 157 171 
316 330 283 172 148 126 
197 596 316 84 90 109 
292 252 296 114 63 37 
391 773 236 209 192 182 
264 858 206 190 139 97 
181 701 283 71 91 126 
262 136 126 110 99 88 
181 724 300 146 168 192 
179 410 257 92 98 108 
319 426 221 88 107 127 
180 377 309 108 118 133 
274 169 119 92 39 40 
267 149 100 84 83 92 
203 349 255 77 64 52 
276 171 324 72 35 35 
138 482 219 152 112 99 
235 53 106 87 76 66 
320 683 289 155 116 64 
280 929 276 109 86 66 
267 193 280 79 55 65 
199 621 314 68 95 162 
293 384 173 92 111 133 
316 430 199 57 87 111 
325 521 225 102 109 121 
175 388 295 101 108 120 
239 283 217 77 76 77 
372 618 229 83 103 123 
306 623 312 77 55 51 
266 191 242 90 85 84 
207 941 212 98 72 47 
182 700 245 34 76 113 
246 713 152 178 188 207 
310 504 193 86 100 117 
301 463 183 129 130 137 
453 639 240 141 143 151 
302 598 187 72 89 106 
354 748 272 131 130 134 
276 340 209 120 117 119 
316 389 194 65 108 141 
273 160 270 76 46 50 
234 55 109 93 80 68 
326 536 272 165 158 158 
262 938 195 86 70 57 
217 832 216 148 120 100 
279 590 186 86 47 39 
161 747 181 118 140 169 
272 578 199 90 88 90 
193 689 297 122 127 138 
269 590 323 90 124 162 
285 140 303 99 54 38 
253 190 342 125 13 53 
291 465 281 74 99 122 
237 48 105 90 79 70 
205 312 152 134 87 36 
287 439 309 51 78 129 
237 48 106 89 78 68 
314 748 292 211 162 132 
202 272 110 81 110 137 
180 600 203 78 84 111 
228 304 213 82 82 86 
285 376 229 86 93 108 
237 50 105 87 76 67 
189 823 216 194 165 137 
300 331 139 178 75 104 
334 560 256 102 112 127 
254 425 311 104 129 166 
236 51 107 87 76 66 
319 413 196 71 108 170 
437 672 277 98 120 178 
315 651 183 99 130 166 
187 678 169 126 129 149 
277 301 259 115 117 123 
313 729 181 126 112 99 
210 694 318 145 163 185 
266 367 155 36 81 117 
234 460 315 169 165 169 
279 544 163 195 193 201 
236 48 111 96 81 68 
441 706 262 151 178 209 
217 416 331 106 125 160 
313 275 289 157 157 164 
269 65 334 115 85 53 
281 216 104 40 71 95 
177 653 173 98 110 124 
232 850 221 186 137 106 
190 627 140 73 125 167 
203 944 227 80 66 52 
260 918 298 62 50 41 
277 401 159 49 82 166 
177 699 225 62 77 107 
181 644 162 83 127 161 
221 999 226 166 140 120 
236 52 106 88 77 67 
262 404 156 50 91 126 
354 775 208 121 100 80 
262 87 112 119 97 74 
326 426 210 86 116 147 
302 927 246 104 82 67 
244 914 300 128 95 78 
143 464 230 116 87 71 
187 623 201 39 65 106 
343 600 253 78 81 88 
219 519 150 82 104 125 
311 708 178 135 29 40 
176 642 279 123 132 172 
164 418 276 123 119 119 
260 1000 210 170 142 113 
251 571 325 117 149 185 
143 521 271 111 122 139 
174 772 270 195 125 122 
221 283 335 150 151 159 
180 637 156 84 137 177 
464 680 250 180 200 229 
304 440 258 83 105 129 
356 697 266 43 37 76 
209 319 215 72 77 83 
204 216 314 85 108 130 
274 167 343 29 57 104 
323 757 189 126 113 103 
366 780 215 136 129 127 
319 397 187 91 126 157 
439 701 266 158 178 202 
302 688 314 145 70 35 
148 729 219 97 104 140 
180 431 236 68 80 93 
333 678 191 145 163 194 
183 541 316 104 64 86 
238 877 215 91 70 50 
180 430 329 162 161 165 
221 467 150 73 102 135 
253 105 312 89 75 66 
314 756 286 197 145 112 
233 58 103 86 76 67 
219 753 163 184 54 74 
254 547 136 139 138 143 
283 527 151 187 187 196 
275 172 323 71 26 35 
200 270 315 143 143 149 
172 425 245 88 98 109 
310 381 287 126 83 16 
348 674 268 113 83 92 
275 375 235 98 88 82 
281 418 261 60 89 117 
265 274 169 122 117 117 
181 721 301 182 196 216 
203 800 187 200 150 87 
204 218 327 140 136 137 
313 567 217 100 100 102 
233 58 107 95 82 71 
253 326 312 149 108 48 
160 467 314 70 102 137 
328 779 268 203 146 114 
259 221 231 77 94 110 
262 189 287 79 54 57 
441 672 277 131 136 192 
185 605 243 63 88 108 
281 256 133 73 108 135 
339 740 281 163 139 128 
309 276 290 158 156 160 
279 618 173 123 129 140 
165 766 188 153 167 187 
232 59 108 96 83 72 
328 623 313 103 115 163 
198 935 242 87 73 61 
255 985 257 95 76 64 
273 247 253 91 48 53 
218 450 153 112 119 130 
309 348 165 136 61 84 
266 568 323 151 165 186 
273 319 196 74 105 131 
300 289 276 85 97 116 
164 592 289 154 153 161 
183 722 177 100 127 158 
260 94 108 102 85 67 
200 653 226 131 135 147 
268 54 112 115 93 68 
419 651 285 119 141 186 
327 438 222 112 126 144 
262 845 256 160 118 88 
232 60 106 94 82 71 
216 552 320 162 159 162 
410 663 280 129 167 202 
272 14 115 120 107 98 
389 774 230 202 187 179 
274 97 309 113 100 87 
294 953 245 123 98 71 
236 563 321 181 175 177 
421 635 250 67 72 78 
252 413 161 133 143 169 
233 377 329 153 158 170 
218 975 249 148 118 88 
286 304 152 116 124 137 
327 476 251 133 140 152 
267 230 246 76 77 87 
319 671 289 48 66 108 
283 329 180 127 126 130 
159 563 220 85 103 142 
279 436 313 75 94 135 
292 232 285 95 50 58 
474 663 255 45 58 94 
259 158 272 76 50 42 
281 896 217 123 91 71 
250 861 190 151 114 79 
235 50 112 98 84 71 
272 184 282 73 43 51 
250 196 152 66 45 54 
281 285 295 100 113 130 
197 285 116 114 132 156 
236 15 395 129 117 109 
248 235 194 105 73 65 
230 247 336 86 133 170 
355 809 228 231 163 127 
214 590 139 96 115 135 
326 797 196 161 114 75 
310 354 298 168 75 25 
238 303 117 113 139 165 
191 742 303 96 35 42 
227 901 212 67 56 46 
217 281 142 131 131 136 
194 372 161 125 146 169 
277 402 314 50 85 150 
225 217 343 134 143 158 
267 867 286 154 119 84 
295 379 298 132 114 104 
285 281 115 95 147 189 
280 695 149 168 185 209 
178 623 256 103 102 105 
180 717 297 137 157 180 
211 890 244 160 122 93 
190 816 237 188 153 119 
234 55 114 101 87 73 
268 82 306 142 91 28 
173 586 147 115 141 172 
235 52 116 100 84 69 
315 730 310 81 86 106 
176 390 310 110 119 131 
235 54 116 100 85 70 
238 275 326 166 158 157 
258 376 139 101 119 168 
251 309 205 103 118 134 
255 64 394 133 102 81 
288 279 273 72 85 99 
143 732 193 131 140 154 
271 213 99 47 72 93 
171 710 232 81 95 110 
235 194 177 62 35 32 
330 703 289 133 112 92 
138 486 216 151 108 96 
220 127 354 72 45 58 
192 359 171 134 101 47 
267 437 317 81 117 170 
290 165 302 79 71 75 
153 512 224 69 66 76 
236 51 117 104 87 71 
331 638 285 133 173 211 
264 137 357 137 37 22 
231 972 194 112 88 58 
212 431 331 153 155 166 
233 87 349 104 64 45 
192 500 325 165 173 187 
222 238 272 103 66 52 
338 628 178 152 154 163 
262 759 170 122 144 167 
186 766 279 123 80 87 
236 52 118 104 87 71 
349 709 273 107 82 63 
271 11 136 115 92 69 
176 640 272 128 134 160 
138 673 186 79 101 138 
268 879 292 171 128 99 
247 72 328 107 80 64 
277 182 112 113 57 45 
236 54 118 101 85 68 
194 675 152 180 174 177 
237 54 118 104 87 70 
306 838 222 220 165 131 
237 980 279 120 98 82 
281 939 274 81 61 45 
330 694 195 144 149 158 
204 257 321 159 153 154 
294 375 173 54 79 148 
283 221 118 27 56 106 
242 399 316 90 110 147 
150 572 215 120 92 73 
337 777 264 202 147 113 
279 865 215 142 108 74 
277 396 150 149 150 196 
422 716 264 147 50 63 
271 77 344 134 96 85 
186 740 180 116 119 132 
177 801 246 90 90 109 
194 325 136 209 81 128 
213 263 243 155 133 111 
259 644 326 89 74 66 
351 627 298 111 130 200 
195 559 142 171 166 169 
243 1004 241 87 44 27 
288 877 232 106 80 58 
439 642 271 97 83 69 
199 625 313 54 100 150 
233 58 113 101 87 74 
255 431 312 86 118 160 
217 639 137 106 145 179 
174 435 237 58 73 88 
215 257 251 158 135 112 
355 627 288 168 183 202 
232 233 160 107 43 26 
234 56 112 98 83 70 
271 761 298 137 116 105 
286 497 157 98 130 165 
260 274 230 123 123 127 
422 637 223 50 86 112 
198 330 147 203 86 127 
274 20 407 121 105 97 
211 234 286 87 92 99 
271 93 280 139 85 36 
219 319 180 98 111 127 
202 945 273 138 106 84 
223 922 202 75 62 52 
166 687 227 90 98 118 
282 561 186 122 135 151 
235 69 383 117 96 77 
312 305 291 101 48 61 
256 438 163 81 96 114 
278 214 331 93 132 165 
179 651 276 124 133 153 
201 326 151 221 112 9 
263 778 178 165 139 113 
250 855 280 123 92 57 
292 847 219 196 149 115 
234 1000 218 104 62 38 
270 290 314 123 104 127 
174 610 174 130 126 131 
278 176 325 85 40 60 
377 771 218 181 167 159 
232 122 319 68 81 95 
246 596 131 162 159 164 
210 290 278 132 114 95 
177 717 270 127 136 151 
312 382 291 124 106 86 
287 953 260 95 77 63 
177 610 151 176 173 179 
452 667 275 127 147 177 
322 560 228 106 106 110 
229 842 221 196 146 115 
218 229 136 113 15 27 
233 62 114 99 84 70 
152 539 187 140 130 125 
302 540 197 159 160 171 
237 716 317 157 58 57 
184 487 149 113 118 127 
341 614 308 65 85 103 
194 649 142 131 97 110 
317 680 296 136 35 41 
212 374 333 78 104 138 
265 138 242 93 85 78 
184 573 139 176 170 172 
171 750 255 96 117 138 
443 702 233 182 189 205 
262 476 317 122 144 174 
350 600 264 94 87 83 
279 115 299 104 60 19 
308 237 291 106 79 91 
329 444 223 95 119 143 
291 468 177 74 95 116 
392 622 236 49 71 89 
199 639 216 54 82 134 
259 915 191 58 51 47 
243 339 139 50 82 150 
233 189 278 74 98 120 
160 560 171 163 163 171 
282 258 133 82 115 142 
283 486 154 136 145 167 
243 434 158 94 103 115 
287 255 275 81 84 92 
218 973 266 82 70 60 
293 281 135 151 149 152 
225 977 268 119 101 83 
267 318 134 130 155 185 
268 232 153 130 34 15 
236 60 118 105 88 72 
302 793 269 211 151 125 
261 114 240 103 89 81 
457 648 234 116 132 153 
225 902 293 154 113 94 
237 61 119 102 86 70 
303 777 182 163 150 143 
269 255 160 66 98 123 
282 837 206 212 159 124 
280 890 251 169 127 99 
259 34 124 119 92 73 
228 469 316 102 121 154 
288 329 169 141 109 68 
272 353 314 75 112 156 
202 697 156 174 174 186 
212 181 324 129 126 128 
313 929 250 180 150 123 
189 355 213 87 94 109 
293 736 313 208 190 179 
208 288 280 122 103 84 
262 221 236 64 85 103 
400 747 223 191 157 122 
251 655 136 108 146 194 
237 62 120 100 84 68 
256 230 157 41 46 70 
205 786 176 188 143 116 
240 132 369 93 42 80 
263 304 124 205 192 203 
391 622 223 68 98 123 
286 964 227 136 106 75 
190 425 214 97 106 118 
281 346 158 197 180 172 
242 877 205 81 67 54 
272 950 202 115 88 59 
277 677 318 117 69 46 
282 185 327 93 39 52 
323 519 275 141 143 151 
224 276 113 73 142 194 
152 698 220 21 43 123 
296 373 213 109 113 122 
232 268 162 143 138 139 
268 740 163 191 24 30 
149 506 243 91 112 135 
244 257 96 176 149 123 
163 432 303 133 136 146 
239 997 249 115 89 64 
227 292 168 97 114 132 
421 618 231 117 135 155 
266 218 296 90 87 88 
215 325 174 132 133 138 
284 272 321 114 126 141 
241 32 101 99 83 74 
139 645 194 135 97 70 
276 339 316 77 110 153 
298 484 293 76 102 141 
241 32 103 88 73 61 
241 33 102 92 77 67 
305 281 290 142 137 137 
291 922 258 100 74 48 
201 760 167 165 19 43 
256 839 198 205 142 98 
195 708 172 88 120 158 
192 311 140 118 33 52 
221 638 135 86 135 175 
263 103 269 132 61 4 
248 107 316 96 83 73 
277 26 128 191 168 163 
389 730 213 108 92 75 
272 293 303 108 93 82 
203 314 279 119 51 8 
287 636 154 94 113 134 
269 297 291 69 78 91 
435 623 236 108 121 137 
251 40 363 81 73 68 
287 967 232 112 86 62 
297 494 290 127 134 147 
271 468 318 120 144 173 
213 527 149 168 162 162 
271 195 314 34 37 70 
218 453 324 144 148 159 
279 120 303 96 68 45 
274 838 250 166 124 96 
153 691 169 134 142 166 
285 326 172 107 118 133 
449 700 255 163 177 203 
240 33 105 86 72 59 
270 149 128 137 67 6 
230 256 98 128 145 180 
314 412 214 108 118 130 
321 685 289 148 123 95 
211 516 322 130 156 185 
308 283 290 84 93 111 
271 244 96 175 168 169 
346 728 276 141 108 68 
270 281 316 130 136 146 
260 466 315 83 116 160 
266 188 344 156 40 21 
292 591 211 83 93 105 
284 912 208 116 88 65 
147 492 262 105 119 134 
223 120 357 47 39 56 
308 571 214 101 100 101 
287 276 112 132 157 188 
139 589 187 125 94 65 
157 619 218 113 87 74 
296 459 289 99 123 148 
223 425 158 84 105 127 
252 239 324 81 126 160 
245 858 207 132 105 74 
234 333 136 104 125 180 
301 555 201 139 142 151 
245 320 125 190 170 183 
273 208 101 49 64 102 
266 125 112 112 102 92 
202 907 223 99 84 72 
180 639 159 90 133 168 
252 419 311 162 166 177 
237 930 180 66 50 31 
270 395 315 47 81 145 
183 380 179 65 96 126 
283 548 175 189 185 192 
233 200 268 98 91 89 
230 97 343 84 71 60 
213 290 123 177 184 216 
309 302 290 83 113 139 
202 913 257 88 69 56 
237 881 213 76 59 44 
199 920 251 60 47 36 
251 307 218 121 123 130 
272 162 293 101 33 51 
175 555 141 102 126 159 
294 356 188 136 94 44 
254 230 207 109 87 79 
220 251 245 138 120 101 
198 730 178 52 76 113 
164 779 257 158 111 109 
237 814 189 116 104 96 
349 590 284 86 82 81 
464 682 250 170 188 226 
242 37 123 111 90 70 
282 610 181 42 98 136 
289 590 200 74 85 98 
279 393 161 79 95 112 
213 276 331 110 79 89 
141 646 192 115 85 62 
157 451 302 82 102 124 
258 704 317 177 94 58 
225 349 334 55 89 144 
247 677 142 92 156 209 
391 695 204 165 115 116 
196 320 226 162 72 0 
202 308 236 170 145 119 
274 67 340 133 102 61 
281 202 111 65 40 19 
231 627 135 172 170 175 
256 22 430 179 136 119 
263 121 242 100 89 76 
244 35 124 114 91 71 
247 177 347 151 29 37 
260 342 140 157 163 183 
210 954 220 119 100 83 
262 64 388 124 100 76 
267 989 232 148 120 88 
246 210 157 31 37 68 
424 732 236 217 179 132 
342 603 247 60 67 74 
280 612 321 197 140 136 
366 659 183 120 144 183 
219 326 194 108 106 107 
243 280 321 149 147 153 
167 496 150 61 81 102 
145 465 230 109 81 69 
292 124 301 107 96 88 
261 90 308 119 82 49 
371 726 262 163 148 138 
151 549 234 109 115 128 
245 36 125 112 89 69 
247 199 210 94 26 43 
274 137 271 128 62 14 
244 39 124 106 86 66 
150 440 206 89 75 61 
315 420 221 123 130 143 
366 802 243 204 143 108 
140 750 203 66 94 144 
284 307 317 137 101 119 
267 534 322 70 113 167 
141 451 215 110 90 69 
279 28 123 150 130 128 
272 16 412 137 127 123 
265 66 114 113 91 66 
401 686 263 153 98 92 
349 814 239 230 163 137 
155 643 177 78 104 132 
241 839 197 152 117 93 
246 949 200 107 81 51 
204 240 325 75 113 144 
283 946 272 123 102 83 
167 772 190 152 163 180 
240 42 120 109 89 70 
383 615 229 82 100 118 
318 418 215 114 125 139 
301 451 267 56 86 120 
256 143 243 128 80 68 
252 407 311 100 126 153 
280 142 275 95 51 30 
268 120 250 89 81 75 
318 393 191 30 91 127 
174 639 178 54 85 111 
261 857 205 183 133 91 
160 466 166 106 112 122 
162 602 269 114 117 136 
152 698 219 40 65 133 
385 681 194 125 142 190 
175 616 171 117 125 138 
184 582 314 60 69 84 
262 136 292 54 48 50 
145 706 172 114 128 171 
271 870 278 157 118 84 
204 905 243 115 85 61 
273 172 343 101 42 60 
211 951 211 146 115 80 
233 925 190 79 64 51 
260 702 150 171 190 214 
202 916 266 151 114 83 
249 15 400 127 115 108 
368 785 219 158 133 112 
299 364 297 122 111 100 
403 668 205 74 90 106 
181 369 280 91 109 129 
242 46 123 104 85 66 
143 738 187 122 145 188 
256 196 147 94 44 64 
241 438 155 117 125 136 
320 474 259 109 124 145 
243 47 124 103 84 66 
265 188 285 74 59 71 
220 357 334 103 120 139 
366 690 199 166 184 205 
231 964 292 109 87 72 
190 639 143 158 136 135 
250 969 194 92 72 48 
258 133 224 115 82 62 
257 136 128 100 94 92 
299 393 283 128 63 9 
211 949 210 135 106 74 
157 786 240 126 32 55 
233 983 193 132 95 56 
276 362 157 73 115 156 
401 683 201 159 163 175 
262 75 100 119 98 77 
227 420 323 155 167 184 
160 591 263 163 155 156 
390 601 236 80 115 143 
307 348 296 162 132 97 
289 323 132 237 169 82 
249 1004 240 125 101 73 
261 915 192 52 41 31 
295 911 219 97 82 69 
296 545 311 101 128 158 
241 580 137 88 124 156 
300 396 228 73 101 125 
273 105 347 134 88 47 
220 998 229 181 146 124 
244 47 125 103 84 65 
279 19 107 125 115 110 
262 291 235 92 106 122 
298 382 180 77 107 142 
223 987 239 110 82 53 
252 943 197 80 62 43 
276 900 286 163 117 88 
238 792 276 99 82 82 
213 230 337 105 122 142 
246 47 125 103 84 64 
213 275 238 119 76 68 
251 803 186 206 183 165 
234 308 126 184 176 178 
262 229 282 96 70 67 
247 47 126 103 84 64 
248 32 126 140 124 116 
203 307 238 169 143 117 
250 242 224 105 105 108 
320 581 230 97 101 108 
226 225 260 104 35 46 
150 581 216 120 88 70 
328 480 253 141 145 155 
285 343 191 106 114 126 
248 34 126 114 88 66 
269 907 294 193 142 115 
282 495 156 75 110 149 
239 194 169 39 49 69 
244 609 132 126 144 170 
274 380 159 56 75 105 
315 580 223 70 82 93 
251 33 127 131 112 101 
255 815 261 182 122 101 
276 230 139 78 50 30 
268 186 245 93 89 88 
251 34 127 123 97 81 
428 699 269 165 72 80 
165 764 186 166 177 196 
284 385 262 87 106 125 
165 767 249 131 27 43 
145 529 281 94 108 142 
238 889 307 142 109 85 
331 506 263 115 130 151 
211 720 321 100 152 194 
357 629 209 42 80 127 
378 653 203 97 111 127 
206 741 163 158 167 183 
238 1003 241 145 112 78 
225 752 303 138 114 111 
349 794 208 166 118 83 
251 37 126 118 93 68 
372 655 192 70 86 102 
250 38 126 114 89 63 
153 564 185 125 97 70 
175 625 178 89 68 75 
162 498 178 77 91 106 
252 33 127 134 115 104 
253 33 127 137 120 110 
205 543 146 120 133 152 
252 35 126 119 91 65 
263 510 145 73 98 120 
328 532 208 127 149 177 
188 510 322 129 147 171 
265 214 90 94 79 68 
160 438 248 54 84 106 
304 426 309 69 102 155 
218 908 214 97 76 57 
352 701 201 183 65 66 
197 650 214 38 67 124 
133 465 204 99 83 67 
276 544 144 88 137 176 
269 168 101 105 101 98 
272 282 300 93 99 110 
231 310 130 174 165 167 
285 210 326 140 115 121 
244 186 347 128 25 50 
230 381 159 138 152 189 
230 103 336 91 79 67 
395 608 232 28 76 114 
209 337 209 91 87 84 
337 536 251 112 123 138 
138 508 208 140 104 87 
264 273 237 113 113 117 
216 230 338 125 141 160 
243 207 194 89 49 49 
202 425 335 160 164 175 
233 198 160 47 41 61 
375 789 230 216 157 125 
289 461 171 130 134 142 
260 157 215 97 88 81 
222 604 138 161 157 160 
237 12 409 126 114 107 
315 470 265 112 125 142 
246 200 186 42 49 70 
310 400 301 137 95 108 
281 125 302 91 83 74 
175 787 187 147 68 79 
320 561 284 114 122 134 
160 551 163 121 143 169 
312 488 274 84 111 144 
197 332 157 134 54 78 
280 320 263 108 112 119 
248 301 209 108 114 123 
223 579 142 92 114 138 
263 143 285 42 40 43 
252 210 203 102 48 66 
328 487 210 146 160 182 
250 439 311 159 164 175 
251 42 126 111 87 63 
320 745 290 201 168 134 
271 93 345 92 79 66 
350 678 192 168 185 216 
198 929 237 108 92 77 
287 266 274 68 80 94 
248 210 215 47 41 54 
202 335 259 94 77 55 
250 361 142 65 90 114 
184 682 249 73 90 121 
271 543 137 88 127 161 
191 403 331 88 108 135 
145 526 216 138 98 79 
309 638 313 108 104 108 
198 395 333 86 111 135 
190 622 200 50 78 124 
339 788 200 130 118 111 
266 163 350 132 63 43 
163 485 155 105 114 130 
255 867 200 119 99 81 
172 405 184 94 124 150 
246 166 351 42 42 49 
242 89 333 82 69 67 
421 738 241 160 107 112 
238 428 315 103 121 158 
187 667 158 168 162 166 
252 43 126 110 86 63 
274 713 313 59 72 84 
312 334 280 145 121 94 
145 552 265 115 119 143 
302 260 294 104 123 144 
267 595 173 97 109 124 
260 270 231 120 121 126 
278 844 206 190 140 107 
243 801 270 210 156 134 
430 631 235 69 89 110 
246 207 191 60 48 60 
279 222 121 38 59 96 
293 277 121 139 141 149 
236 510 146 114 131 152 
255 43 126 110 85 60 
221 354 138 102 128 169 
252 45 126 110 87 64 
174 756 278 138 30 40 
253 45 126 110 87 65 
283 235 106 95 42 57 
220 791 271 175 159 149 
236 589 138 76 114 145 
349 682 268 131 69 70 
322 648 292 82 128 163 
296 544 193 150 155 169 
193 425 235 81 89 101 
283 120 302 99 87 75 
167 418 271 91 98 108 
297 377 180 63 100 140 
162 435 267 76 84 94 
254 47 126 110 87 65 
194 663 301 135 149 170 
278 889 254 170 127 99 
255 47 126 110 87 63 
223 121 336 96 55 59 
199 655 236 69 81 126 
223 918 300 116 96 75 
277 245 143 115 81 86 
380 634 285 99 118 178 
199 375 222 36 72 134 
172 384 280 90 107 127 
339 640 271 124 161 195 
399 661 207 118 118 121 
193 361 215 72 92 129 
240 922 307 141 111 85 
277 631 322 74 64 73 
169 491 151 145 143 146 
148 535 235 90 103 136 
296 945 266 97 83 73 
237 198 348 158 159 168 
296 635 319 79 84 106 
285 312 296 61 92 117 
275 789 279 213 156 133 
253 217 241 68 46 42 
202 456 332 115 125 159 
251 23 381 65 54 51 
248 206 156 17 46 65 
153 515 222 79 70 72 
210 295 279 92 94 100 
241 52 122 104 87 69 
208 446 331 106 121 160 
208 946 217 107 81 60 
260 156 274 74 45 46 
284 865 220 128 89 63 
206 285 318 95 115 137 
345 783 261 194 146 114 
268 550 321 100 131 168 
230 734 315 178 97 90 
232 242 155 115 38 64 
148 510 294 72 99 123 
242 53 123 102 85 67 
303 775 282 207 148 119 
158 554 180 148 144 147 
281 823 199 215 149 112 
283 769 292 212 155 125 
243 53 124 103 86 68 
299 524 299 107 114 157 
283 342 265 93 100 110 
253 1005 233 119 78 57 
228 837 209 202 143 115 
261 586 155 121 126 136 
333 543 269 106 121 140 
175 390 292 87 99 113 
296 310 147 140 68 82 
242 259 176 114 65 81 
266 628 319 111 117 127 
245 48 125 103 84 65 
249 273 177 123 123 129 
278 885 252 168 125 95 
186 380 207 82 96 113 
145 515 283 81 108 141 
245 51 125 104 86 69 
194 610 217 79 96 155 
207 952 276 153 118 99 
302 770 286 208 149 119 
282 343 157 147 147 175 
278 937 279 102 80 59 
135 494 207 144 105 87 
441 710 238 179 188 205 
234 285 116 95 140 182 
299 686 158 137 154 175 
279 307 168 105 118 134 
285 369 164 71 109 146 
334 505 243 157 156 161 
357 806 224 223 155 125 
203 337 165 142 108 68 
440 675 227 103 126 157 
176 801 246 140 136 141 
264 70 102 126 104 83 
184 405 326 104 118 136 
158 508 180 76 85 97 
256 184 214 104 66 66 
246 227 188 103 48 45 
208 301 258 126 106 83 
430 668 280 95 132 194 
218 202 294 103 101 102 
268 691 148 77 154 213 
150 570 264 151 155 165 
247 172 277 60 45 42 
137 506 201 136 98 83 
177 472 155 78 102 126 
247 55 126 102 84 65 
226 223 273 111 112 117 
231 382 330 134 154 177 
281 349 310 88 98 116 
261 251 231 111 86 74 
284 522 150 168 167 176 
240 58 122 100 83 67 
209 541 147 138 144 155 
193 730 312 107 148 183 
278 767 175 210 184 165 
153 692 169 137 144 162 
222 292 127 205 194 197 
300 803 191 176 124 81 
261 988 240 120 90 66 
233 295 199 115 112 112 
291 525 164 131 158 188 
298 501 301 125 140 159 
208 895 257 131 98 71 
229 766 293 190 167 148 
394 667 267 117 156 191 
331 497 258 94 122 149 
179 401 177 44 76 125 
278 331 260 72 91 110 
240 60 122 100 83 67 
328 547 275 101 117 136 
197 771 278 176 142 119 
283 855 235 188 138 108 
241 61 123 101 84 67 
356 627 284 147 176 206 
257 307 312 168 125 62 
179 628 301 179 190 211 
305 418 186 78 96 113 
196 460 159 34 66 102 
135 599 193 126 93 59 
305 839 223 212 157 121 
265 945 293 174 131 104 
214 471 154 111 123 146 
190 456 333 171 171 180 
276 354 219 113 112 115 
263 192 285 93 67 65 
341 671 271 101 53 63 
145 554 257 90 114 140 
275 922 199 46 41 41 
245 545 322 137 144 157 
266 132 352 137 42 22 
162 581 249 38 59 139 
238 647 137 192 184 191 
158 536 309 73 73 77 
194 655 244 90 99 114 
216 256 246 157 134 111 
243 280 322 156 153 157 
263 864 207 168 125 85 
209 904 279 170 133 105 
206 584 139 106 118 132 
270 117 322 140 71 10 
297 301 293 84 125 156 
205 340 155 156 113 118 
244 59 126 103 85 67 
287 744 308 122 131 143 
245 248 327 81 125 160 
264 189 240 87 83 85 
377 790 238 212 151 110 
267 663 140 149 165 202 
439 630 232 104 123 146 
309 404 218 57 88 113 
140 732 186 137 152 173 
144 641 185 80 84 97 
215 740 161 165 175 193 
301 337 293 119 120 127 
239 834 250 169 128 102 
213 430 164 48 86 113 
311 506 185 81 105 128 
271 422 317 82 111 166 
308 708 315 29 29 37 
190 557 139 159 161 172 
138 656 206 85 114 148 
304 557 204 83 104 129 
159 786 245 140 52 57 
218 662 138 164 166 182 
243 928 184 61 49 37 
415 738 227 128 59 80 
368 715 209 128 95 82 
248 558 136 113 124 138 
222 449 151 94 109 127 
277 425 314 63 85 130 
210 460 328 113 124 160 
325 468 197 181 182 191 
302 400 230 86 107 128 
168 443 322 99 115 140 
247 63 127 108 88 68 
333 745 198 74 69 69 
401 625 231 115 118 126 
265 824 256 188 136 114 
297 310 146 141 71 82 
215 751 163 189 16 13 
305 786 274 211 150 123 
284 326 294 91 48 61 
207 289 270 149 129 109 
268 697 315 75 64 69 
461 659 261 107 86 64 
300 664 165 75 110 139 
285 344 293 146 141 143 
187 371 208 78 93 112 
268 779 286 215 160 135 
193 649 247 74 88 104 
152 714 222 123 134 151 
150 511 174 75 102 139 
368 686 261 124 60 63 
280 319 176 119 124 134 
190 380 165 83 117 168 
293 499 161 82 117 176 
301 405 182 91 99 112 
210 983 210 115 78 58 
206 256 324 100 45 58 
325 523 226 99 108 122 
287 173 300 99 47 59 
200 918 252 67 54 42 
226 577 323 82 133 172 
201 358 223 90 104 123 
250 918 174 67 56 50 
223 677 319 128 147 168 
239 184 351 131 26 48 
300 136 291 132 100 58 
207 454 157 174 169 172 
303 538 196 128 137 170 
309 687 311 135 52 16 
353 780 207 105 97 96 
328 560 234 103 101 104 
271 384 149 45 77 115 
179 407 180 46 78 117 
251 486 144 82 107 139 
296 160 302 93 78 87 
189 673 292 127 140 161 
154 601 219 114 85 71 
325 762 192 160 129 94 
211 913 204 132 112 99 
256 19 88 114 99 85 
308 226 280 110 84 72 
346 766 266 182 133 95 
264 137 240 93 83 73 
295 818 252 209 142 117 
279 230 103 96 28 45 
152 440 216 90 77 65 
393 624 235 72 84 97 
229 226 157 70 42 46 
312 365 175 117 131 148 
280 238 312 120 116 117 
232 297 198 95 86 80 
143 562 213 134 98 75 
222 775 173 120 120 126 
241 819 257 194 144 121 
364 732 266 160 132 103 
273 94 302 107 104 105 
305 332 293 148 146 150 
268 188 266 69 35 37 
161 810 210 198 155 155 
269 174 131 94 24 30 
156 474 167 75 100 125 
368 654 264 133 163 193 
282 878 239 147 112 83 
183 362 169 94 112 130 
242 359 323 59 87 138 
245 592 132 139 84 109 
274 112 337 131 66 7 
355 763 267 155 115 82 
199 328 148 194 55 100 
250 56 127 107 87 65 
168 425 264 66 82 99 
183 356 162 104 91 114 
402 672 204 72 95 119 
205 325 254 119 60 9 
216 494 327 121 132 150 
283 293 149 145 143 146 
381 609 231 70 98 121 
236 419 318 97 116 147 
238 854 253 153 120 90 
246 639 318 87 135 173 
294 549 192 124 141 163 
175 711 171 62 95 169 
189 326 294 123 115 110 
347 651 267 107 145 179 
225 255 148 66 97 125 
153 466 236 56 68 80 
228 426 322 113 118 161 
307 332 278 139 117 95 
228 206 153 41 46 66 
354 714 206 112 50 86 
378 612 253 42 61 76 
280 609 322 167 120 97 
305 404 228 59 85 107 
313 447 181 182 179 187 
383 783 241 205 152 104 
276 228 327 89 96 123 
139 746 194 162 174 192 
246 253 230 71 75 80 
207 65 56 159 142 131 
268 71 355 134 109 90 
141 629 190 141 97 67 
327 712 298 126 111 100 
257 182 214 108 55 74 
277 334 298 131 126 128 
327 787 262 205 149 116 
258 163 249 82 90 107 
330 513 265 118 128 143 
208 802 187 159 124 114 
435 641 264 97 82 69 
363 756 210 155 132 114 
223 607 138 144 146 154 
296 747 306 136 137 144 
208 470 157 83 105 130 
277 112 275 85 78 72 
258 420 160 134 148 174 
193 698 168 91 120 154 
282 331 267 95 105 117 
266 15 147 100 80 73 
226 246 149 80 98 112 
211 280 273 127 115 106 
290 337 174 159 122 78 
298 474 313 104 132 165 
233 79 374 98 89 82 
234 26 401 179 155 154 
213 243 283 99 95 94 
205 66 61 160 144 132 
153 516 227 70 78 96 
258 169 139 71 47 54 
153 613 218 118 88 73 
233 385 328 118 129 152 
149 458 188 144 104 81 
282 896 248 158 122 92 
231 227 172 125 25 22 
207 67 61 159 143 131 
197 931 235 105 89 72 
294 525 168 115 144 187 
133 480 211 140 105 90 
296 411 175 109 110 115 
235 866 221 160 124 92 
272 268 162 131 127 128 
291 354 293 94 94 100 
204 908 263 145 107 80 
252 73 392 140 108 86 
271 383 244 95 86 78 
165 584 248 64 70 91 
221 289 224 96 92 90 
258 576 128 103 86 92 
227 145 307 98 82 65 
225 789 275 116 118 128 
202 715 320 176 191 211 
248 213 213 52 39 44 
406 610 243 121 134 150 
283 586 196 91 93 98 
331 517 235 99 115 148 
208 894 273 152 112 84 
268 908 198 89 66 56 
138 535 204 132 96 72 
172 599 252 33 48 98 
164 435 262 82 92 103 
235 952 203 109 79 52 
267 103 356 133 103 66 
182 431 206 82 97 114 
295 346 293 102 120 141 
269 226 149 133 42 16 
429 695 224 131 140 154 
210 65 53 157 140 128 
156 488 311 175 169 170 
173 502 323 114 144 176 
188 435 169 76 107 133 
332 482 237 147 146 151 
210 66 52 159 142 130 
343 635 179 175 175 181 
213 313 157 97 112 130 
225 124 329 83 67 58 
250 256 202 92 50 76 
389 653 272 151 172 197 
241 968 192 77 63 49 
315 516 181 133 147 167 
331 740 285 117 99 83 
272 854 207 169 122 81 
263 156 218 117 106 96 
259 1001 210 158 130 101 
286 755 170 184 130 69 
294 937 231 80 67 57 
210 68 52 172 155 143 
317 485 268 78 108 144 
239 469 314 132 147 166 
143 569 187 127 98 66 
170 604 210 85 70 68 
218 261 241 128 111 94 
243 523 321 184 181 188 
199 339 261 89 77 67 
262 48 120 112 88 62 
250 250 208 122 109 99 
280 913 275 154 109 81 
156 506 189 110 113 120 
247 42 401 120 97 74 
271 982 209 137 114 89 
212 67 51 171 153 141 
227 481 147 108 124 145 
233 470 145 145 147 155 
399 619 297 76 97 116 
285 418 255 49 72 100 
335 678 276 145 109 105 
333 680 191 156 169 194 
153 784 234 123 126 138 
290 731 315 205 176 149 
261 204 230 72 94 114 
266 595 321 113 146 179 
329 643 180 156 163 188 
285 574 204 97 94 94 
158 812 223 175 156 139 
166 568 156 169 169 177 
255 217 207 113 61 71 
409 753 243 64 57 68 
147 476 238 69 68 78 
147 677 215 96 111 152 
213 64 53 153 136 124 
274 240 306 119 114 113 
459 668 236 100 120 142 
256 182 344 55 52 78 
194 396 238 81 98 115 
292 541 187 104 129 162 
276 322 295 134 125 122 
214 68 50 175 156 144 
149 733 223 99 117 142 
223 496 151 136 146 161 
313 755 288 202 148 119 
302 420 181 60 81 100 
295 383 174 69 94 127 
233 286 327 145 140 141 
212 69 53 177 159 148 
145 617 186 143 103 69 
213 69 53 179 161 149 
265 78 362 139 115 94 
281 577 205 92 91 92 
287 709 156 199 32 44 
313 710 316 137 128 125 
343 800 207 190 136 98 
208 422 171 87 96 105 
299 250 277 57 97 133 
193 300 134 138 95 54 
356 716 207 152 115 59 
193 376 206 76 85 97 
274 131 313 95 48 47 
384 609 230 63 95 121 
206 589 320 143 163 188 
245 561 324 97 132 171 
290 721 159 191 77 89 
269 186 247 100 86 74 
166 405 278 104 110 119 
291 125 302 98 90 82 
271 816 261 208 143 123 
238 127 370 37 42 73 
207 684 147 186 183 193 
167 819 224 177 156 139 
322 434 225 146 143 146 
259 132 251 126 53 67 
287 639 151 99 117 137 
210 890 255 136 105 75 
225 297 168 83 102 121 
375 655 265 138 169 201 
304 597 203 51 50 59 
182 755 287 168 106 92 
256 766 293 145 136 130 
321 683 289 156 121 77 
209 66 62 157 140 128 
302 406 236 64 94 120 
197 299 120 125 152 188 
271 739 162 231 186 117 
328 466 244 90 110 131 
274 295 177 72 103 129 
326 744 288 140 123 108 
231 762 296 181 162 152 
191 304 132 124 123 127 
200 939 235 81 68 59 
296 914 244 93 72 49 
283 251 326 154 154 161 
300 188 299 134 41 69 
281 261 270 50 74 94 
241 179 275 57 59 62 
256 255 319 137 143 157 
381 650 205 47 62 76 
306 211 293 65 81 107 
209 902 236 158 107 85 
275 345 252 85 96 109 
159 584 286 129 134 172 
290 847 228 173 125 98 
337 541 245 116 122 133 
203 922 275 151 119 89 
237 653 137 193 187 192 
224 293 159 99 113 129 
452 643 233 96 115 141 
265 307 128 198 186 197 
287 278 114 135 176 216 
329 598 259 76 75 77 
360 664 184 75 81 95 
302 474 312 109 133 162 
269 161 247 66 81 95 
229 208 346 132 102 68 
242 258 175 108 39 62 
212 67 57 178 160 149 
329 668 186 183 185 201 
364 659 182 52 98 174 
186 696 227 69 87 121 
212 66 59 183 165 154 
278 226 261 58 58 63 
291 734 314 136 142 154 
300 508 165 69 97 125 
273 114 343 146 69 5 
247 196 218 109 35 51 
147 732 217 78 91 141 
265 21 144 149 105 88 
278 417 313 57 81 126 
285 670 318 151 78 53 
263 20 145 157 109 101 
314 603 211 48 57 67 
313 652 183 90 127 173 
291 541 186 110 138 166 
215 66 56 186 167 156 
202 772 169 111 31 36 
265 32 407 189 169 164 
214 66 58 187 169 159 
199 286 289 133 111 87 
237 607 325 145 159 179 
393 620 250 72 81 92 
263 990 199 159 120 74 
254 758 169 89 70 56 
269 356 225 130 128 131 
149 479 247 83 116 147 
228 595 325 82 116 144 
283 628 168 104 108 114 
274 631 324 78 58 84 
221 963 204 99 76 52 
132 468 202 108 84 64 
237 615 134 173 170 178 
286 748 167 72 95 115 
147 706 208 72 94 141 
222 786 276 208 183 164 
274 274 295 67 77 88 
208 299 129 150 171 206 
220 367 333 74 108 150 
278 407 258 101 90 85 
271 388 315 62 98 157 
305 191 285 129 83 78 
308 385 185 77 109 181 
259 787 281 213 153 131 
216 64 51 151 134 122 
143 706 197 79 100 144 
145 512 284 100 119 147 
451 656 277 148 164 185 
226 292 165 78 98 118 
162 557 160 141 159 181 
211 295 144 130 130 136 
287 968 237 134 105 72 
261 282 232 121 122 128 
246 305 318 165 117 36 
230 551 321 184 182 189 
204 227 296 88 95 105 
277 192 118 105 53 32 
229 862 238 152 115 86 
226 517 327 109 136 168 
272 261 319 113 136 161 
166 640 179 57 90 126 
309 433 303 118 135 164 
257 455 158 49 82 109 
296 428 257 79 98 121 
385 656 199 93 113 133 
217 66 55 183 164 152 
328 524 232 146 144 149 
225 208 345 150 109 90 
315 273 282 124 140 158 
172 398 290 93 104 118 
298 669 156 87 123 153 
182 595 142 173 173 183 
392 749 262 132 107 85 
245 90 329 91 63 53 
243 246 183 90 30 41 
219 165 348 78 60 82 
271 219 145 128 28 28 
297 480 297 113 137 162 
280 274 150 144 140 141 
211 628 315 108 103 113 
308 795 188 186 159 134 
230 541 146 118 129 148 
365 604 237 55 96 126 
178 627 165 150 147 152 
154 499 307 102 121 146 
228 208 346 137 103 75 
419 741 250 78 64 109 
179 717 266 121 140 161 
416 610 235 99 126 153 
205 303 318 102 90 79 
155 728 227 91 108 138 
219 68 52 190 170 157 
140 763 208 155 170 191 
267 528 322 60 103 164 
295 150 280 130 70 10 
197 407 235 77 89 103 
316 603 312 167 112 101 
288 877 230 121 93 69 
301 402 234 29 80 111 
296 453 181 89 98 117 
298 256 277 75 100 132 
181 405 213 71 95 120 
320 461 190 74 105 167 
251 197 340 149 104 111 
159 645 176 35 79 116 
236 676 141 127 168 213 
278 273 156 146 143 147 
222 66 50 181 160 147 
267 215 245 89 70 59 
237 400 165 110 127 161 
269 144 259 98 67 46 
204 305 225 136 118 99 
239 231 174 88 45 64 
244 808 188 209 184 166 
326 588 301 116 101 87 
179 679 279 77 99 151 
304 256 293 92 119 145 
166 583 212 87 72 70 
203 236 297 100 106 116 
272 165 102 86 84 91 
412 749 242 191 155 115 
221 66 54 189 169 157 
260 104 117 119 96 71 
161 622 217 107 81 73 
228 919 198 84 69 55 
233 253 158 67 101 128 
240 785 179 35 23 46 
242 857 292 151 116 98 
278 914 280 176 126 99 
273 178 318 61 31 43 
366 795 254 201 142 112 
223 66 53 188 169 156 
316 286 286 87 122 153 
244 208 195 101 45 49 
151 455 273 94 106 121 
173 738 248 111 127 146 
308 409 291 116 118 126 
324 457 199 94 111 130 
325 679 283 128 60 56 
156 631 181 65 83 104 
218 969 277 81 66 60 
296 738 311 190 172 158 
162 424 294 125 126 133 
216 66 56 185 166 154 
247 659 137 127 145 198 
269 674 328 221 157 66 
289 531 170 147 169 194 
305 500 189 61 81 99 
165 733 177 139 156 190 
322 697 295 116 108 105 
286 370 270 131 116 101 
254 40 362 81 75 71 
255 251 209 68 93 115 
292 526 321 115 139 167 
408 651 286 135 158 195 
291 677 150 131 80 104 
324 415 203 105 131 156 
158 583 182 127 98 75 
264 180 296 41 54 79 
162 596 268 159 157 162 
248 155 288 72 52 47 
219 222 133 126 38 36 
238 263 327 149 147 150 
278 19 105 123 114 109 
237 194 270 80 74 72 
276 936 282 120 93 75 
254 249 209 62 93 118 
287 964 228 146 117 83 
163 482 319 95 112 141 
278 284 308 79 96 115 
211 270 127 120 122 128 
148 537 222 115 85 74 
247 310 120 160 95 113 
272 882 288 170 125 95 
231 869 292 152 114 95 
304 257 294 83 115 143 
210 607 321 120 139 162 
150 441 203 88 78 67 
271 353 314 74 111 155 
145 711 202 128 130 141 
438 645 228 90 113 137 
305 323 146 135 18 59 
225 274 332 151 146 149 
262 373 150 81 99 117 
276 706 153 167 186 211 
320 795 259 210 155 121 
312 459 264 63 96 129 
266 156 352 129 49 34 
271 167 254 61 80 98 
274 257 305 87 94 104 
224 65 55 184 163 149 
223 805 262 128 125 129 
415 632 241 70 92 112 
306 371 281 154 129 102 
164 431 305 127 131 141 
402 656 211 46 81 114 
177 740 283 134 152 174 
229 215 262 89 89 93 
160 438 249 75 94 112 
229 333 335 109 123 156 
205 261 119 136 137 143 
227 64 53 171 151 139 
227 65 52 171 151 140 
180 700 173 106 129 165 
285 245 289 123 66 45 
294 945 227 93 74 61 
266 958 204 142 113 82 
220 986 235 128 105 82 
223 397 331 95 114 150 
172 455 238 61 71 82 
202 342 227 102 93 87 
224 759 297 174 161 171 
320 647 304 99 88 84 
248 208 228 38 66 96 
282 626 160 124 127 136 
263 654 330 57 58 130 
298 586 217 88 98 111 
233 180 355 141 34 55 
224 561 145 93 113 134 
216 278 333 168 163 165 
286 531 165 198 200 211 
279 249 265 101 102 104 
248 829 195 200 139 91 
277 471 152 85 109 139 
192 331 299 102 76 90 
428 633 279 89 77 66 
337 542 246 112 116 123 
226 64 58 191 173 163 
267 13 112 115 103 95 
272 176 291 81 50 63 
297 528 304 106 122 156 
288 249 277 92 91 100 
290 643 157 82 104 124 
303 562 205 92 111 133 
143 456 223 101 82 61 
168 584 210 80 70 71 
287 657 317 167 125 89 
315 403 191 31 75 151 
158 535 158 120 142 170 
176 419 252 111 117 126 
183 808 195 122 106 98 
183 680 177 65 89 128 
332 516 234 81 102 139 
203 907 231 144 92 65 
223 793 271 169 152 140 
471 661 254 30 53 86 
218 714 322 175 33 61 
180 546 315 92 126 155 
223 278 334 135 133 137 
364 643 200 104 119 140 
430 622 240 146 147 155 
255 195 245 72 62 72 
374 715 261 101 74 79 
163 457 182 99 102 108 
208 66 64 142 128 116 
277 129 310 92 50 59 
142 670 202 76 108 163 
210 65 64 145 127 114 
210 65 65 136 118 104 
178 733 258 125 137 153 
343 708 278 116 92 82 
198 315 230 152 82 3 
202 468 158 89 108 129 
386 682 261 115 44 54 
184 347 299 96 113 132 
280 397 309 98 120 142 
154 438 215 86 77 70 
190 689 294 109 116 127 
281 338 310 101 90 105 
152 724 222 126 135 153 
275 545 142 88 134 170 
305 389 206 54 90 117 
204 303 227 144 124 102 
240 74 389 126 99 77 
154 564 244 52 62 134 
196 279 121 108 127 148 
253 764 172 191 173 161 
247 148 294 72 54 54 
227 218 263 98 103 111 
267 194 244 87 83 86 
219 79 75 147 105 52 
217 77 77 133 100 59 
142 461 189 120 93 70 
229 940 200 83 62 43 
258 187 251 79 79 84 
229 202 277 95 89 88 
249 215 334 149 147 153 
214 990 214 110 93 84 
216 79 78 135 104 65 
231 124 320 65 79 93 
226 800 267 125 133 146 
217 78 79 132 102 63 
252 29 373 61 53 50 
316 591 307 120 102 85 
247 178 347 150 30 38 
185 409 328 103 114 136 
290 260 116 152 148 150 
314 442 251 118 128 142 
283 414 164 112 129 180 
229 232 163 120 42 20 
334 521 257 92 108 125 
138 648 201 155 108 87 
253 806 187 180 143 124 
260 194 287 76 59 66 
211 699 151 160 172 200 
152 663 218 101 112 138 
338 810 246 208 147 115 
277 883 260 145 111 81 
217 756 297 167 162 169 
289 934 266 124 100 76 
247 631 319 64 114 151 
223 75 74 149 103 8 
281 365 306 76 92 120 
269 937 293 174 133 106 
182 515 321 117 137 166 
254 67 331 98 76 60 
274 738 309 198 170 143 
289 787 278 207 150 123 
171 596 250 47 57 104 
198 723 176 32 73 135 
295 489 175 103 108 117 
220 75 78 125 94 53 
261 103 252 123 84 52 
267 233 324 168 167 173 
266 827 255 181 133 107 
222 73 77 137 100 50 
243 927 190 70 55 44 
388 621 225 68 99 126 
420 673 279 145 171 199 
275 164 343 31 61 108 
249 249 200 57 66 89 
240 875 210 90 72 53 
240 327 328 157 150 151 
275 966 264 77 61 45 
214 302 150 106 118 133 
334 536 227 108 119 135 
231 737 314 192 134 134 
315 350 291 197 170 146 
153 444 220 99 80 62 
275 493 316 62 85 133 
267 61 370 123 104 86 
172 761 272 90 72 96 
217 975 250 151 122 92 
310 396 192 38 82 144 
274 121 315 119 105 103 
293 377 219 140 138 142 
174 397 178 44 85 135 
307 559 296 87 118 147 
274 775 178 185 159 137 
173 417 208 62 83 103 
278 772 177 169 143 120 
325 429 214 142 151 165 
279 365 315 77 113 162 
289 484 314 122 144 169 
257 944 299 190 143 115 
451 676 232 85 118 151 
163 607 270 190 183 186 
441 628 235 111 122 137 
302 178 297 148 99 76 
223 66 86 107 88 68 
185 389 171 72 98 132 
338 748 202 144 130 121 
249 490 144 113 127 158 
260 112 107 93 77 60 
233 285 190 132 129 131 
380 778 224 170 160 156 
222 70 83 114 90 63 
242 865 208 110 93 76 
223 70 82 119 93 61 
177 529 142 116 128 146 
182 715 303 145 161 181 
285 402 158 53 89 116 
261 138 229 89 79 75 
256 22 426 173 129 112 
265 131 290 48 43 51 
221 70 85 109 88 65 
245 204 156 36 44 70 
273 347 314 110 133 166 
266 251 159 96 51 76 
187 595 232 85 94 126 
249 500 316 87 113 150 
163 491 186 72 81 93 
221 70 87 112 90 65 
156 554 185 128 112 104 
243 363 133 81 109 160 
207 966 249 87 70 58 
222 69 85 110 89 65 
168 510 319 89 108 159 
238 312 125 166 161 166 
187 391 257 74 84 95 
387 758 219 189 164 139 
143 686 198 102 114 148 
269 981 236 75 53 40 
275 20 98 119 112 107 
222 69 87 106 87 67 
259 119 246 133 60 35 
159 440 249 75 97 117 
253 59 342 100 87 75 
266 547 321 110 148 184 
268 238 94 159 154 158 
306 200 288 114 56 71 
159 440 271 81 91 103 
443 647 259 93 79 66 
299 322 135 151 143 151 
306 414 307 56 92 145 
335 682 277 128 105 99 
432 714 264 158 69 79 
223 67 91 104 87 69 
187 358 279 97 109 124 
248 240 200 78 75 94 
263 25 417 139 120 132 
278 826 250 186 136 113 
288 211 297 33 48 75 
194 303 136 109 11 39 
224 871 251 111 87 61 
260 186 95 106 46 46 
287 747 307 129 123 123 
175 765 276 188 120 66 
166 572 237 48 50 104 
302 707 165 163 36 64 
248 302 208 105 112 123 
366 794 255 200 142 113 
257 137 216 108 86 66 
280 299 308 125 84 14 
318 807 197 193 138 101 
300 499 287 140 142 150 
191 627 140 74 130 174 
147 724 217 99 113 145 
277 244 145 129 20 67 
260 234 323 161 160 167 
294 168 302 84 79 87 
289 759 173 64 55 64 
272 241 302 116 111 111 
305 188 294 138 68 71 
321 812 203 221 167 132 
164 596 287 153 148 151 
262 241 236 117 94 69 
332 485 233 135 142 154 
198 617 137 88 138 179 
254 620 317 184 174 172 
272 90 296 127 94 53 
277 311 318 120 134 153 
179 818 205 156 136 119 
273 90 300 139 118 102 
280 309 292 59 87 110 
134 615 207 133 94 69 
223 70 93 107 90 73 
236 158 357 50 42 84 
279 964 218 142 109 73 
188 769 181 138 147 165 
245 11 429 113 88 71 
237 237 335 120 62 74 
282 329 267 118 115 116 
229 892 218 79 64 49 
300 642 178 92 109 128 
396 688 202 185 189 204 
245 238 185 83 65 68 
165 790 253 67 83 116 
269 218 303 89 87 88 
259 48 356 70 61 54 
270 155 251 80 88 98 
252 854 192 171 126 85 
278 334 201 141 138 141 
199 927 219 85 69 52 
393 685 262 129 121 140 
292 421 163 156 166 193 
147 568 284 185 170 161 
320 430 224 117 122 132 
141 553 210 140 101 79 
302 433 256 74 101 126 
262 194 301 55 42 55 
450 644 232 122 150 192 
279 322 307 125 86 61 
168 453 322 137 143 155 
423 634 289 77 109 161 
191 700 310 130 143 160 
258 207 224 76 93 111 
181 656 266 84 107 137 
428 664 221 105 121 159 
376 693 260 148 100 80 
402 620 291 80 74 72 
288 242 114 82 112 137 
396 767 249 197 180 169 
243 471 314 95 116 146 
217 78 80 133 104 70 
380 623 296 83 104 166 
217 79 81 136 108 79 
256 329 224 76 103 126 
413 625 291 77 110 141 
275 156 328 30 41 66 
244 204 259 80 62 52 
312 324 279 146 125 108 
253 482 145 114 125 144 
237 671 140 135 159 198 
140 685 194 111 123 165 
161 500 151 103 121 143 
218 76 82 124 97 66 
252 218 243 67 44 38 
252 215 202 108 49 63 
216 77 85 125 100 73 
258 606 128 130 155 189 
157 656 172 85 108 134 
253 351 146 107 115 143 
314 437 187 89 104 122 
327 610 202 64 83 101 
239 683 143 80 153 210 
294 667 309 118 85 58 
184 358 278 108 118 131 
142 502 194 140 104 87 
220 277 232 107 88 77 
160 448 225 67 66 72 
334 504 240 81 104 126 
275 384 159 60 80 100 
317 317 285 158 158 165 
225 698 147 136 162 199 
209 595 138 149 150 157 
277 620 162 125 129 139 
266 870 291 154 120 88 
257 824 196 175 127 86 
233 183 284 69 90 110 
318 572 224 77 86 97 
272 196 130 87 42 49 
211 315 326 80 100 119 
454 652 266 94 81 69 
338 792 259 203 154 116 
254 612 318 186 177 177 
271 326 247 89 99 111 
158 503 187 71 85 99 
210 190 327 95 106 121 
295 910 204 69 57 47 
139 624 211 150 107 84 
269 264 318 154 157 168 
264 69 116 114 93 72 
174 423 188 79 92 107 
305 461 305 128 143 162 
171 613 178 119 84 73 
286 787 279 207 148 124 
402 705 263 165 129 101 
390 713 212 202 163 112 
315 551 216 119 123 133 
297 612 180 80 125 160 
327 596 305 165 120 105 
185 348 291 101 103 109 
263 906 192 68 56 48 
231 286 328 148 143 144 
317 589 303 95 87 83 
180 541 140 84 105 130 
427 701 223 143 149 161 
278 598 184 83 91 109 
189 372 319 94 114 133 
219 72 88 110 90 68 
309 604 314 165 108 109 
307 337 157 123 122 126 
281 623 154 126 129 137 
325 579 284 149 148 153 
296 524 312 81 97 148 
169 682 167 114 126 162 
216 970 203 105 81 50 
157 779 240 153 65 75 
234 857 278 118 93 65 
238 453 147 129 129 133 
203 260 318 155 149 149 
179 729 247 126 135 149 
235 746 306 142 123 137 
241 249 181 102 21 44 
209 334 170 133 99 60 
163 415 278 117 116 119 
216 77 88 118 96 75 
293 484 177 72 90 107 
283 123 280 106 95 87 
270 175 291 73 44 61 
285 329 176 109 119 132 
278 883 275 166 126 93 
246 1005 224 119 97 75 
217 76 91 113 93 73 
217 77 90 116 94 75 
236 221 171 96 42 37 
423 634 226 47 95 128 
280 718 314 171 153 140 
190 680 292 145 145 154 
272 288 317 130 123 136 
202 393 222 83 98 131 
283 396 262 89 88 90 
224 227 279 99 101 106 
246 365 134 110 126 170 
220 319 133 99 116 137 
217 79 91 116 93 75 
200 590 137 149 151 160 
172 742 251 115 133 154 
293 548 191 123 143 166 
280 919 275 142 105 81 
299 529 299 100 123 156 
252 972 282 100 79 69 
205 905 243 116 85 60 
343 812 245 216 152 121 
306 207 289 98 85 103 
384 765 261 157 158 164 
266 89 356 96 76 55 
230 205 346 168 80 11 
271 289 303 92 94 100 
208 594 320 136 159 186 
296 617 315 109 79 85 
309 231 282 106 50 64 
271 568 323 76 116 162 
292 472 179 66 88 109 
283 357 162 102 108 148 
394 753 260 161 120 71 
156 446 294 89 104 122 
272 14 407 125 114 108 
293 360 201 90 109 129 
318 392 190 41 96 133 
221 72 92 107 89 72 
183 712 175 82 115 158 
187 343 276 118 68 79 
185 386 262 55 73 89 
385 649 206 90 105 122 
177 525 142 127 134 147 
