ply
format ascii 1.0
comment Created by CloudCompare v2.11.1 (Anoia)
comment Created 2/28/22 9:36 PM
obj_info Generated by CloudCompare!
element vertex 2011
property float x
property float y
property float z
property uchar red
property uchar green
property uchar blue
end_header
391 684 342 120 51 61 
164 369 311 51 79 102 
178 377 339 80 99 119 
277 249 251 59 53 62 
212 723 368 161 105 113 
276 234 286 59 91 116 
253 77 392 143 108 88 
332 801 251 165 121 82 
189 637 363 94 112 189 
215 754 348 92 96 108 
253 149 302 86 70 73 
331 406 291 100 123 147 
247 345 232 44 104 160 
196 317 310 135 67 1 
231 318 219 125 129 161 
253 597 383 106 137 168 
295 696 378 109 110 118 
199 802 229 91 73 77 
300 592 370 161 158 163 
333 534 322 123 135 151 
320 261 314 83 132 177 
440 632 336 53 62 116 
216 492 178 130 133 144 
197 648 216 120 122 130 
291 816 309 204 146 124 
156 576 291 64 58 139 
209 302 184 132 31 59 
200 924 299 90 73 59 
240 200 157 58 116 157 
253 933 344 186 146 119 
159 720 254 93 110 142 
211 312 356 114 106 100 
240 201 158 65 120 160 
165 395 311 86 99 115 
270 193 209 74 44 37 
306 527 251 94 118 151 
271 405 374 75 106 155 
343 816 302 208 155 125 
268 246 260 78 52 46 
202 446 266 65 80 102 
319 422 276 144 149 163 
459 649 334 81 92 107 
231 212 276 75 70 79 
272 332 365 103 113 132 
252 735 212 180 3 53 
198 568 184 145 158 177 
208 241 354 143 143 149 
154 540 363 81 81 88 
447 657 363 118 122 129 
323 651 237 76 105 129 
160 439 347 80 102 127 
243 203 158 63 119 160 
277 611 382 83 76 88 
183 665 343 82 101 174 
222 148 362 131 56 49 
186 367 244 54 85 133 
243 205 159 70 122 161 
277 222 225 88 37 29 
179 547 250 71 103 130 
250 273 343 123 137 156 
272 42 133 110 81 64 
230 565 183 140 143 153 
257 196 147 142 130 133 
271 96 148 127 106 85 
226 479 369 119 133 153 
317 530 349 95 117 140 
266 340 232 64 76 112 
263 96 130 152 118 96 
300 442 375 171 176 186 
302 383 312 93 103 125 
283 910 244 52 43 41 
247 203 155 62 116 155 
180 725 313 123 137 155 
254 840 298 171 130 106 
147 480 303 43 83 126 
264 613 382 174 121 115 
399 730 284 77 68 65 
324 591 322 50 38 27 
289 317 352 79 112 138 
262 196 319 75 43 46 
185 336 274 122 103 87 
258 203 353 124 36 69 
246 202 156 63 117 156 
285 591 384 153 168 191 
202 924 308 146 114 84 
148 443 221 100 87 76 
369 604 321 77 114 144 
184 691 308 50 71 133 
178 584 272 67 99 149 
245 204 158 63 120 160 
267 131 144 129 59 6 
245 205 159 65 116 154 
283 865 291 173 129 100 
315 750 234 136 122 110 
297 723 378 157 142 134 
267 217 232 68 41 40 
299 775 341 209 150 123 
311 180 318 65 52 65 
283 564 253 112 111 114 
303 624 221 94 108 123 
249 212 274 60 43 46 
145 517 239 138 97 77 
353 601 368 128 105 84 
289 596 229 88 107 127 
314 611 244 125 126 131 
206 445 191 55 89 115 
260 977 305 90 67 58 
219 875 302 140 109 82 
229 16 396 134 122 116 
182 664 345 118 139 176 
248 193 149 132 124 138 
248 960 333 195 141 116 
218 558 379 183 176 176 
304 546 366 135 146 162 
326 588 266 89 98 108 
257 749 216 170 0 37 
273 944 326 130 101 82 
209 663 205 185 179 187 
239 633 188 90 151 199 
378 601 330 72 94 113 
154 441 319 95 106 120 
377 612 311 56 95 127 
277 146 278 84 69 58 
231 388 232 144 146 153 
280 933 239 85 67 51 
250 195 149 135 128 140 
279 293 294 94 97 103 
185 344 314 110 94 81 
315 560 287 146 135 126 
265 367 358 76 104 136 
261 414 238 134 147 170 
242 310 225 133 142 179 
147 474 251 119 91 81 
184 292 293 131 85 54 
183 360 255 117 132 151 
166 501 274 66 74 85 
308 742 367 174 130 112 
279 572 243 65 92 116 
273 289 289 73 79 87 
256 159 327 87 34 40 
231 15 393 134 122 115 
173 509 200 70 99 143 
259 77 332 88 65 50 
188 694 341 106 122 141 
277 129 304 96 66 41 
403 623 306 57 90 115 
245 213 258 35 43 53 
192 516 182 127 137 154 
223 602 180 155 157 167 
271 184 262 93 71 72 
256 208 245 45 67 84 
252 193 147 126 121 128 
177 770 226 135 96 98 
237 936 236 68 48 35 
206 590 378 177 175 180 
171 394 331 105 118 133 
194 648 258 112 123 138 
292 307 257 129 130 137 
148 499 247 144 101 90 
325 571 334 140 136 139 
265 389 244 92 106 124 
155 766 251 131 145 164 
152 484 250 120 92 80 
320 584 352 143 138 138 
283 360 365 113 117 123 
193 349 284 110 98 89 
287 117 340 112 60 27 
368 615 275 41 48 55 
187 363 245 42 61 128 
292 962 271 135 103 77 
212 254 357 93 50 73 
180 654 210 33 87 133 
221 142 360 120 35 50 
159 689 220 89 104 139 
322 513 276 44 82 118 
332 667 363 114 82 80 
206 500 177 116 132 151 
321 408 279 50 84 152 
283 282 347 134 134 141 
142 494 293 57 81 127 
191 316 305 133 56 1 
186 349 322 92 102 117 
151 475 251 109 82 74 
208 657 205 120 65 86 
258 118 251 122 82 54 
230 943 239 64 41 21 
223 320 218 160 167 182 
158 725 235 94 109 149 
169 423 242 73 86 121 
244 657 195 170 168 183 
291 589 381 66 105 153 
192 434 285 96 101 111 
228 89 354 95 64 39 
286 220 207 39 60 102 
160 528 369 122 141 164 
195 515 380 150 159 175 
229 520 186 65 102 136 
177 651 334 75 99 155 
361 635 261 127 128 134 
267 107 141 118 98 78 
156 637 247 146 114 97 
267 658 200 149 161 183 
222 641 375 125 76 102 
249 470 221 109 116 127 
227 718 210 169 164 169 
227 280 234 131 128 131 
261 898 231 60 54 50 
354 800 320 202 151 119 
269 93 139 150 116 93 
258 690 203 128 151 191 
310 515 350 72 96 142 
253 203 151 60 106 141 
295 622 377 114 80 75 
364 717 344 150 110 76 
254 200 150 134 116 112 
254 201 150 114 105 114 
153 575 282 64 97 160 
303 681 383 153 82 31 
227 370 366 63 86 134 
188 328 334 131 116 100 
306 653 211 104 125 147 
467 688 349 146 163 223 
251 45 402 117 90 68 
320 462 272 148 147 152 
330 558 316 133 129 131 
271 122 267 94 87 82 
340 820 277 242 180 140 
237 316 221 112 120 139 
250 547 202 125 126 132 
271 146 289 104 61 42 
207 964 291 95 77 59 
285 216 157 125 87 68 
380 622 377 79 92 106 
194 688 348 130 140 155 
231 589 182 165 167 178 
181 493 247 86 96 109 
215 195 356 142 82 21 
206 332 223 128 118 110 
181 410 296 52 80 103 
202 613 200 168 164 168 
276 153 171 34 74 102 
263 448 234 119 131 149 
215 368 226 81 104 130 
294 726 217 140 31 35 
331 781 247 129 111 95 
368 606 360 116 98 80 
301 434 374 59 97 155 
442 721 317 174 185 202 
289 268 206 136 135 139 
203 920 306 149 115 85 
290 883 278 101 76 53 
179 806 240 113 108 123 
213 390 214 130 136 146 
307 921 272 93 78 65 
222 676 370 146 164 186 
327 781 244 132 112 99 
222 905 332 154 119 100 
206 330 226 88 108 128 
301 347 276 145 104 54 
166 794 242 133 20 47 
271 233 350 100 87 91 
245 983 230 126 94 74 
203 268 282 137 107 67 
332 560 312 131 134 142 
390 777 290 142 135 134 
258 157 230 112 118 125 
207 633 198 103 141 174 
249 205 156 46 101 141 
261 39 377 75 63 52 
293 200 318 83 28 33 
310 606 380 163 103 95 
248 206 158 41 99 136 
267 172 255 116 62 3 
267 846 301 165 124 92 
161 756 229 128 147 173 
345 711 256 132 33 45 
250 206 156 45 99 135 
199 670 287 119 118 122 
192 745 344 190 110 124 
249 760 218 162 133 105 
190 330 323 111 97 85 
285 247 349 123 123 128 
148 447 218 112 94 76 
437 623 333 132 139 150 
179 491 263 80 86 95 
206 540 176 166 169 181 
299 629 209 103 115 131 
223 161 286 85 89 95 
287 237 207 89 74 80 
266 260 347 88 115 141 
152 507 280 64 74 85 
380 767 280 161 138 117 
405 659 365 130 152 191 
244 627 190 91 146 192 
187 412 290 54 78 100 
192 330 259 115 89 63 
214 208 281 113 110 114 
257 744 354 157 125 95 
307 782 333 213 153 122 
176 555 227 125 93 70 
276 154 285 84 61 42 
255 205 152 50 98 135 
254 206 153 64 105 136 
271 130 261 110 70 33 
205 243 310 112 111 114 
459 666 342 108 85 62 
222 287 224 66 100 129 
163 543 245 110 83 70 
239 921 344 144 113 86 
294 430 251 185 176 177 
199 772 220 171 35 38 
158 441 220 87 76 65 
175 581 275 99 122 166 
286 229 203 113 5 52 
366 601 336 59 93 121 
284 177 297 65 40 43 
146 580 239 135 97 71 
269 794 231 191 160 128 
327 468 292 92 117 142 
267 215 230 55 36 40 
213 334 191 142 50 87 
273 289 290 84 87 93 
269 65 151 99 82 63 
140 525 340 124 136 153 
267 592 385 121 154 188 
238 985 297 97 79 59 
259 132 245 116 70 32 
222 188 294 69 102 129 
267 151 301 68 37 48 
357 812 281 229 162 128 
234 884 261 89 72 55 
252 209 157 86 106 134 
406 650 295 93 110 134 
231 695 373 118 152 184 
340 596 284 69 90 110 
320 217 320 50 36 62 
187 819 253 170 148 128 
204 730 364 118 131 158 
224 393 367 132 133 141 
191 535 379 181 170 169 
268 125 331 91 79 78 
268 443 236 39 83 123 
259 47 365 57 49 47 
446 651 312 78 103 128 
295 958 279 137 113 89 
310 622 238 118 118 122 
307 392 260 92 102 117 
173 403 306 116 116 120 
333 537 297 149 152 161 
173 431 227 66 83 99 
288 176 309 43 42 56 
255 968 231 116 91 59 
158 430 314 0 57 90 
302 739 223 113 115 127 
253 212 159 155 0 66 
166 565 217 129 98 69 
220 207 295 85 48 58 
238 154 367 86 38 50 
272 226 333 87 81 77 
266 207 326 70 39 35 
275 160 145 119 107 100 
267 724 363 95 86 96 
186 404 210 35 80 162 
290 304 270 132 134 140 
292 951 299 96 77 61 
309 409 315 103 113 126 
330 285 328 130 148 168 
224 198 160 86 81 90 
240 306 347 157 122 81 
300 396 244 102 125 165 
225 265 224 131 131 137 
285 161 308 102 33 44 
297 182 311 35 41 56 
162 799 258 212 174 130 
308 690 215 156 169 187 
308 561 279 137 127 121 
425 731 337 174 77 72 
283 302 300 88 98 110 
153 551 286 120 124 134 
221 191 312 58 70 81 
248 439 231 111 123 140 
184 369 302 90 92 98 
262 901 225 76 68 60 
289 505 383 169 176 190 
208 211 283 137 120 105 
170 515 211 148 152 164 
273 253 259 71 37 26 
250 26 412 127 108 113 
192 361 360 54 87 121 
228 809 228 213 184 148 
209 445 375 107 113 140 
287 157 346 38 47 68 
301 907 278 127 111 97 
288 776 343 215 156 126 
250 412 354 10 55 110 
312 556 281 149 142 141 
316 291 321 129 136 148 
198 924 291 69 57 47 
262 942 235 89 72 55 
225 194 175 92 63 94 
184 590 372 104 107 116 
381 613 310 63 100 128 
202 466 182 101 118 137 
162 580 361 167 175 192 
256 441 233 98 114 137 
188 346 326 100 86 93 
225 810 300 103 127 151 
218 261 358 85 117 145 
224 162 364 90 65 86 
371 723 276 38 47 64 
287 230 206 121 6 58 
295 951 299 103 80 65 
400 648 290 72 83 96 
322 585 308 79 95 112 
336 184 302 112 96 99 
234 985 290 105 80 59 
224 198 169 92 65 89 
175 539 221 96 109 129 
334 204 301 113 103 119 
222 556 179 156 162 177 
423 670 296 60 92 131 
224 199 170 92 63 85 
258 988 277 115 82 54 
266 362 359 53 89 128 
234 863 295 118 89 61 
227 485 187 129 137 151 
318 617 372 134 93 83 
226 974 321 109 92 78 
201 249 288 134 0 20 
273 292 198 86 120 148 
226 270 270 86 83 82 
321 322 344 119 135 154 
271 188 205 70 46 54 
304 715 380 85 83 96 
290 275 227 92 39 49 
321 576 301 56 78 98 
427 639 332 78 98 129 
305 810 310 205 146 122 
234 624 186 89 153 204 
313 411 364 75 115 150 
390 661 278 76 99 123 
227 199 173 108 59 94 
324 525 339 93 107 140 
320 458 271 108 122 148 
397 693 279 136 141 149 
265 911 232 59 47 41 
155 555 283 115 115 120 
216 327 362 45 74 116 
139 535 309 93 118 160 
235 210 274 67 58 64 
302 933 293 135 109 82 
152 530 245 138 100 83 
218 795 310 193 171 154 
196 587 195 96 124 155 
144 518 347 81 112 139 
307 637 218 93 110 128 
237 486 201 150 148 152 
325 196 301 70 98 120 
206 351 204 104 108 143 
225 202 160 100 54 49 
308 292 211 136 136 142 
292 337 313 118 117 120 
296 758 356 205 168 139 
197 419 378 125 132 147 
290 290 240 118 121 130 
275 593 382 39 79 115 
214 703 215 105 132 178 
240 902 349 200 146 129 
312 486 344 88 112 142 
249 799 227 166 141 117 
314 335 253 127 63 76 
281 305 297 68 84 99 
452 676 361 144 162 199 
269 33 401 149 120 100 
330 567 307 61 74 87 
331 283 327 157 164 177 
146 458 336 131 133 142 
285 333 358 145 140 140 
228 561 382 144 160 182 
282 235 180 131 111 100 
365 756 336 144 96 107 
145 497 346 116 123 136 
229 998 258 166 132 107 
169 718 269 82 104 138 
331 482 321 125 133 148 
318 602 376 166 120 105 
221 167 321 83 51 50 
214 280 352 97 63 77 
158 707 230 162 161 167 
243 364 351 48 98 132 
172 524 217 103 121 146 
238 453 360 167 165 171 
225 359 230 132 148 176 
188 699 350 125 143 164 
265 839 242 123 98 80 
195 259 325 113 116 124 
232 267 261 81 72 63 
312 360 250 88 113 179 
166 444 363 97 111 134 
222 261 159 160 171 191 
226 205 160 101 64 58 
257 834 299 174 130 106 
370 616 282 69 87 103 
215 924 247 68 54 49 
192 425 245 77 104 132 
268 660 386 139 91 64 
224 205 165 103 52 54 
351 765 261 128 100 73 
279 153 266 81 71 62 
209 748 351 157 75 96 
289 390 243 165 169 181 
189 399 290 84 97 113 
314 789 240 140 137 139 
224 206 164 99 45 41 
142 467 214 97 81 60 
357 683 260 151 161 176 
149 478 211 192 128 117 
227 468 366 146 146 153 
273 705 209 173 184 201 
231 834 256 202 145 113 
311 533 257 139 153 176 
278 656 381 173 119 52 
250 153 301 82 56 66 
302 302 207 171 178 204 
298 273 200 93 116 139 
217 929 241 73 60 47 
160 641 251 57 90 129 
297 930 274 85 71 61 
323 433 308 148 148 156 
265 763 349 128 134 145 
280 195 356 88 35 26 
233 802 311 189 171 157 
282 301 285 77 93 109 
270 95 291 134 85 22 
267 187 144 139 87 93 
252 173 258 99 63 44 
152 483 287 74 96 115 
238 304 348 158 128 92 
384 782 286 165 160 161 
225 202 170 97 25 45 
257 511 222 100 117 136 
226 201 171 94 23 52 
183 459 230 73 91 114 
319 401 296 126 135 150 
260 758 219 110 91 93 
199 621 209 156 150 152 
202 654 271 137 142 154 
193 477 250 71 86 102 
387 773 327 114 140 165 
301 375 361 142 125 111 
280 267 259 115 112 113 
269 53 140 102 84 64 
238 180 362 144 19 42 
207 285 274 100 76 57 
194 316 319 128 65 0 
271 460 235 147 160 179 
163 461 365 145 148 156 
284 243 195 74 94 111 
212 151 341 100 97 97 
412 641 378 68 107 167 
179 797 234 157 12 21 
324 385 264 77 110 181 
248 137 282 64 59 61 
248 599 384 86 126 167 
327 239 323 111 79 62 
339 651 357 117 148 177 
257 515 221 109 121 136 
263 635 381 96 78 73 
288 235 329 107 18 51 
350 619 372 35 53 69 
336 751 251 139 126 117 
281 612 382 103 89 82 
326 519 271 36 76 121 
162 696 217 167 166 174 
272 48 106 137 105 63 
293 913 255 68 51 46 
212 897 280 142 86 73 
353 747 264 130 120 115 
298 276 333 97 104 114 
287 572 211 114 134 157 
226 204 172 103 30 51 
325 384 263 84 117 181 
388 766 329 199 182 171 
214 291 184 124 129 141 
307 338 334 120 91 63 
166 554 245 94 77 63 
264 75 114 146 102 76 
208 751 348 194 161 152 
198 619 212 154 151 159 
377 713 276 135 48 42 
316 496 339 75 101 152 
195 748 342 165 76 73 
257 442 361 62 90 127 
371 637 361 102 134 195 
235 861 301 105 78 45 
448 673 310 115 129 146 
286 224 204 59 60 100 
159 606 321 123 123 152 
180 366 305 79 83 92 
138 522 321 103 121 141 
151 644 228 155 105 76 
200 448 242 83 102 124 
359 742 341 190 167 148 
233 751 353 134 116 116 
398 732 340 128 77 76 
328 491 321 116 128 153 
207 348 218 88 115 151 
228 207 175 101 34 55 
150 647 240 83 124 160 
273 198 274 117 93 75 
237 205 160 43 94 131 
299 738 371 139 127 124 
270 312 221 150 166 196 
236 207 161 46 82 121 
203 337 197 135 58 97 
237 207 160 65 88 129 
308 826 253 215 155 117 
304 372 260 69 96 122 
238 205 160 69 112 145 
280 174 310 34 35 39 
245 521 206 93 110 129 
238 206 160 50 95 131 
228 89 357 103 56 18 
271 215 225 100 36 19 
251 411 233 105 122 151 
239 207 161 57 85 134 
227 893 262 82 66 48 
239 207 162 60 93 133 
347 785 257 101 105 112 
214 184 355 123 26 63 
213 545 379 196 185 181 
264 950 332 175 131 105 
299 352 356 101 122 145 
273 281 287 96 96 100 
257 104 286 99 81 74 
157 557 278 62 76 91 
306 421 354 107 96 90 
266 837 242 115 98 83 
269 320 356 137 60 84 
192 323 338 122 112 106 
297 404 367 59 98 147 
238 481 364 87 109 148 
297 269 196 97 118 140 
259 944 338 189 142 114 
230 99 371 107 115 126 
236 860 331 149 117 93 
291 281 217 134 132 135 
386 694 340 142 36 53 
221 191 293 63 96 125 
319 675 387 158 127 122 
339 598 265 71 103 131 
328 488 319 141 147 160 
246 850 254 164 125 89 
264 202 329 58 24 53 
230 765 212 185 124 81 
225 288 236 79 71 76 
179 766 311 197 137 64 
180 735 215 125 144 181 
192 387 205 46 102 174 
305 811 246 175 127 83 
200 428 251 99 118 140 
225 194 183 40 48 79 
276 187 275 110 55 67 
284 260 301 96 24 63 
203 431 264 117 119 127 
295 386 242 113 124 152 
218 460 186 99 114 134 
157 608 333 166 160 163 
272 126 258 105 99 93 
299 386 364 149 130 115 
253 135 373 110 46 74 
239 339 228 36 82 153 
218 479 372 118 129 145 
212 256 281 115 99 82 
293 244 174 91 106 122 
369 639 356 112 153 189 
167 514 219 104 81 89 
180 537 202 149 156 171 
278 246 337 83 98 115 
232 995 252 143 105 64 
227 197 177 89 58 87 
201 952 276 92 75 60 
334 697 362 115 93 90 
292 700 377 115 107 109 
272 127 160 126 109 91 
222 974 256 108 86 62 
192 495 383 99 126 164 
270 80 351 112 92 72 
430 726 302 142 89 115 
226 196 183 39 51 86 
217 953 331 215 167 146 
222 469 368 98 117 141 
427 634 310 91 106 122 
179 711 333 123 137 154 
275 209 342 83 19 33 
193 742 216 118 135 172 
393 681 341 90 61 73 
347 625 258 142 141 146 
162 463 366 96 113 133 
228 197 178 74 49 80 
287 575 383 66 98 132 
221 681 203 189 184 195 
209 199 283 133 134 140 
334 750 249 136 123 114 
291 431 250 124 135 164 
196 547 180 124 146 174 
270 899 237 94 71 52 
224 121 360 48 58 74 
205 680 365 102 150 189 
284 211 323 33 39 62 
287 283 261 97 116 136 
228 197 181 48 60 80 
258 521 219 106 113 124 
420 651 375 174 187 208 
189 803 280 130 114 100 
246 903 229 77 69 63 
252 548 205 135 135 140 
170 783 287 143 119 103 
273 159 340 67 30 26 
173 508 240 96 106 119 
313 387 293 79 112 140 
207 312 188 130 11 42 
280 784 336 221 163 135 
225 194 184 40 51 80 
171 588 216 137 99 74 
239 262 269 72 74 79 
180 699 339 143 148 159 
315 300 324 94 115 137 
164 365 312 78 98 117 
224 195 186 46 60 86 
270 134 263 120 62 8 
288 710 374 50 53 57 
180 657 209 18 72 110 
238 819 297 188 137 116 
251 22 429 119 75 55 
282 893 314 171 128 99 
216 233 282 107 105 112 
206 333 232 101 108 119 
257 54 106 133 109 93 
309 724 223 158 31 41 
263 57 149 97 80 63 
207 682 216 44 70 103 
307 361 281 112 112 117 
261 54 396 126 101 77 
224 305 358 116 129 145 
330 472 323 156 161 172 
269 183 204 38 56 70 
150 436 236 96 76 61 
268 970 310 99 77 61 
269 597 382 134 143 163 
199 578 376 169 165 167 
181 479 186 127 139 162 
281 252 337 73 85 99 
164 568 248 107 81 67 
222 316 215 168 143 122 
146 437 236 104 82 66 
289 243 216 83 80 89 
179 529 376 193 186 190 
162 546 245 114 85 69 
267 887 338 174 131 102 
257 132 324 60 47 57 
184 545 198 144 154 172 
186 553 197 76 113 144 
248 826 238 178 124 77 
443 639 331 99 113 132 
368 640 354 131 155 181 
299 311 211 202 174 149 
281 896 301 132 86 63 
225 141 364 106 34 56 
274 66 350 129 100 80 
198 462 267 65 80 96 
403 732 340 116 118 130 
332 824 276 242 186 150 
279 259 175 170 160 155 
181 540 199 93 122 159 
319 368 352 191 148 89 
176 811 267 171 161 154 
233 118 335 81 78 78 
192 618 244 50 60 74 
279 188 289 59 75 92 
310 768 342 205 149 114 
182 425 241 84 102 128 
283 548 215 91 120 148 
249 426 355 105 120 138 
251 539 376 76 98 128 
228 201 179 100 34 54 
221 303 236 67 90 111 
294 813 310 203 147 121 
228 203 176 92 43 35 
300 316 215 223 134 25 
264 515 380 119 135 172 
171 693 207 167 175 208 
202 563 377 126 156 187 
273 874 326 162 118 87 
408 665 283 130 133 140 
167 405 312 58 81 102 
298 620 212 120 127 139 
359 607 287 83 89 97 
266 163 299 66 40 51 
192 373 264 89 105 142 
375 709 275 180 145 92 
161 499 278 75 79 86 
155 536 281 104 120 151 
186 378 224 71 92 111 
228 202 181 89 37 35 
330 212 302 68 84 113 
424 616 328 96 113 130 
317 587 287 50 76 97 
439 654 369 104 131 158 
240 236 350 153 151 154 
280 315 223 137 159 212 
206 266 302 98 87 97 
168 526 268 123 122 127 
300 837 260 223 168 131 
294 910 295 174 116 99 
224 100 352 87 74 62 
265 910 230 64 54 49 
297 779 232 146 121 97 
218 321 361 152 148 150 
210 813 235 171 149 133 
262 652 390 52 42 83 
166 510 220 87 57 61 
227 176 314 70 36 42 
247 261 183 68 148 205 
316 821 293 214 157 124 
280 20 121 136 126 120 
244 429 356 112 128 150 
296 299 205 213 205 212 
321 560 293 86 94 105 
269 146 255 106 76 41 
331 400 284 100 131 160 
159 539 278 60 87 135 
267 668 202 93 151 198 
325 362 253 108 128 157 
296 332 281 106 120 137 
140 524 335 102 120 147 
274 111 294 98 89 82 
305 387 347 147 123 98 
285 728 215 177 0 20 
261 162 227 133 80 9 
260 92 383 108 99 92 
274 69 126 124 101 78 
402 772 315 148 143 144 
434 646 308 79 106 130 
274 611 382 86 81 91 
311 379 345 151 114 52 
329 241 312 118 28 52 
256 460 364 57 89 131 
276 850 297 166 123 95 
286 654 203 157 166 187 
258 218 256 77 40 56 
188 341 327 102 86 69 
445 683 360 159 178 212 
182 735 339 147 169 193 
280 302 289 73 87 101 
225 201 186 44 39 43 
351 742 262 98 88 82 
267 54 383 112 93 74 
151 558 285 105 116 132 
325 383 263 92 123 182 
215 382 221 62 89 124 
255 858 327 128 95 60 
216 425 371 90 99 136 
285 276 263 104 116 132 
274 533 218 73 103 126 
297 755 358 172 160 153 
165 498 212 137 135 142 
306 603 381 156 114 98 
195 397 276 76 95 118 
235 199 361 143 137 136 
280 227 359 83 126 160 
168 345 309 122 108 97 
320 369 253 71 110 186 
298 763 227 109 102 103 
322 776 241 135 129 129 
225 200 189 44 40 44 
302 470 257 62 91 140 
202 231 293 86 98 112 
283 891 257 73 57 44 
215 272 168 135 142 156 
289 109 346 115 98 80 
217 345 225 83 135 180 
307 610 243 116 119 126 
252 770 340 178 138 128 
226 263 219 141 137 140 
203 650 270 85 105 138 
295 295 225 123 126 132 
209 254 282 137 99 57 
332 524 313 72 98 126 
197 459 237 78 95 117 
295 749 363 135 151 169 
210 234 286 107 113 125 
260 117 251 119 84 61 
329 228 307 138 95 74 
172 468 280 66 74 84 
221 350 366 82 119 149 
423 628 337 133 132 136 
287 148 343 68 46 39 
263 426 367 42 78 136 
353 603 289 101 102 107 
302 781 233 173 155 141 
307 450 340 79 101 137 
313 533 350 140 143 153 
223 310 247 79 88 98 
320 547 344 107 124 146 
227 205 189 74 36 40 
287 841 289 187 141 113 
284 270 257 137 135 139 
268 33 140 161 144 151 
248 464 223 83 100 117 
237 368 358 118 127 141 
269 127 285 84 76 70 
268 947 328 152 115 95 
275 111 298 98 88 81 
276 446 240 69 89 110 
437 649 345 104 87 70 
230 257 163 117 152 185 
311 337 258 130 70 92 
332 532 285 130 144 162 
289 295 266 115 105 100 
190 453 279 87 91 99 
229 207 184 120 35 46 
372 662 266 140 139 145 
153 491 249 127 92 82 
419 699 289 140 53 59 
238 116 329 89 82 78 
219 292 194 102 122 143 
189 661 208 122 138 176 
205 392 374 47 75 108 
283 916 309 157 113 89 
306 344 351 134 140 151 
228 205 191 79 29 27 
262 83 382 121 97 72 
288 194 301 82 48 55 
326 246 323 112 43 57 
229 206 189 95 35 44 
190 401 288 62 86 110 
267 91 130 162 127 102 
159 751 262 135 143 157 
198 242 286 129 2 26 
250 763 345 192 166 142 
200 581 187 139 156 179 
247 340 230 41 85 156 
180 478 384 115 134 160 
260 137 297 103 54 57 
186 607 369 76 51 78 
311 476 344 117 134 154 
219 984 270 119 90 66 
251 574 195 84 113 139 
176 335 302 120 71 23 
218 804 227 157 135 119 
308 339 260 126 76 84 
268 689 373 119 75 52 
221 300 356 154 151 155 
300 811 311 203 144 124 
171 454 241 37 64 84 
295 183 311 33 46 60 
271 284 356 125 59 45 
163 679 257 95 109 147 
329 574 327 139 138 143 
297 852 273 172 126 95 
195 610 259 57 84 144 
238 285 346 149 140 136 
175 791 234 119 36 62 
224 208 165 104 51 51 
270 61 145 102 84 65 
171 593 363 112 120 167 
329 589 278 75 64 68 
286 952 256 85 66 55 
208 667 208 190 185 193 
321 229 310 40 64 102 
252 995 279 98 67 47 
237 887 345 168 131 107 
271 918 236 88 66 50 
268 56 369 103 89 77 
279 213 182 35 64 88 
269 376 245 59 92 135 
194 695 275 66 90 136 
291 247 180 140 136 138 
306 462 371 101 129 162 
263 65 336 100 78 57 
281 289 280 64 73 81 
252 974 231 118 91 60 
325 432 290 44 74 113 
216 624 377 168 165 170 
277 652 201 166 168 178 
299 352 288 120 113 110 
238 260 348 64 100 131 
224 213 162 133 26 58 
172 691 207 132 140 184 
204 474 380 130 139 154 
255 905 222 63 51 39 
164 506 246 93 104 120 
212 331 211 157 156 162 
235 257 172 89 141 182 
333 148 297 126 113 103 
182 639 311 42 53 101 
358 790 323 196 148 117 
300 459 346 75 87 122 
184 633 364 192 200 219 
342 621 376 79 90 103 
256 248 168 114 140 182 
257 746 216 172 30 51 
345 627 381 109 122 173 
180 693 266 125 125 130 
307 805 314 210 149 125 
260 182 206 31 33 36 
202 594 191 183 179 184 
239 695 204 157 173 202 
327 442 295 40 74 107 
244 887 244 85 70 58 
282 221 291 60 73 87 
460 697 331 141 158 197 
411 654 369 144 166 202 
279 173 280 99 71 61 
186 641 357 145 154 189 
262 584 384 101 118 173 
220 381 226 66 97 127 
195 720 217 89 109 130 
386 640 281 91 109 129 
171 754 282 138 25 55 
208 729 231 25 43 93 
270 371 242 66 92 144 
154 527 220 137 104 77 
335 596 318 65 73 83 
279 770 348 215 160 134 
251 975 232 124 95 58 
422 638 343 101 84 68 
205 627 198 90 138 176 
195 238 282 162 120 84 
187 689 299 84 104 135 
309 578 274 67 94 118 
299 322 329 88 94 103 
211 699 219 120 136 187 
301 417 350 83 73 64 
208 781 315 83 83 85 
224 417 208 98 113 130 
264 32 381 72 61 50 
213 325 361 131 138 150 
300 780 337 213 153 126 
394 627 375 101 115 132 
260 416 237 132 142 165 
264 53 354 91 77 64 
296 350 356 91 111 133 
216 286 167 151 164 187 
254 857 326 127 92 60 
142 496 235 159 113 97 
189 668 265 131 134 144 
181 666 334 147 152 186 
220 208 361 154 63 6 
261 767 345 156 150 153 
150 630 245 157 112 91 
402 732 340 131 117 117 
432 629 337 113 123 139 
279 348 367 143 150 164 
308 307 211 179 161 150 
231 492 192 94 113 136 
183 686 316 52 72 118 
268 94 140 152 118 95 
174 750 297 136 23 32 
208 232 285 78 104 128 
272 92 148 134 109 85 
221 704 370 123 160 194 
246 280 201 178 138 139 
264 156 336 88 28 28 
247 682 201 134 160 199 
261 812 236 133 107 83 
319 300 324 86 116 144 
141 526 340 110 125 147 
283 224 223 82 39 20 
298 649 206 94 117 153 
239 862 264 157 122 90 
230 290 201 142 158 182 
432 671 301 96 111 131 
185 376 240 56 74 98 
157 576 284 60 82 133 
309 433 361 64 79 129 
372 722 276 119 110 105 
175 385 336 141 137 138 
264 607 196 107 122 144 
269 971 307 102 84 71 
205 423 204 55 87 112 
283 207 194 48 44 52 
234 144 301 70 73 90 
181 767 311 198 154 89 
259 59 396 125 97 77 
228 208 174 95 17 33 
285 239 348 88 59 57 
150 456 243 70 71 78 
187 332 279 140 122 105 
217 890 328 159 120 95 
321 668 387 131 124 127 
407 631 370 73 65 59 
167 461 373 143 148 159 
171 360 316 124 126 132 
205 337 360 88 109 130 
355 720 347 124 109 98 
414 754 326 170 152 138 
237 911 345 207 157 141 
311 568 360 94 112 132 
275 668 378 172 132 83 
326 718 236 144 61 55 
250 592 384 178 174 179 
245 243 265 69 67 69 
316 534 350 133 140 152 
210 704 224 137 148 178 
214 971 251 97 76 54 
320 764 339 197 146 109 
211 362 224 71 98 120 
203 363 216 126 141 161 
214 303 192 153 112 32 
216 267 276 78 81 86 
286 360 242 49 80 108 
240 217 274 63 48 48 
271 278 279 68 53 57 
342 643 356 135 157 183 
188 368 228 119 121 127 
176 498 259 89 92 99 
330 400 287 87 114 142 
224 219 161 123 38 76 
308 467 345 75 105 135 
271 107 292 96 90 87 
225 992 242 146 112 73 
304 284 206 81 109 133 
224 217 166 120 0 52 
288 775 343 215 154 126 
158 539 366 171 166 169 
237 939 345 204 160 138 
224 219 167 118 31 66 
305 500 253 93 115 172 
221 964 322 103 80 67 
294 334 293 137 134 136 
337 784 250 127 127 133 
263 80 116 153 103 87 
320 540 346 85 104 128 
257 762 346 164 155 151 
220 209 360 155 65 6 
210 245 304 96 87 78 
181 472 185 80 106 134 
342 820 277 241 179 140 
462 680 321 100 127 162 
189 248 294 144 125 104 
218 917 240 76 63 51 
319 451 271 158 157 162 
225 219 169 124 1 58 
449 686 312 103 126 154 
282 807 239 121 116 118 
269 873 252 130 98 70 
325 518 332 90 109 139 
274 834 299 176 128 99 
450 644 331 108 118 134 
219 260 162 148 149 155 
158 750 258 111 130 152 
189 486 181 101 123 150 
254 149 309 83 69 71 
233 171 364 97 37 43 
297 392 322 88 103 126 
162 454 361 94 111 133 
399 761 329 223 180 131 
172 543 226 115 89 72 
227 217 172 135 24 49 
192 551 376 102 152 195 
312 475 261 98 119 146 
242 445 358 168 166 172 
227 218 173 129 35 44 
323 291 333 92 116 137 
153 487 358 133 141 154 
197 290 276 145 130 115 
223 199 307 63 54 53 
243 683 374 76 67 64 
338 771 252 135 127 123 
374 615 305 94 107 123 
334 260 321 135 123 122 
220 604 382 140 80 109 
151 459 305 73 93 111 
270 635 381 76 52 51 
207 522 382 126 150 184 
260 47 369 77 65 53 
225 365 366 113 132 153 
224 222 169 109 77 86 
304 390 347 120 106 95 
264 539 215 132 130 132 
226 286 177 155 160 172 
225 222 170 103 84 89 
282 919 313 135 94 73 
183 289 297 147 107 75 
177 382 242 60 72 92 
225 273 218 114 124 139 
289 356 361 122 132 146 
241 981 319 87 72 62 
226 220 172 128 0 60 
334 549 326 101 115 131 
155 475 250 102 76 69 
227 220 173 125 1 42 
285 826 298 199 145 121 
155 491 248 121 89 80 
227 220 174 119 13 39 
247 836 246 199 140 100 
279 237 238 90 68 72 
260 685 382 197 138 59 
266 77 295 121 84 50 
205 335 360 69 95 123 
227 222 173 107 59 81 
240 432 356 55 85 135 
208 193 348 101 113 127 
308 403 253 94 105 120 
287 272 247 132 130 134 
280 891 321 177 128 102 
147 460 340 148 150 157 
281 122 354 114 118 123 
217 264 162 150 155 168 
243 752 215 124 112 116 
270 169 262 105 71 18 
193 536 181 97 116 145 
300 137 303 133 82 17 
325 157 287 162 73 19 
140 526 336 75 99 144 
254 149 299 88 65 68 
253 916 340 127 96 83 
220 557 177 130 142 166 
329 418 285 108 132 168 
217 135 340 107 68 54 
161 532 221 130 98 73 
241 915 228 84 68 52 
264 185 244 122 55 40 
257 632 195 169 148 154 
387 700 276 98 52 61 
444 633 320 71 95 117 
220 975 280 148 115 82 
273 953 318 113 87 73 
193 576 375 119 147 177 
331 530 285 105 129 154 
207 392 212 124 131 143 
374 803 298 207 140 108 
297 353 255 65 113 152 
206 411 210 61 93 118 
332 530 287 84 114 141 
236 208 160 48 82 121 
180 437 378 19 59 122 
288 149 344 50 38 34 
237 208 161 58 83 121 
261 341 229 126 140 181 
192 367 221 102 110 121 
306 136 317 111 99 90 
216 227 296 131 132 138 
205 332 251 78 77 80 
189 709 281 69 90 130 
247 282 202 181 105 99 
378 639 364 144 161 188 
211 630 192 141 68 105 
213 248 282 113 108 106 
239 208 162 70 88 123 
163 698 258 103 119 148 
247 346 346 66 87 111 
236 861 274 144 109 80 
200 569 183 157 162 174 
297 335 272 134 91 36 
238 211 163 131 40 68 
199 291 311 143 119 94 
220 741 211 147 154 169 
273 82 139 117 96 74 
188 630 222 68 93 115 
369 761 334 158 132 125 
208 342 206 187 168 155 
251 859 336 137 105 81 
171 551 221 125 95 77 
260 692 379 186 135 63 
322 467 323 124 132 146 
259 247 169 138 106 105 
287 278 344 122 119 121 
205 683 221 59 82 106 
194 376 272 69 96 129 
204 755 221 120 125 134 
231 889 262 83 68 51 
207 906 316 170 132 103 
278 244 344 112 111 116 
180 307 298 149 122 91 
272 690 373 158 139 130 
279 946 316 101 83 69 
254 374 239 63 92 120 
168 582 272 66 97 152 
213 651 373 171 167 171 
299 336 269 155 117 74 
177 637 352 120 131 176 
235 216 161 109 88 96 
226 284 177 180 178 184 
181 338 310 90 77 65 
280 227 227 69 42 18 
266 178 202 67 40 50 
273 583 387 138 159 201 
215 277 272 85 81 79 
284 886 268 88 65 52 
224 404 216 78 103 128 
235 221 160 121 54 67 
244 995 287 132 101 77 
167 596 252 114 89 83 
360 607 296 79 81 85 
251 359 238 54 88 141 
277 147 268 82 69 56 
199 360 194 150 160 193 
191 374 215 58 90 115 
175 586 284 88 113 139 
236 219 161 131 29 61 
424 616 326 103 121 141 
182 401 367 79 101 123 
199 453 239 77 92 120 
279 230 344 116 108 105 
243 125 374 37 40 73 
239 216 162 108 75 83 
147 501 223 158 115 100 
272 960 249 111 81 54 
289 368 244 53 75 93 
158 614 329 187 177 177 
206 612 193 97 140 173 
308 175 305 52 55 75 
364 621 267 107 110 117 
164 628 346 137 145 175 
232 295 209 146 164 188 
359 677 344 146 54 59 
237 220 161 120 49 54 
283 301 300 79 93 108 
305 562 277 116 110 108 
236 222 160 107 72 75 
230 286 245 113 110 110 
312 812 304 209 149 125 
436 663 304 78 103 137 
373 652 268 64 82 101 
238 220 161 119 73 66 
218 775 330 186 162 150 
261 550 211 111 117 126 
409 629 357 114 94 74 
148 438 231 89 75 66 
336 776 327 203 140 109 
165 620 323 148 148 154 
242 222 352 103 122 143 
249 13 411 140 117 103 
223 172 362 98 50 52 
223 869 323 146 113 85 
229 186 364 131 12 60 
265 874 336 160 123 94 
348 640 252 96 114 136 
184 401 210 78 108 161 
351 603 370 145 113 89 
299 266 183 111 91 94 
186 632 258 61 84 130 
189 697 348 120 137 156 
229 209 179 129 29 47 
256 82 330 116 104 94 
279 260 294 88 29 48 
185 347 331 94 104 118 
251 191 354 96 44 77 
231 186 364 130 16 52 
322 826 281 220 162 131 
408 756 299 150 134 121 
208 900 313 160 118 92 
282 206 208 84 47 64 
169 714 268 72 88 136 
386 670 342 131 161 191 
270 752 219 105 50 52 
263 292 205 67 136 183 
229 187 277 80 83 94 
230 209 180 131 25 44 
207 917 328 153 126 100 
248 280 343 155 152 156 
155 574 247 130 94 75 
230 209 182 131 27 33 
324 494 282 164 165 175 
230 210 180 131 29 40 
220 678 369 128 154 181 
230 211 180 131 25 34 
460 665 352 114 93 70 
330 393 277 88 126 159 
171 412 306 93 98 105 
203 528 379 161 161 169 
275 219 354 70 109 139 
299 418 336 71 91 114 
309 441 370 159 164 176 
275 184 170 128 46 68 
224 280 215 91 113 135 
214 150 350 127 84 59 
229 212 178 134 9 41 
273 927 329 190 142 111 
272 522 380 163 171 187 
205 248 309 76 87 99 
301 442 352 146 155 170 
270 97 286 136 87 19 
228 215 176 137 30 39 
228 215 177 135 29 40 
192 307 287 145 118 87 
291 241 176 138 133 135 
456 651 321 116 125 139 
330 562 316 139 136 139 
194 586 376 139 160 185 
148 458 341 119 128 140 
323 298 323 100 118 140 
216 199 280 119 107 112 
146 439 229 103 89 77 
217 315 236 83 91 101 
164 400 328 61 91 118 
308 666 211 136 155 179 
262 124 313 101 66 55 
312 729 373 172 130 75 
368 606 340 47 66 82 
230 212 181 133 29 42 
424 618 323 124 140 160 
323 661 375 93 132 164 
228 445 362 158 155 160 
405 698 283 106 111 122 
223 180 294 82 83 95 
158 585 354 122 142 181 
435 724 342 152 64 71 
421 738 335 138 65 81 
285 246 200 80 108 132 
209 350 363 88 112 139 
188 676 265 94 106 131 
227 215 191 130 33 33 
187 380 254 129 140 156 
412 728 290 174 141 96 
285 716 373 81 86 98 
229 208 187 121 31 38 
334 615 366 128 91 76 
271 52 136 102 83 63 
292 152 311 86 56 41 
258 847 241 172 125 85 
199 460 382 105 116 149 
253 537 375 89 117 144 
266 525 221 124 123 125 
247 156 275 68 63 64 
428 639 330 78 96 129 
268 132 287 94 74 62 
272 324 364 111 123 138 
286 329 303 93 92 96 
166 434 304 81 94 108 
229 938 239 68 50 30 
266 454 234 134 141 157 
161 594 349 84 107 169 
178 481 235 77 91 109 
237 502 370 66 94 131 
168 798 241 168 25 51 
153 566 280 83 102 121 
309 912 285 85 67 49 
223 744 358 163 106 118 
284 30 124 126 115 109 
284 281 268 75 98 119 
303 232 309 81 60 93 
158 594 344 155 148 169 
286 383 242 143 150 173 
190 347 277 107 95 84 
232 607 183 182 178 185 
216 698 210 182 186 202 
223 301 256 69 69 72 
173 613 217 135 94 67 
283 214 153 127 94 79 
185 416 374 106 116 132 
169 621 317 124 134 150 
206 710 227 23 38 81 
230 211 189 126 28 30 
192 362 228 102 110 122 
406 722 340 115 121 131 
194 657 262 71 91 133 
305 630 380 108 120 139 
218 314 187 151 62 83 
356 630 372 101 118 199 
280 531 220 68 41 48 
325 592 363 94 89 88 
260 48 364 52 44 35 
259 141 277 86 67 56 
230 213 184 129 23 35 
287 432 250 176 170 169 
230 212 186 128 24 30 
181 646 256 11 62 103 
283 290 352 84 70 87 
263 838 237 173 120 82 
239 476 209 82 100 118 
277 279 273 42 38 36 
185 379 227 74 95 115 
245 561 382 102 119 159 
220 884 288 107 85 61 
402 740 336 147 141 141 
238 577 384 134 145 167 
260 166 269 62 62 62 
206 691 224 95 105 135 
287 606 383 176 130 134 
293 865 273 123 88 64 
277 241 334 107 111 119 
288 243 213 72 104 131 
195 688 350 119 132 148 
192 471 182 85 105 128 
154 536 363 71 78 92 
265 324 351 126 65 86 
228 215 189 128 28 35 
215 310 232 120 116 116 
330 154 309 146 81 4 
247 96 384 143 82 36 
259 224 261 80 43 54 
333 157 305 146 67 3 
273 689 206 148 80 95 
270 110 279 106 75 31 
187 380 237 52 75 95 
281 508 245 45 75 98 
219 503 378 146 147 154 
281 907 318 168 118 91 
218 896 272 135 71 7 
163 582 216 130 96 64 
195 461 234 82 100 124 
295 372 324 147 128 111 
223 672 371 182 187 201 
227 221 179 117 17 41 
171 402 247 70 98 131 
160 431 310 22 59 89 
183 377 302 83 93 105 
292 765 351 210 153 121 
413 630 337 63 69 80 
312 301 215 109 123 140 
243 116 378 54 57 103 
282 378 367 138 143 154 
136 457 232 111 91 71 
224 192 302 64 87 109 
220 761 343 158 122 120 
287 316 304 72 85 97 
277 561 387 109 141 175 
259 82 166 103 86 70 
208 228 285 83 108 132 
266 875 336 160 125 96 
301 281 319 104 111 124 
428 618 334 138 141 148 
264 51 392 127 100 78 
235 323 357 139 134 136 
356 787 263 82 91 101 
247 520 208 115 124 137 
289 429 249 115 131 159 
240 231 262 98 20 58 
142 570 329 74 90 146 
293 639 380 53 77 123 
294 378 322 104 89 87 
222 974 317 105 90 78 
279 171 283 97 82 81 
298 136 315 85 73 59 
152 671 223 64 99 164 
247 840 295 172 130 105 
234 206 275 72 72 82 
178 735 312 139 150 164 
327 741 352 157 135 123 
327 458 295 126 135 150 
272 280 188 99 147 195 
155 461 350 112 124 140 
292 217 306 76 31 47 
275 944 323 124 99 81 
300 509 365 103 119 155 
259 128 315 70 65 65 
253 961 231 88 72 54 
235 101 378 145 61 34 
184 816 247 165 144 127 
337 812 303 198 146 116 
311 410 254 106 117 134 
175 379 324 79 101 123 
192 264 286 185 153 117 
333 508 312 165 163 170 
324 657 235 83 111 137 
332 607 256 80 106 130 
264 731 360 172 153 138 
176 593 253 57 50 71 
180 541 204 136 148 168 
231 950 340 218 172 153 
462 646 333 164 166 175 
228 220 178 123 39 39 
215 207 311 102 102 104 
431 687 298 112 125 144 
257 458 365 72 99 130 
185 635 306 47 58 99 
292 566 379 135 149 168 
295 837 285 198 141 114 
433 623 337 150 155 165 
319 690 371 160 89 80 
450 632 332 101 118 135 
271 953 242 124 94 61 
175 648 210 57 93 126 
153 587 346 213 205 207 
297 403 331 70 85 106 
297 507 377 84 108 160 
244 761 217 180 35 16 
300 370 255 84 104 125 
221 379 368 61 94 139 
263 910 229 51 44 43 
315 613 375 155 107 93 
423 642 305 50 61 93 
281 213 295 104 60 62 
218 214 304 107 106 108 
239 665 376 166 182 204 
227 221 190 131 46 24 
263 878 245 99 74 56 
264 113 374 144 63 23 
249 201 352 141 25 77 
194 237 282 155 112 77 
309 645 386 118 103 90 
311 367 257 37 81 145 
365 790 323 199 145 115 
226 223 191 108 44 41 
175 400 358 96 110 127 
228 997 255 183 145 104 
280 143 338 71 27 32 
345 773 256 117 110 107 
301 351 354 101 121 142 
211 158 344 61 90 114 
165 465 290 105 107 112 
304 701 216 154 171 191 
299 573 258 117 122 132 
356 600 365 121 103 86 
241 881 253 78 62 47 
216 272 275 80 82 86 
252 387 351 82 98 127 
196 253 329 124 123 127 
283 563 227 80 136 178 
220 457 368 139 139 147 
188 432 217 72 90 109 
228 218 187 129 33 25 
201 275 297 95 102 111 
255 974 316 103 85 69 
293 319 278 143 140 142 
262 637 381 80 49 48 
311 165 304 87 55 53 
197 269 322 141 120 98 
337 783 250 107 110 116 
209 229 309 71 83 96 
228 217 190 129 34 23 
244 979 228 119 85 51 
267 310 351 131 54 83 
276 455 237 110 122 140 
228 219 189 131 36 26 
255 284 344 94 116 139 
163 571 216 131 98 66 
191 380 203 64 112 164 
269 957 244 106 72 47 
359 805 275 206 149 114 
205 203 290 124 124 129 
303 662 387 164 129 95 
240 25 410 143 125 122 
252 151 306 88 74 76 
204 205 284 109 118 129 
418 675 363 178 204 235 
219 181 291 65 94 120 
217 268 171 134 139 148 
179 729 312 114 129 146 
154 606 248 139 102 83 
255 957 235 78 67 55 
268 79 293 124 93 66 
162 602 313 177 165 161 
263 157 235 116 94 88 
282 221 153 146 51 69 
221 738 362 187 63 74 
286 352 244 82 117 148 
244 769 341 204 176 150 
420 637 356 114 94 73 
223 286 217 82 116 144 
255 903 341 201 149 127 
311 435 367 73 112 164 
278 169 271 123 61 2 
324 594 315 49 48 54 
210 319 179 184 103 126 
253 780 334 195 174 157 
177 592 254 44 59 113 
161 495 371 130 142 160 
478 671 343 70 98 126 
325 210 304 88 63 83 
223 300 195 186 130 66 
174 501 243 89 101 119 
141 556 329 99 117 147 
269 225 273 63 69 78 
165 427 307 81 91 105 
272 77 124 127 103 82 
328 179 313 68 102 129 
244 206 160 71 118 151 
468 679 330 110 129 169 
244 207 161 67 70 113 
288 311 307 80 99 117 
218 947 337 209 161 140 
224 816 233 219 170 99 
246 207 160 65 87 125 
204 924 260 99 84 71 
377 758 277 160 137 115 
179 609 299 66 106 137 
293 802 320 213 149 125 
181 622 252 102 82 80 
169 669 207 94 119 155 
284 407 246 95 114 139 
299 343 353 153 144 143 
334 150 300 123 103 80 
161 608 319 126 123 144 
230 499 190 77 106 135 
280 533 383 42 72 130 
219 187 360 123 24 65 
284 288 359 157 101 41 
213 809 292 145 133 125 
218 302 216 124 128 137 
175 351 313 112 61 71 
243 210 163 137 17 77 
139 538 313 106 126 159 
169 618 315 104 111 149 
201 747 349 217 179 144 
267 134 332 71 33 34 
419 635 337 70 71 75 
256 589 384 187 185 192 
272 224 332 84 75 68 
380 787 286 146 124 102 
241 215 163 111 83 97 
184 814 245 149 134 124 
213 414 204 117 123 132 
280 121 335 105 58 29 
265 93 132 157 121 100 
199 817 248 188 159 132 
242 73 388 122 97 74 
194 471 266 87 91 98 
236 274 188 187 181 186 
144 572 309 153 173 202 
244 208 161 80 61 110 
164 620 350 103 116 162 
374 637 270 63 77 92 
244 208 162 88 63 110 
212 524 383 123 154 185 
275 483 239 140 146 158 
317 327 346 166 160 160 
282 642 382 94 88 115 
245 910 226 72 59 47 
308 685 214 153 166 185 
465 674 359 157 170 189 
178 719 324 125 139 157 
321 754 345 197 145 119 
246 208 160 82 64 107 
231 592 182 172 172 182 
219 186 292 66 96 122 
281 230 188 87 83 87 
282 211 152 141 97 80 
325 812 252 204 150 114 
212 211 355 134 123 114 
268 550 213 81 103 127 
185 427 291 72 88 105 
247 211 161 147 30 62 
171 783 287 147 130 118 
340 750 254 143 129 121 
183 518 190 85 115 147 
402 621 343 50 76 111 
201 433 251 95 108 135 
298 504 371 164 167 178 
245 212 163 152 38 74 
169 581 285 90 108 148 
257 964 325 139 106 88 
244 557 193 121 131 144 
245 214 163 118 99 115 
164 558 272 75 78 83 
297 376 314 142 138 140 
378 662 269 76 78 89 
173 379 324 83 103 124 
183 649 257 48 69 117 
253 1001 248 147 112 79 
222 970 259 61 44 40 
177 372 323 112 119 132 
334 188 312 104 97 106 
263 108 262 117 85 59 
180 689 210 174 170 177 
275 93 354 89 73 56 
317 563 291 101 107 117 
378 603 323 50 101 134 
213 701 368 115 137 160 
268 855 248 182 135 97 
389 604 335 41 73 96 
204 585 378 162 142 146 
147 457 330 111 122 140 
346 599 274 74 97 121 
253 141 322 63 64 73 
282 785 230 140 107 77 
189 324 309 130 64 1 
214 279 169 116 135 157 
317 353 244 214 205 209 
314 306 216 127 123 124 
182 418 294 69 90 109 
211 755 221 127 127 131 
242 218 164 141 60 72 
280 754 221 122 149 175 
225 187 298 64 91 117 
194 757 330 194 129 125 
232 448 213 111 119 131 
241 857 261 169 127 97 
299 318 248 116 110 108 
324 237 313 113 84 85 
240 222 163 146 138 134 
240 254 264 70 67 65 
212 665 203 179 173 181 
212 963 259 76 56 42 
240 351 355 49 92 125 
242 223 163 140 134 133 
218 314 197 179 140 92 
175 791 285 98 126 158 
283 882 295 172 129 99 
185 716 291 104 122 142 
299 329 228 224 168 77 
242 223 164 148 141 140 
280 714 211 168 141 140 
243 223 164 149 142 142 
378 620 301 91 112 132 
249 462 361 108 126 147 
226 289 181 127 144 166 
251 224 270 75 19 49 
250 705 371 124 82 57 
171 549 259 74 107 133 
458 674 360 186 194 212 
330 524 311 88 108 136 
411 666 289 105 111 124 
183 573 372 184 177 176 
287 530 229 158 159 169 
247 216 164 160 16 64 
221 324 363 58 88 118 
236 509 195 108 122 140 
175 630 217 77 104 130 
338 612 257 80 106 134 
287 781 339 216 159 130 
200 231 335 79 108 133 
248 897 230 99 76 51 
244 220 164 147 139 133 
280 191 199 87 17 30 
143 571 310 129 151 187 
233 861 311 114 87 56 
271 20 414 132 117 110 
337 617 364 108 76 62 
363 813 306 216 153 123 
279 572 206 106 125 145 
368 811 302 210 145 113 
256 47 358 76 67 59 
267 396 242 79 100 125 
220 948 244 112 85 55 
281 185 313 41 57 72 
208 204 291 117 118 123 
239 461 217 84 100 116 
239 272 191 133 119 147 
307 435 333 65 95 131 
299 277 203 97 114 133 
294 668 380 178 128 59 
284 583 204 108 129 151 
226 693 205 190 183 195 
324 671 228 74 111 142 
257 68 159 98 82 66 
220 263 173 144 147 156 
321 142 301 126 104 90 
220 200 279 102 83 91 
288 923 247 88 68 52 
169 348 312 122 108 93 
257 465 231 120 131 147 
238 986 301 95 81 67 
250 211 160 141 28 72 
304 821 300 213 148 122 
184 414 219 41 73 107 
210 385 214 68 93 114 
143 479 333 105 115 130 
217 788 314 216 168 107 
249 212 162 161 10 70 
243 310 345 121 64 3 
347 599 369 148 117 95 
248 214 163 119 106 117 
213 690 367 142 156 174 
226 436 204 136 142 154 
371 700 341 147 100 101 
176 524 246 121 125 136 
240 835 248 195 139 107 
435 700 353 166 193 224 
205 913 312 163 123 96 
251 212 161 161 0 54 
235 262 254 93 76 58 
252 530 212 113 118 126 
184 725 285 113 124 139 
254 430 235 94 109 130 
175 387 338 134 131 133 
301 433 373 98 129 171 
266 844 301 164 124 93 
173 561 242 66 65 67 
180 703 213 109 129 201 
325 758 241 124 110 98 
228 106 367 98 64 76 
148 496 246 149 105 95 
145 483 341 120 131 148 
148 567 223 123 91 61 
210 297 177 135 32 58 
289 257 336 131 76 48 
297 505 377 72 96 154 
265 98 136 134 109 85 
313 669 215 128 123 131 
191 408 252 92 116 140 
301 267 193 55 93 122 
184 298 294 136 111 82 
219 303 257 59 62 66 
167 464 289 109 109 112 
315 327 226 187 85 120 
222 458 368 115 122 135 
445 641 316 98 117 137 
162 452 240 113 88 76 
286 286 301 115 114 118 
319 547 352 152 156 165 
340 813 264 222 168 130 
195 287 322 146 124 101 
251 217 163 175 0 67 
282 220 359 141 127 129 
283 28 124 116 107 102 
415 612 327 76 100 124 
270 74 333 111 78 62 
346 739 346 167 160 161 
249 559 382 121 136 157 
322 536 346 101 116 137 
253 502 219 79 104 129 
249 219 164 173 113 108 
281 463 238 123 138 165 
212 783 217 141 85 63 
197 614 267 116 135 161 
293 864 270 131 90 70 
286 919 244 92 72 52 
372 692 269 156 53 69 
201 917 266 79 68 58 
335 164 295 144 77 8 
195 701 360 149 163 183 
240 770 341 223 185 151 
316 688 385 201 95 29 
210 596 182 169 155 157 
322 664 377 98 128 157 
353 700 347 48 31 68 
293 296 231 143 140 142 
286 935 245 57 46 41 
273 153 146 114 88 76 
212 315 358 117 34 75 
257 169 206 103 34 20 
166 720 266 108 126 147 
212 760 340 130 125 128 
182 750 330 173 27 51 
438 661 305 109 124 143 
295 555 373 119 138 160 
158 697 234 82 96 144 
246 228 349 118 129 146 
193 557 376 97 147 187 
319 736 234 72 78 106 
147 463 213 100 87 74 
180 276 291 147 10 71 
149 547 294 91 102 124 
252 217 163 175 0 63 
232 130 332 60 69 78 
263 463 234 124 133 148 
216 317 182 179 54 99 
396 770 325 165 162 164 
175 746 300 107 108 120 
309 559 279 137 132 132 
145 525 233 133 96 71 
276 236 241 82 42 51 
206 625 197 77 129 168 
212 659 373 136 135 140 
155 650 247 102 126 158 
243 165 278 62 64 70 
266 198 316 81 67 69 
176 724 273 77 102 128 
407 724 287 128 47 44 
207 804 291 139 101 64 
255 218 163 184 39 64 
278 97 357 100 88 79 
247 123 377 67 49 85 
319 503 279 127 131 141 
334 223 306 99 105 118 
330 487 308 82 105 143 
195 702 360 140 155 173 
291 825 297 201 145 121 
241 566 190 109 127 147 
413 757 311 142 119 101 
192 476 262 83 89 98 
282 228 192 117 12 45 
313 330 247 122 125 131 
304 309 230 119 27 46 
271 390 244 52 91 125 
215 186 290 68 97 121 
257 505 371 156 156 163 
222 961 326 151 115 102 
192 414 251 80 100 134 
437 704 304 161 168 182 
194 408 257 72 95 137 
320 779 330 207 149 116 
319 363 275 135 139 149 
186 354 348 97 107 121 
332 562 312 148 148 155 
254 223 165 186 170 169 
215 196 291 70 97 120 
202 365 216 59 106 152 
234 862 298 106 78 50 
149 518 280 97 104 131 
259 868 241 138 105 72 
225 225 157 81 116 144 
247 850 253 160 121 89 
224 224 159 80 118 149 
288 235 306 45 51 59 
273 73 148 111 92 73 
315 428 319 64 94 141 
305 613 239 117 117 121 
222 672 370 186 192 207 
284 543 387 132 152 176 
456 651 330 78 88 99 
147 629 232 148 102 74 
331 178 311 61 98 127 
249 554 199 108 123 141 
296 807 314 211 151 129 
195 607 372 110 117 153 
194 721 217 108 120 138 
314 441 326 130 140 155 
290 660 205 177 175 181 
219 208 360 153 68 6 
400 743 336 170 148 130 
159 646 251 82 110 143 
224 880 286 106 84 60 
194 265 294 143 121 97 
305 476 258 72 92 117 
206 526 176 112 141 174 
