ply
format ascii 1.0
comment Created by CloudCompare v2.11.1 (Anoia)
comment Created 2/28/22 9:36 PM
obj_info Generated by CloudCompare!
element vertex 2012
property float x
property float y
property float z
property uchar red
property uchar green
property uchar blue
end_header
263 790 345 227 172 151 
317 627 396 84 87 94 
330 394 322 47 93 128 
309 343 325 157 124 90 
362 721 282 126 85 81 
270 612 214 164 160 165 
141 516 297 151 164 183 
159 465 226 162 115 105 
157 638 234 137 99 62 
231 400 374 151 145 147 
238 541 398 139 152 171 
144 495 359 154 151 156 
304 321 311 120 110 104 
409 703 368 156 64 78 
184 372 254 60 80 98 
165 402 323 65 84 103 
169 321 307 152 115 77 
283 407 279 118 136 172 
288 279 376 119 134 152 
192 520 208 178 178 187 
337 642 400 147 180 214 
165 570 281 67 89 135 
208 699 382 113 133 155 
203 498 398 72 101 140 
215 509 397 97 114 139 
290 851 303 193 142 112 
164 491 388 84 107 141 
430 627 340 94 113 132 
143 469 338 97 106 120 
444 678 335 86 107 134 
215 657 224 150 153 162 
187 352 354 78 101 124 
348 159 294 172 100 60 
176 468 395 64 91 121 
312 472 364 151 155 164 
239 170 249 84 39 35 
208 361 378 53 88 129 
166 324 309 147 65 1 
269 947 343 149 114 89 
161 776 260 63 68 114 
189 794 300 129 121 128 
166 529 258 92 88 88 
256 940 252 87 65 37 
329 298 356 85 120 150 
217 970 287 109 80 64 
279 721 389 127 114 106 
208 309 236 133 129 131 
224 177 227 82 51 66 
285 572 227 123 123 127 
192 479 205 88 115 146 
184 504 241 63 82 103 
207 374 242 73 95 122 
305 467 282 102 112 127 
225 176 229 83 40 52 
302 455 397 100 130 167 
294 193 224 96 35 51 
378 624 315 39 37 37 
207 924 344 171 140 114 
259 127 320 91 55 31 
291 163 356 53 41 64 
265 151 335 70 53 52 
224 823 259 202 181 168 
215 902 263 144 116 85 
226 176 231 86 42 32 
310 265 330 70 52 70 
266 722 383 97 101 108 
345 639 392 124 164 201 
157 587 261 138 102 85 
313 642 246 112 131 154 
321 271 333 80 118 158 
260 226 195 200 183 187 
285 35 144 104 99 95 
256 490 247 11 51 79 
324 535 301 114 124 139 
222 299 218 148 119 129 
303 254 326 93 68 70 
200 712 227 117 134 160 
228 259 250 69 83 99 
187 767 329 166 110 123 
340 666 386 76 125 161 
181 303 308 151 127 101 
291 295 371 99 117 135 
180 715 328 136 144 156 
158 445 253 111 86 69 
233 639 213 135 94 118 
277 84 132 146 112 93 
224 280 268 86 94 104 
204 175 294 71 99 124 
157 575 297 42 65 134 
434 693 382 173 193 219 
314 180 313 69 53 68 
181 532 270 110 104 102 
205 448 271 78 94 122 
233 668 219 139 86 83 
182 281 296 143 41 43 
334 161 302 162 72 10 
186 444 225 118 125 134 
159 558 289 66 82 102 
193 682 224 140 144 160 
227 177 232 91 41 33 
300 273 291 136 134 138 
261 911 355 202 150 126 
267 142 263 130 89 1 
144 518 257 142 100 82 
151 593 352 161 157 178 
180 500 397 192 186 187 
380 780 349 166 143 121 
288 846 305 186 139 110 
275 965 320 109 86 74 
173 609 262 124 93 86 
315 298 248 90 108 128 
156 477 372 72 102 128 
216 918 263 62 51 44 
201 630 298 109 116 128 
322 334 264 184 114 134 
256 487 249 107 117 129 
265 977 314 105 83 76 
227 181 233 96 48 56 
227 180 234 92 39 38 
245 935 361 192 145 117 
236 436 375 97 117 147 
440 677 389 165 185 221 
313 526 294 128 129 136 
301 728 396 178 154 135 
282 122 345 106 56 23 
227 183 233 101 47 63 
274 129 257 116 105 95 
286 311 381 120 93 119 
219 753 366 88 71 118 
300 238 248 77 107 132 
204 613 231 147 146 154 
236 587 200 182 181 194 
340 660 271 145 141 142 
258 887 254 62 51 50 
226 976 291 96 69 49 
139 567 347 126 137 151 
276 298 380 127 18 51 
232 196 366 130 105 116 
192 381 284 98 116 142 
253 910 239 82 67 56 
196 789 309 60 46 57 
142 515 360 49 68 89 
141 530 312 69 101 149 
227 182 239 82 43 33 
293 309 252 131 156 207 
194 348 373 63 93 119 
277 947 334 96 74 56 
192 746 360 190 69 76 
175 482 215 158 161 173 
228 177 234 95 45 38 
353 193 306 149 111 116 
301 291 325 124 124 129 
357 169 297 174 79 10 
205 756 353 135 110 110 
198 622 298 91 93 128 
303 302 241 208 201 208 
282 121 363 120 85 72 
228 177 238 94 44 37 
245 301 257 112 143 189 
217 198 363 147 70 6 
168 726 275 111 115 139 
286 228 374 94 55 79 
282 88 156 121 101 81 
244 837 265 190 137 102 
286 234 280 50 41 31 
260 109 268 117 95 74 
181 714 328 130 138 152 
159 438 323 40 62 80 
178 679 274 141 138 143 
312 322 364 82 68 68 
177 506 397 92 118 168 
474 676 379 147 169 207 
186 578 247 76 76 91 
237 749 224 109 103 101 
259 127 334 94 63 36 
224 186 226 77 41 25 
214 211 301 128 125 129 
175 682 274 140 140 147 
253 583 202 114 137 166 
405 678 378 152 173 197 
462 680 384 157 172 216 
278 71 163 93 79 64 
191 676 224 122 130 163 
300 908 306 136 100 73 
258 137 237 116 96 78 
327 336 355 111 121 136 
297 211 236 31 51 83 
224 187 228 121 45 26 
280 751 380 122 133 147 
225 186 229 119 53 47 
192 523 208 126 144 168 
314 483 291 102 115 132 
377 751 358 191 166 144 
332 539 327 104 121 141 
295 517 274 78 92 105 
253 524 219 112 119 129 
136 456 259 116 89 74 
295 516 274 102 116 132 
226 186 230 110 40 49 
268 34 401 143 112 91 
387 702 365 166 119 45 
230 306 253 186 127 21 
266 150 329 66 55 58 
302 256 265 79 112 139 
337 760 358 150 108 79 
286 521 260 142 146 153 
333 233 328 72 81 96 
181 668 325 24 55 105 
179 796 292 133 117 117 
310 921 319 155 118 90 
326 624 258 80 108 135 
178 714 354 139 152 170 
197 310 345 144 67 3 
193 764 337 143 156 178 
303 467 389 101 118 155 
285 145 192 114 116 121 
402 615 337 60 104 136 
373 804 315 199 136 105 
224 190 228 135 46 32 
224 191 228 136 47 30 
263 192 260 71 33 24 
261 123 314 100 62 43 
225 191 228 133 46 36 
212 261 362 74 117 151 
201 948 308 102 82 66 
266 72 385 127 103 81 
288 406 279 122 135 164 
165 642 263 66 90 130 
179 541 262 71 100 127 
226 718 232 129 129 135 
155 552 260 133 98 83 
268 104 292 134 81 12 
290 560 397 105 124 150 
258 98 333 110 55 16 
226 238 290 76 81 88 
284 398 278 91 109 136 
193 631 277 57 80 123 
192 247 293 127 30 35 
291 205 342 86 39 60 
254 858 349 131 97 67 
304 429 286 141 147 168 
223 778 344 170 131 99 
358 606 372 87 88 92 
279 199 176 97 118 139 
172 400 357 78 100 122 
268 924 350 183 144 114 
257 510 395 77 104 141 
412 709 370 122 26 60 
272 223 286 41 36 49 
274 780 247 169 147 128 
294 248 279 72 101 125 
286 48 139 148 139 137 
309 301 262 153 121 77 
209 639 234 89 77 84 
354 622 284 149 148 153 
245 863 355 178 133 118 
172 345 320 110 96 86 
267 780 354 220 167 145 
335 170 303 105 99 99 
227 185 239 57 41 43 
267 539 227 123 123 128 
289 173 204 132 89 65 
266 194 362 134 41 22 
245 341 362 137 137 142 
354 655 284 138 146 160 
191 363 253 84 94 106 
326 478 343 175 169 171 
196 292 282 109 110 116 
202 263 294 149 124 96 
191 337 349 97 69 66 
388 666 296 61 67 76 
263 197 262 64 43 36 
279 110 165 109 92 74 
309 366 286 72 93 119 
323 626 255 108 127 150 
140 558 329 120 134 153 
189 262 294 178 144 105 
214 560 399 182 176 178 
232 145 319 83 85 92 
215 946 263 126 96 69 
322 370 289 95 123 178 
287 177 353 69 24 33 
201 247 323 78 93 109 
331 574 343 140 139 144 
420 638 374 109 92 75 
238 868 354 147 115 91 
254 678 402 156 126 93 
304 828 271 207 152 116 
316 585 375 150 148 151 
286 36 129 125 115 109 
155 546 233 129 98 63 
227 189 238 39 48 68 
304 310 296 111 108 109 
219 989 281 157 131 104 
268 272 224 87 154 203 
177 421 382 157 152 153 
213 200 360 144 70 10 
292 661 403 188 162 137 
226 530 399 149 147 152 
183 359 343 102 115 130 
257 149 161 152 122 124 
214 915 267 76 60 54 
183 676 323 33 51 88 
199 242 298 138 93 33 
255 573 202 125 136 154 
320 141 310 120 101 86 
364 756 360 147 100 93 
253 673 400 87 74 76 
178 565 239 123 93 76 
180 426 254 25 53 118 
323 515 324 111 126 145 
236 152 268 83 85 91 
230 625 210 179 159 162 
186 505 397 135 147 166 
265 78 122 168 132 89 
230 176 240 90 46 36 
299 246 264 62 83 101 
241 356 365 64 98 128 
202 431 283 115 116 123 
300 251 324 97 67 65 
315 319 285 107 97 105 
145 565 309 56 97 138 
226 725 381 101 56 72 
341 604 333 64 78 93 
286 182 291 93 68 61 
142 446 242 109 91 73 
246 777 238 134 124 120 
220 137 293 44 63 80 
269 76 175 97 82 66 
279 940 335 109 86 71 
185 324 316 132 66 10 
242 228 285 83 80 81 
345 773 349 189 134 97 
336 620 267 135 137 146 
227 547 196 163 168 187 
278 484 401 126 147 171 
330 329 357 102 122 144 
266 84 303 123 97 67 
219 211 365 160 69 7 
184 331 279 136 121 111 
408 683 299 117 128 148 
292 161 365 42 40 41 
228 183 242 39 40 40 
328 377 315 86 115 142 
239 852 294 147 109 80 
258 866 356 181 133 108 
280 861 313 168 126 96 
167 555 231 126 97 67 
210 668 236 47 61 78 
165 740 235 128 138 197 
195 816 257 211 162 131 
196 271 341 127 121 119 
230 913 246 153 127 100 
231 275 212 174 179 192 
210 765 233 147 162 181 
183 370 363 102 114 129 
256 694 396 207 150 69 
283 249 377 80 116 146 
287 893 293 102 75 61 
286 204 341 73 34 58 
231 135 304 102 46 66 
227 184 241 41 39 36 
148 526 292 124 129 165 
446 705 338 176 181 194 
300 217 340 32 43 68 
138 474 261 146 106 99 
220 742 374 177 88 99 
228 270 267 84 84 85 
302 311 332 62 78 93 
262 133 208 94 82 73 
268 214 277 47 44 48 
206 788 319 166 144 125 
384 665 370 117 150 181 
189 406 270 84 104 137 
306 380 382 141 124 114 
373 636 294 133 137 146 
275 458 399 74 108 155 
254 613 399 169 123 109 
218 912 347 104 96 92 
227 191 241 32 47 74 
387 621 385 117 97 75 
264 774 244 110 90 87 
332 385 301 83 114 166 
228 992 258 140 97 57 
233 781 345 225 205 194 
228 184 242 39 39 39 
189 300 310 148 126 103 
267 115 146 161 129 108 
229 184 243 38 40 44 
318 494 299 117 129 147 
213 483 393 98 111 127 
293 191 224 92 33 51 
215 967 256 120 99 75 
277 117 160 131 105 76 
180 385 313 54 81 110 
263 111 303 85 78 73 
291 952 278 114 92 71 
200 260 321 132 114 97 
248 831 310 171 126 101 
361 796 291 163 118 83 
252 806 330 207 149 130 
274 41 149 150 135 133 
319 575 371 158 151 151 
266 205 181 44 110 153 
159 746 248 78 105 143 
220 622 213 95 144 184 
259 136 255 111 85 59 
280 323 269 92 120 155 
305 810 265 164 120 80 
324 558 365 101 121 142 
319 576 371 135 130 131 
233 579 198 158 160 173 
261 49 399 125 97 75 
289 683 231 81 140 187 
317 328 294 134 79 95 
165 696 226 142 154 170 
182 604 384 62 66 83 
136 511 315 116 139 166 
228 189 243 32 36 53 
267 155 341 94 55 37 
331 515 346 96 112 131 
200 253 351 84 64 78 
163 710 262 144 146 154 
223 800 321 179 158 146 
359 743 282 119 109 103 
161 491 268 78 73 77 
209 308 208 142 141 159 
302 244 249 84 113 138 
270 709 388 133 121 121 
221 274 212 137 141 151 
286 515 268 81 113 141 
280 888 270 75 58 51 
161 739 247 90 110 141 
292 562 237 118 130 146 
230 188 246 51 50 76 
221 901 266 103 81 54 
230 189 247 24 47 69 
205 904 297 98 77 51 
142 476 335 47 61 75 
160 445 257 100 80 64 
237 988 253 108 77 57 
275 840 316 174 128 101 
241 147 371 109 43 41 
234 944 358 208 167 144 
192 810 251 43 34 45 
307 181 320 83 36 43 
208 598 217 168 169 178 
222 809 244 157 140 128 
273 202 361 116 40 28 
256 69 164 92 78 63 
291 700 395 103 82 63 
267 425 274 49 82 107 
305 364 346 99 95 95 
153 405 337 146 145 150 
328 493 359 144 153 168 
303 298 288 109 114 123 
197 747 362 161 106 98 
377 623 314 43 43 48 
279 131 200 109 88 58 
233 179 245 38 43 47 
314 359 377 180 152 124 
158 614 333 151 149 160 
267 113 279 103 75 36 
284 597 221 106 127 151 
301 623 235 131 136 148 
268 166 228 90 31 28 
226 392 242 74 97 120 
218 479 391 141 146 157 
337 681 266 130 144 163 
195 661 310 71 84 118 
356 693 282 129 139 151 
276 176 170 116 113 119 
267 969 249 136 108 75 
220 283 363 109 84 92 
291 306 251 116 134 195 
296 562 247 159 160 167 
232 978 334 109 92 78 
221 381 244 74 97 127 
218 171 300 114 93 97 
296 653 231 152 153 161 
314 385 339 67 103 132 
235 990 299 120 96 74 
224 270 252 130 126 126 
232 183 245 42 37 35 
259 102 127 144 118 87 
169 622 228 156 104 81 
328 523 302 94 126 157 
319 391 336 58 102 133 
147 475 316 45 75 99 
141 560 323 130 138 151 
178 697 277 120 124 133 
271 311 375 126 49 79 
211 203 358 130 90 39 
287 59 138 107 86 65 
218 921 352 126 105 85 
245 991 252 155 122 93 
296 659 404 105 135 164 
280 709 234 151 152 163 
140 579 342 128 126 131 
394 621 329 97 111 127 
309 424 287 83 106 135 
164 435 364 124 130 142 
182 808 255 103 113 131 
319 405 295 89 116 145 
327 595 363 52 62 71 
306 327 312 139 98 46 
268 293 249 208 193 201 
314 322 344 79 85 95 
321 575 365 139 137 141 
139 469 234 168 114 103 
255 523 223 113 118 126 
185 675 353 109 117 169 
285 260 203 167 143 128 
361 708 364 122 124 134 
232 433 230 115 122 133 
342 738 269 144 121 99 
226 524 398 111 127 147 
420 747 336 86 85 131 
265 861 256 141 110 82 
299 684 399 189 100 50 
328 157 302 166 74 12 
230 942 254 83 61 42 
400 682 297 143 148 159 
191 638 383 97 120 174 
413 639 326 27 61 102 
319 428 350 116 126 140 
239 178 249 36 34 39 
262 859 248 168 125 87 
281 171 288 103 59 6 
176 644 361 147 152 191 
236 180 248 37 37 38 
300 765 367 208 151 120 
268 646 402 83 44 43 
169 383 264 113 131 152 
292 304 373 103 109 120 
278 304 261 134 145 178 
187 453 396 110 124 142 
194 458 290 79 87 98 
175 555 388 119 154 187 
194 451 211 137 137 142 
262 258 218 89 144 185 
224 995 284 155 130 107 
232 635 393 159 118 116 
302 370 282 117 135 176 
213 889 307 131 104 75 
272 215 361 68 97 120 
193 655 273 67 92 130 
214 294 205 166 106 79 
336 694 385 160 101 109 
359 796 288 165 121 86 
185 436 250 126 133 144 
269 969 252 131 101 67 
271 977 309 90 68 52 
265 274 229 85 146 203 
288 53 129 133 122 114 
341 707 268 141 33 42 
411 761 340 125 119 116 
153 542 259 136 98 82 
274 614 216 165 162 166 
194 451 293 64 79 95 
297 226 257 107 35 41 
147 455 337 29 69 103 
169 769 244 158 163 178 
311 420 375 97 85 73 
293 716 239 128 144 161 
260 859 326 129 101 69 
394 778 319 166 154 148 
195 620 242 52 80 115 
242 184 256 32 42 58 
266 199 262 55 44 40 
241 377 259 79 101 123 
153 589 323 54 68 119 
200 637 305 87 105 129 
324 716 253 112 57 66 
196 574 230 137 136 147 
218 367 377 36 85 126 
271 554 405 40 70 116 
234 185 249 47 43 72 
218 444 383 152 146 146 
248 202 268 56 34 30 
321 333 292 128 52 79 
172 404 359 75 97 123 
470 672 362 139 157 178 
196 377 382 61 90 134 
433 651 333 89 103 119 
191 515 264 85 98 114 
274 555 223 83 108 131 
229 659 389 74 123 162 
198 931 296 76 60 51 
205 309 367 126 119 116 
277 223 180 180 77 104 
316 412 290 87 105 127 
189 554 392 93 146 186 
233 188 249 35 52 69 
321 738 253 133 138 146 
215 178 298 73 76 87 
273 749 379 124 133 149 
215 198 300 65 98 124 
133 459 257 126 90 76 
260 12 427 116 91 69 
264 79 123 168 133 88 
242 450 376 121 131 146 
284 127 309 100 90 82 
474 672 378 66 55 72 
212 892 334 150 111 85 
433 644 352 64 96 125 
193 814 277 162 138 117 
178 594 289 93 111 151 
258 824 316 167 117 98 
251 435 376 76 103 129 
281 883 334 169 128 97 
269 895 250 69 54 42 
320 274 345 67 94 117 
318 755 366 201 146 117 
232 271 214 148 166 190 
470 681 376 196 201 226 
235 190 253 47 45 51 
235 191 252 45 44 52 
237 420 240 74 96 121 
312 406 289 132 142 165 
236 184 250 34 47 61 
202 641 288 110 123 146 
217 795 321 209 184 166 
257 268 230 77 144 193 
156 528 259 116 86 74 
219 724 236 60 83 105 
211 922 348 135 105 86 
264 79 334 101 75 58 
290 833 309 197 145 118 
352 164 311 153 87 10 
165 394 322 81 100 123 
237 186 252 16 40 55 
268 104 137 139 116 95 
238 184 252 36 47 60 
238 185 252 30 46 58 
229 500 201 25 67 114 
275 734 386 187 149 106 
244 181 261 59 56 58 
260 501 399 124 142 168 
250 835 261 197 139 101 
238 187 252 25 44 57 
307 407 286 126 132 146 
457 696 357 148 175 204 
249 425 373 125 132 144 
296 630 231 78 109 138 
317 161 305 121 84 60 
327 486 320 154 158 168 
351 650 372 101 144 182 
172 457 233 80 72 75 
167 441 235 112 93 74 
318 801 333 213 152 122 
320 420 347 76 103 138 
308 236 322 59 52 84 
299 491 281 64 90 123 
316 201 310 134 21 31 
236 190 253 44 44 52 
189 344 262 97 84 87 
316 832 289 230 172 134 
163 707 259 99 119 147 
236 260 216 135 126 120 
250 513 222 82 104 125 
283 495 275 63 85 109 
205 244 317 81 86 94 
275 63 339 107 82 54 
318 497 296 138 144 156 
238 189 255 51 43 48 
318 911 321 134 112 93 
222 912 347 83 62 48 
219 586 205 176 173 179 
327 336 280 112 129 148 
197 299 317 103 108 117 
373 806 326 206 141 108 
143 444 255 106 80 67 
286 756 377 150 155 165 
294 863 296 144 99 71 
184 655 362 120 141 166 
281 940 256 99 71 44 
171 795 285 119 117 128 
233 184 367 142 37 46 
297 465 271 153 155 166 
162 708 249 134 139 150 
413 636 395 83 68 51 
233 633 393 183 175 175 
356 779 347 195 145 115 
377 786 302 154 127 100 
226 287 219 140 140 147 
246 161 236 94 80 76 
324 348 355 141 15 66 
298 339 285 70 85 131 
277 935 337 133 102 78 
178 485 212 148 158 175 
247 162 236 96 70 60 
268 980 250 149 118 84 
444 678 390 153 180 219 
358 174 304 169 79 9 
322 505 367 102 124 147 
423 729 321 167 56 30 
177 355 312 97 87 81 
172 337 318 116 100 87 
184 335 278 130 115 104 
144 458 231 120 97 72 
201 405 235 97 115 137 
235 984 309 106 80 56 
201 228 291 99 110 124 
233 705 385 85 113 147 
425 644 365 100 84 69 
162 473 302 66 82 97 
154 534 259 129 94 80 
185 377 370 139 139 143 
145 458 257 104 84 75 
275 172 361 72 34 37 
213 650 226 133 49 63 
331 204 315 117 61 42 
225 379 246 71 96 122 
168 605 319 46 54 92 
136 535 338 118 124 151 
225 542 402 146 155 170 
302 279 282 138 135 139 
266 66 167 90 77 63 
284 238 210 142 139 141 
284 229 184 167 59 79 
181 463 293 72 81 92 
282 755 244 134 116 101 
266 153 326 95 55 49 
240 856 287 157 119 89 
282 405 278 146 157 178 
308 544 284 121 130 146 
207 214 353 94 112 131 
250 173 269 83 64 61 
266 79 374 118 97 75 
226 538 195 168 174 189 
177 661 340 123 133 157 
337 753 265 151 135 124 
259 461 389 90 121 150 
199 470 254 94 102 116 
230 153 307 103 78 72 
263 96 127 154 124 89 
428 731 363 178 48 61 
211 895 333 159 118 93 
329 708 386 149 125 116 
249 165 236 88 66 53 
267 560 214 101 89 81 
166 479 289 76 86 99 
240 999 271 147 114 90 
235 486 208 73 97 121 
334 672 265 163 156 155 
319 397 373 153 129 104 
198 620 283 93 110 148 
263 286 365 80 104 128 
420 654 322 50 67 89 
173 624 229 154 107 70 
275 84 178 100 82 62 
207 742 372 205 55 87 
260 435 267 74 105 137 
217 294 221 97 115 135 
158 621 259 145 107 89 
179 583 231 130 96 71 
169 637 265 77 103 145 
282 227 297 68 52 43 
179 510 219 123 135 154 
244 718 225 170 166 175 
301 312 248 205 185 171 
324 316 346 123 133 148 
326 516 336 128 139 154 
227 161 279 69 69 72 
197 209 286 169 148 128 
174 547 284 69 65 76 
318 429 350 134 138 148 
181 711 360 139 153 171 
257 465 387 80 105 135 
184 298 307 144 120 95 
336 597 366 48 57 67 
452 639 362 130 135 145 
275 137 292 95 58 22 
199 780 321 113 110 114 
380 613 368 48 69 87 
286 231 193 129 49 66 
202 260 354 104 110 121 
292 206 298 115 90 65 
172 308 303 172 142 107 
244 492 221 111 125 143 
321 430 348 149 146 151 
255 163 234 102 70 48 
235 983 326 116 93 76 
161 527 287 97 96 99 
188 716 292 78 103 129 
152 556 380 66 72 114 
220 421 381 151 150 156 
192 340 262 96 94 98 
278 199 251 47 34 27 
259 234 357 147 148 156 
311 489 280 128 145 181 
314 821 313 210 151 118 
315 390 341 66 108 141 
342 610 394 148 109 97 
139 502 304 88 114 140 
301 735 392 208 182 159 
208 677 382 98 97 104 
177 729 339 127 148 170 
273 457 268 106 120 142 
404 770 337 175 149 126 
174 459 259 67 81 104 
160 392 324 84 105 129 
253 167 237 88 62 43 
296 930 295 79 63 53 
266 565 213 89 98 110 
330 488 327 120 136 155 
287 858 276 177 135 100 
205 374 381 45 83 131 
298 939 310 88 70 57 
187 363 250 102 107 115 
185 696 279 114 117 128 
286 156 350 63 42 51 
336 263 331 70 99 123 
209 246 298 90 95 104 
308 188 321 84 55 73 
261 683 221 110 146 193 
299 207 338 92 31 44 
209 901 289 141 104 80 
267 136 317 114 53 19 
266 947 249 78 63 45 
298 283 307 74 94 113 
278 398 393 79 101 139 
254 168 237 88 62 42 
160 480 293 69 80 94 
429 618 355 113 118 126 
266 197 280 68 58 45 
184 721 310 140 148 162 
167 420 243 137 144 159 
289 238 371 79 119 150 
369 753 290 154 134 117 
399 659 299 62 93 124 
259 289 251 201 183 192 
139 518 351 95 111 140 
278 724 236 122 135 153 
291 183 223 112 59 35 
166 688 269 89 111 152 
327 384 320 56 97 136 
369 729 362 85 87 92 
283 909 259 59 49 47 
181 574 388 127 144 168 
218 795 235 65 45 39 
225 323 370 130 132 139 
260 982 307 117 94 77 
198 574 222 155 152 157 
246 129 270 108 71 46 
285 493 402 160 170 186 
266 951 344 157 118 93 
274 40 122 82 78 75 
303 473 394 89 118 158 
396 774 346 195 174 156 
238 241 263 111 105 103 
415 653 400 157 176 220 
239 332 363 124 124 130 
242 377 261 110 118 131 
167 801 269 181 147 128 
364 730 284 154 144 138 
355 800 285 176 127 92 
359 654 367 133 163 194 
338 633 268 98 124 151 
284 145 188 110 114 121 
314 434 358 141 142 151 
339 150 309 120 99 86 
255 989 249 143 107 77 
296 447 282 116 119 125 
204 768 338 148 126 108 
247 163 245 112 66 40 
391 752 358 177 154 132 
372 797 341 209 147 113 
264 576 406 55 94 134 
302 838 300 206 148 119 
214 821 280 160 140 124 
245 164 243 110 63 37 
245 165 242 106 63 35 
302 293 285 102 117 134 
180 263 292 207 168 121 
284 667 393 138 108 81 
316 598 255 121 122 126 
180 597 287 135 149 173 
312 451 365 59 87 131 
179 732 350 156 174 198 
276 371 393 84 118 158 
302 302 296 106 117 131 
278 200 346 57 38 43 
185 517 213 137 152 174 
270 970 269 115 91 67 
262 154 256 103 89 82 
248 999 288 98 72 56 
220 285 229 82 103 123 
402 772 334 175 145 114 
326 532 336 163 157 157 
310 358 377 153 132 113 
320 192 312 84 60 71 
322 512 317 126 137 152 
258 901 242 71 60 52 
211 936 347 175 134 109 
295 238 273 71 74 76 
169 761 242 172 182 200 
268 73 369 119 100 82 
237 144 268 82 63 65 
185 721 301 101 116 135 
180 552 390 102 151 191 
168 388 261 104 122 142 
190 787 240 107 69 107 
227 494 201 86 108 132 
191 319 320 134 61 0 
247 204 358 135 133 134 
413 662 315 65 78 92 
158 623 341 116 121 153 
241 170 251 74 36 30 
392 778 316 180 167 158 
284 168 365 30 44 74 
315 319 282 115 111 107 
188 717 297 101 115 133 
267 100 283 129 88 40 
334 295 354 108 135 161 
404 738 300 91 105 120 
283 226 181 141 93 105 
183 647 268 19 59 103 
227 415 235 130 133 141 
296 256 210 90 110 131 
353 693 278 118 48 52 
318 556 368 119 131 147 
206 685 234 29 76 125 
167 619 229 151 103 72 
258 417 378 46 80 129 
396 619 330 88 106 123 
275 122 305 81 74 69 
382 766 354 161 148 144 
196 585 238 77 110 139 
334 401 317 84 120 159 
166 415 351 144 140 143 
201 648 305 74 87 115 
236 133 314 103 76 63 
278 231 288 52 36 34 
198 516 202 102 131 172 
208 313 269 69 72 80 
198 358 237 71 106 132 
250 821 251 96 130 159 
164 476 386 86 109 141 
198 817 261 200 176 158 
199 634 390 177 176 184 
240 175 250 51 18 46 
216 727 382 179 26 51 
176 783 244 167 81 89 
309 486 278 147 157 180 
242 173 251 53 35 36 
216 696 386 129 162 193 
299 290 323 120 120 123 
228 640 392 96 107 129 
242 172 253 62 37 29 
242 173 252 59 36 36 
316 487 292 113 122 137 
216 341 374 97 118 144 
280 919 251 53 47 46 
306 279 233 79 108 132 
303 392 385 135 119 103 
188 560 235 146 144 161 
187 475 287 71 83 96 
322 497 306 133 141 154 
273 866 322 165 125 90 
232 873 299 148 117 88 
275 154 279 72 74 85 
269 179 277 103 49 10 
205 578 212 118 145 175 
230 264 260 84 85 89 
261 914 243 56 47 42 
216 971 303 138 111 83 
263 941 249 94 77 60 
210 183 286 62 86 108 
263 445 392 38 80 138 
252 489 239 83 105 126 
267 26 151 147 129 121 
168 633 362 163 172 195 
348 599 373 41 47 54 
276 605 216 151 154 162 
287 258 377 139 142 151 
290 843 271 187 142 108 
250 160 247 108 68 50 
220 263 202 159 155 157 
283 179 182 108 99 108 
270 410 395 67 93 147 
188 790 242 167 32 28 
345 181 300 162 60 85 
267 84 373 114 93 71 
432 728 365 177 130 126 
266 90 126 178 154 133 
199 440 393 119 130 152 
360 729 364 158 142 131 
267 186 245 63 43 32 
254 861 354 156 120 98 
163 428 318 69 87 106 
263 765 241 157 153 153 
225 653 388 89 143 184 
315 904 304 100 82 70 
260 838 257 127 114 105 
442 656 366 84 72 62 
245 586 199 190 186 196 
187 665 219 150 157 177 
216 676 384 165 176 194 
249 728 227 164 175 189 
316 603 323 45 60 74 
271 157 223 79 57 30 
303 317 252 229 180 108 
291 920 269 66 55 45 
270 920 348 190 143 112 
145 587 350 103 77 117 
181 513 217 132 149 171 
326 484 342 154 153 161 
160 597 261 136 101 86 
198 433 393 84 106 138 
372 624 297 126 126 130 
329 206 314 116 66 56 
222 280 237 76 103 126 
186 817 266 150 132 115 
162 715 260 130 137 152 
171 641 333 88 102 140 
251 162 249 104 61 42 
251 875 261 116 88 75 
321 513 314 94 116 139 
284 285 381 103 95 107 
416 638 397 80 92 106 
281 211 256 85 40 16 
321 615 391 141 99 83 
181 627 228 77 108 138 
300 320 267 135 145 187 
313 313 276 127 58 72 
377 676 366 81 91 143 
235 217 361 103 121 141 
244 187 361 143 35 25 
286 69 144 113 93 73 
251 164 250 99 57 50 
280 88 137 138 98 84 
253 984 312 129 108 90 
289 238 370 81 114 141 
194 492 398 143 152 168 
280 783 354 223 165 140 
323 537 301 103 116 132 
167 445 255 57 61 81 
252 161 250 105 66 43 
233 746 371 157 167 183 
298 282 245 115 121 131 
312 752 372 197 174 154 
188 803 247 151 63 54 
275 938 338 135 98 76 
200 333 254 81 95 110 
302 222 315 66 54 65 
253 669 217 183 180 193 
304 227 316 56 55 73 
262 900 241 61 52 45 
239 955 353 228 184 166 
304 244 345 102 79 85 
210 709 385 117 162 201 
278 821 260 149 114 78 
353 186 301 160 83 93 
342 747 368 122 101 91 
428 643 357 81 101 134 
184 639 374 137 148 197 
223 899 348 178 134 113 
334 395 312 62 111 154 
259 114 193 78 67 57 
249 594 403 167 174 190 
204 358 249 70 99 131 
173 585 280 65 110 151 
267 217 285 34 42 51 
220 294 261 69 89 107 
326 351 368 187 157 127 
267 730 382 152 131 114 
256 28 411 184 160 159 
198 281 341 159 134 107 
255 510 392 126 139 157 
296 348 276 56 93 131 
318 894 308 128 110 95 
388 677 294 123 126 133 
375 637 396 54 92 184 
179 443 239 73 80 88 
260 122 199 71 62 55 
292 913 269 86 71 58 
222 283 257 110 101 96 
140 519 310 96 119 157 
309 768 362 204 147 117 
250 530 209 83 101 119 
171 726 228 132 165 210 
252 165 254 80 67 50 
294 523 393 159 163 174 
200 257 352 101 112 129 
252 166 253 75 63 49 
329 527 347 111 128 149 
248 869 268 100 84 68 
146 545 252 148 107 85 
269 492 263 63 92 119 
428 665 325 69 83 108 
252 167 255 71 65 59 
329 680 261 136 150 167 
260 218 191 185 69 90 
169 511 393 102 132 166 
229 995 289 145 109 80 
427 693 308 158 168 185 
267 822 256 189 131 92 
288 43 137 120 107 99 
214 183 359 104 42 65 
395 680 294 127 131 140 
196 495 264 94 101 111 
266 80 334 104 77 59 
195 311 274 138 81 33 
265 148 369 99 50 62 
341 598 365 50 56 64 
181 548 268 60 85 107 
300 708 398 103 102 102 
213 969 303 95 75 60 
275 985 271 140 109 80 
294 699 237 157 177 202 
322 623 388 62 52 48 
440 675 391 122 150 215 
250 170 242 92 65 39 
317 565 370 125 125 132 
279 763 371 133 119 114 
235 227 259 67 33 62 
317 815 269 195 142 105 
249 997 254 116 85 58 
281 185 190 136 65 73 
301 890 313 102 81 62 
295 909 314 173 116 99 
268 190 362 126 39 35 
171 467 265 75 79 90 
287 173 198 132 96 69 
273 75 346 121 93 77 
367 631 291 152 151 156 
270 170 232 89 24 31 
248 903 243 70 58 48 
217 295 219 123 127 136 
359 648 287 113 136 161 
292 597 229 95 112 132 
238 861 311 125 93 66 
292 323 276 160 161 183 
207 309 214 125 113 104 
249 940 251 106 83 56 
183 678 325 48 61 87 
337 267 334 71 109 138 
166 643 263 86 107 134 
257 851 257 129 110 93 
209 654 239 80 87 113 
356 669 284 142 143 152 
326 629 258 111 128 149 
312 375 361 139 114 85 
353 630 283 146 147 154 
195 310 362 124 111 100 
190 306 278 146 100 66 
286 961 312 115 97 81 
193 393 280 97 119 145 
262 824 317 172 120 106 
169 433 253 88 104 124 
253 171 242 90 63 38 
267 387 385 46 81 132 
359 814 329 215 153 119 
193 567 232 149 154 168 
233 778 348 179 142 112 
318 640 252 120 137 159 
220 423 228 76 104 130 
252 170 247 82 63 48 
365 764 358 122 99 86 
281 149 209 63 73 85 
293 217 309 81 71 75 
319 218 321 95 63 69 
253 173 243 84 63 43 
182 691 330 25 55 107 
419 669 313 77 85 97 
278 167 328 80 37 36 
199 385 385 56 83 126 
235 964 345 153 114 100 
255 172 242 89 63 39 
177 543 251 97 87 97 
432 731 361 186 51 60 
194 298 313 147 129 113 
182 379 269 103 122 146 
138 514 329 76 104 130 
226 231 291 93 94 102 
270 87 294 123 105 90 
263 38 380 76 66 55 
309 350 331 92 113 134 
279 222 178 176 63 90 
330 266 343 134 135 141 
296 947 292 103 87 70 
173 471 215 106 120 140 
141 507 357 48 67 84 
191 648 271 52 70 124 
403 679 375 103 130 155 
259 131 329 83 64 51 
295 813 329 206 150 127 
337 160 315 136 75 30 
382 653 379 147 172 199 
199 218 288 109 124 142 
160 443 316 49 52 60 
281 188 191 124 80 69 
224 772 226 168 94 67 
181 710 282 114 123 137 
248 999 289 104 77 56 
298 266 314 88 59 71 
158 487 230 185 130 116 
329 361 299 99 120 142 
218 218 305 128 129 136 
141 499 322 48 91 128 
311 647 243 95 122 149 
250 773 239 77 77 79 
401 675 378 136 159 185 
266 893 249 59 52 51 
284 139 364 59 46 61 
253 168 250 78 58 46 
432 721 325 92 87 139 
188 382 273 147 148 155 
365 723 283 103 75 81 
139 561 337 100 114 140 
316 587 264 91 102 114 
149 443 237 104 90 77 
331 302 347 97 120 142 
241 210 277 45 46 51 
312 730 391 205 169 128 
191 673 224 104 116 153 
167 530 286 119 116 123 
268 83 126 184 166 154 
265 352 376 67 97 128 
256 12 431 112 84 60 
380 635 399 57 64 136 
212 911 270 83 61 53 
350 818 303 235 171 133 
286 529 407 169 182 201 
256 54 351 98 85 73 
313 677 407 160 51 50 
197 413 389 82 108 138 
314 895 310 123 104 88 
300 231 239 103 47 65 
277 92 355 79 64 49 
238 684 391 87 78 93 
234 976 337 95 76 69 
197 632 389 123 126 134 
290 195 369 114 32 35 
303 291 253 139 142 149 
231 169 369 99 53 66 
196 253 340 121 123 130 
244 499 217 116 131 149 
317 393 297 108 114 128 
311 540 286 155 158 168 
231 264 264 96 95 97 
300 297 309 124 131 143 
226 756 224 163 20 32 
259 170 264 79 72 66 
200 216 288 136 143 155 
236 222 258 65 14 30 
251 129 266 113 78 53 
316 477 293 143 143 150 
317 661 249 147 144 149 
211 372 379 70 103 132 
252 174 250 72 62 52 
253 174 250 69 60 51 
205 239 318 118 112 110 
235 248 357 88 104 122 
253 175 251 65 58 52 
299 496 283 66 96 129 
307 622 241 152 150 153 
422 677 389 105 142 198 
253 173 252 70 63 57 
320 376 296 39 87 156 
345 703 378 73 52 55 
302 280 295 99 113 130 
202 920 280 98 84 73 
192 389 280 39 67 120 
399 737 363 103 97 102 
284 246 301 63 65 70 
208 363 378 43 81 130 
266 776 357 215 166 140 
302 192 329 50 55 76 
252 175 253 69 62 54 
253 174 252 71 64 58 
192 233 289 151 54 56 
194 668 280 131 137 148 
312 301 259 124 126 133 
305 317 250 200 139 60 
414 615 363 72 108 138 
203 289 361 125 130 140 
231 776 231 163 140 120 
240 177 250 37 28 35 
219 415 232 124 129 138 
305 472 377 86 112 148 
198 288 337 156 132 106 
291 246 224 130 127 130 
320 660 410 163 185 212 
240 178 251 40 42 43 
163 440 236 106 94 85 
178 728 352 146 167 192 
199 489 266 83 94 106 
164 551 384 129 43 62 
204 417 390 131 139 153 
299 561 386 154 159 171 
183 404 265 117 130 150 
231 817 309 178 128 109 
405 764 346 167 133 92 
324 142 308 119 95 78 
211 197 325 114 112 114 
198 258 304 117 43 44 
306 730 395 184 144 94 
242 959 350 206 154 129 
147 530 239 133 100 72 
207 716 233 58 90 124 
259 983 245 118 86 55 
228 145 303 72 75 92 
189 431 234 97 124 149 
137 539 333 83 114 161 
275 19 403 145 135 130 
170 637 335 102 120 143 
323 662 255 91 124 152 
274 189 349 43 41 41 
336 765 355 184 130 96 
159 438 356 94 109 127 
202 275 317 109 19 39 
274 190 243 48 41 35 
243 463 234 107 120 136 
444 699 378 149 182 216 
175 735 233 73 105 166 
281 166 179 134 102 100 
296 577 389 104 130 156 
308 292 336 76 72 79 
241 840 272 194 143 109 
260 765 362 117 106 101 
165 771 248 161 162 177 
385 671 367 143 167 193 
259 81 333 82 61 45 
304 454 396 118 136 168 
141 449 258 100 77 68 
251 396 370 58 86 120 
234 226 257 61 40 54 
243 180 254 39 44 53 
223 375 378 104 124 145 
330 748 370 101 86 77 
306 243 343 109 39 65 
300 491 386 101 126 172 
232 556 403 95 117 143 
242 183 254 30 44 56 
175 759 317 101 123 142 
243 182 255 34 46 57 
361 637 287 166 166 174 
414 696 304 120 122 131 
245 375 263 60 91 123 
278 15 145 101 84 70 
185 528 217 137 153 178 
214 754 363 99 68 76 
213 295 205 168 105 71 
329 586 279 101 95 92 
449 651 345 92 113 136 
189 448 299 75 86 98 
287 310 263 151 161 199 
301 316 370 103 117 135 
176 454 255 56 78 109 
378 667 295 144 141 144 
175 781 305 174 137 140 
312 367 291 69 82 130 
218 189 288 54 65 79 
138 535 353 77 95 138 
209 186 343 134 131 132 
294 554 262 78 103 124 
314 474 291 141 141 146 
281 432 397 85 109 150 
271 645 400 58 43 83 
361 619 289 128 125 127 
271 192 251 54 39 33 
178 604 312 70 105 131 
302 315 330 65 76 88 
299 435 286 160 157 160 
208 440 390 142 140 146 
270 71 332 116 83 65 
187 351 233 131 111 90 
205 421 228 44 88 116 
259 149 226 118 109 102 
160 687 241 111 129 152 
243 595 402 159 159 168 
285 301 248 202 196 212 
432 689 314 117 126 138 
306 217 314 104 46 70 
230 486 387 102 118 138 
258 148 227 115 103 95 
188 480 241 86 100 119 
247 626 208 76 138 188 
312 345 373 143 144 152 
138 523 315 55 98 151 
258 188 269 88 64 58 
236 860 332 115 89 58 
272 235 197 120 140 176 
274 302 379 120 80 90 
282 299 252 205 195 211 
221 280 253 91 77 73 
177 351 313 105 95 89 
231 147 274 72 60 63 
253 177 253 70 62 55 
327 444 328 78 99 131 
240 315 261 152 155 172 
260 930 356 157 109 92 
264 874 262 111 83 54 
197 556 395 96 110 131 
358 811 299 224 158 126 
253 178 253 68 61 55 
164 746 272 125 143 165 
179 368 336 130 131 138 
287 233 357 108 35 63 
253 179 254 69 61 53 
275 24 130 82 80 80 
187 417 262 130 139 152 
179 713 336 122 133 148 
157 605 354 133 136 162 
296 833 269 189 142 106 
163 721 243 99 118 154 
410 762 339 144 132 124 
302 308 302 88 107 126 
155 592 259 140 102 84 
284 68 126 134 105 82 
271 953 337 132 104 83 
404 609 349 64 91 117 
346 788 343 201 152 117 
174 669 272 78 97 129 
260 76 389 134 102 81 
209 549 398 185 178 179 
440 673 391 129 154 214 
288 135 303 101 82 71 
171 760 289 95 93 103 
264 128 312 115 56 9 
244 534 397 117 126 141 
217 681 229 86 117 160 
253 809 327 204 149 132 
418 703 307 141 138 139 
169 425 255 95 109 131 
428 715 317 167 95 93 
407 744 358 106 99 104 
285 315 270 92 110 173 
292 332 278 82 92 129 
163 516 388 159 166 179 
315 141 306 123 99 84 
265 561 213 128 119 115 
176 522 278 118 118 123 
198 682 377 107 143 176 
281 262 206 149 153 184 
324 473 358 100 121 143 
326 533 337 145 146 154 
264 917 248 64 53 45 
314 759 365 202 149 116 
189 670 315 92 109 128 
189 322 289 146 68 5 
153 552 259 138 103 85 
237 364 258 57 87 121 
464 688 369 121 146 215 
239 194 184 102 74 94 
321 337 350 114 121 132 
290 344 272 67 105 144 
223 259 286 79 78 80 
186 533 219 130 148 175 
243 849 275 180 134 99 
237 195 188 90 59 85 
333 565 329 145 140 141 
243 885 267 68 57 47 
323 346 299 138 94 110 
295 504 280 106 118 134 
282 889 273 68 51 49 
238 193 188 84 61 78 
309 321 301 153 112 62 
304 454 384 51 79 133 
328 574 348 147 145 149 
429 669 325 81 94 107 
266 18 382 125 114 108 
314 360 325 129 132 141 
278 145 289 89 52 16 
172 799 282 91 115 139 
323 502 315 129 141 160 
269 881 261 91 66 50 
183 729 298 117 134 155 
197 239 336 134 130 130 
203 457 394 168 160 158 
397 628 389 115 94 73 
315 753 370 206 166 135 
304 318 314 107 120 135 
163 624 230 151 100 68 
349 699 274 126 55 47 
181 410 262 106 126 148 
256 111 331 88 76 63 
252 649 213 149 98 100 
254 707 392 198 94 34 
199 453 253 87 99 122 
245 743 374 136 115 103 
205 236 301 92 102 115 
206 412 388 112 126 151 
442 644 342 67 98 130 
234 532 195 132 139 152 
148 452 232 130 102 71 
149 582 327 173 178 191 
202 937 285 110 92 76 
324 421 342 84 111 141 
243 836 305 168 126 98 
336 642 401 142 175 208 
313 164 309 62 71 98 
371 735 286 129 109 91 
291 896 300 123 101 79 
247 487 384 63 89 123 
215 257 293 98 94 94 
190 558 229 172 165 169 
228 351 373 58 99 132 
425 648 328 65 40 92 
302 295 296 129 133 144 
267 530 240 111 115 123 
434 723 331 177 35 36 
254 888 254 68 57 47 
237 199 188 95 44 73 
325 694 256 135 145 159 
286 163 328 67 42 54 
331 472 347 78 98 135 
290 176 206 126 74 47 
198 722 380 128 158 188 
214 607 213 183 174 172 
189 337 299 107 92 79 
229 303 251 194 135 36 
254 582 202 115 135 163 
213 724 245 29 42 83 
273 174 280 100 58 7 
219 767 233 130 43 20 
272 79 345 117 92 73 
303 224 315 65 47 61 
163 419 248 68 97 122 
171 340 318 104 92 79 
243 181 258 53 50 53 
181 558 268 75 92 110 
233 983 316 116 93 76 
286 857 305 185 136 109 
193 205 289 98 112 128 
329 537 306 129 148 171 
195 388 240 43 76 115 
237 202 187 101 52 47 
312 554 291 60 80 98 
253 458 380 138 140 149 
277 543 242 88 115 139 
324 436 347 136 142 154 
338 806 330 194 145 117 
295 214 344 38 50 71 
287 213 254 79 38 32 
292 767 367 213 155 127 
340 166 315 147 68 3 
325 518 354 131 135 145 
203 188 294 75 94 111 
181 648 323 97 106 124 
177 376 339 103 113 126 
302 280 282 138 136 140 
224 501 200 21 67 112 
286 913 260 71 56 40 
184 631 227 92 113 135 
320 778 352 207 151 117 
355 642 379 97 128 156 
239 985 314 99 84 69 
450 681 341 112 132 157 
360 642 383 187 192 207 
306 635 238 83 110 138 
291 899 300 112 88 66 
233 158 272 82 71 66 
222 149 282 84 62 57 
400 768 318 181 152 123 
280 156 349 58 45 54 
236 202 191 87 27 51 
271 118 370 121 91 79 
188 624 233 52 85 114 
220 901 262 140 114 86 
138 542 333 57 95 150 
243 350 363 75 94 120 
358 818 319 217 150 125 
189 580 249 79 85 103 
289 375 280 84 101 125 
315 578 374 135 134 141 
209 309 223 81 97 114 
264 403 383 25 64 119 
239 384 368 90 105 131 
204 206 297 109 111 117 
318 531 300 133 134 141 
403 632 398 108 114 122 
192 691 223 150 153 181 
178 317 312 129 72 25 
283 221 184 144 63 77 
198 269 328 151 126 98 
358 170 305 163 75 7 
238 205 184 129 62 56 
240 433 373 92 117 144 
337 709 382 173 167 172 
294 683 233 79 129 171 
278 95 140 166 122 116 
419 724 314 182 151 116 
224 129 296 103 50 64 
221 173 285 79 34 54 
327 573 287 131 132 136 
173 295 300 164 127 93 
352 605 329 69 83 99 
196 617 244 51 65 93 
236 205 189 91 44 46 
417 704 307 146 145 146 
139 528 357 141 143 152 
258 172 264 81 73 65 
205 598 222 156 155 166 
293 290 368 102 123 146 
200 253 350 96 59 72 
236 207 188 113 45 46 
389 645 393 108 130 178 
239 390 368 107 122 143 
230 156 317 105 73 57 
345 187 301 162 86 75 
203 910 298 73 55 41 
458 663 369 93 80 69 
198 563 218 169 167 172 
247 976 331 103 83 75 
237 861 328 115 89 56 
235 210 188 136 41 59 
177 709 279 96 108 132 
256 662 409 96 69 88 
235 211 189 127 44 35 
266 852 252 183 132 91 
209 768 344 172 148 128 
263 342 374 83 106 129 
181 714 227 94 109 186 
207 197 342 118 119 126 
258 920 248 64 50 37 
173 469 393 170 167 171 
289 500 404 116 133 166 
173 650 269 65 87 120 
204 248 317 85 90 97 
235 213 188 122 24 47 
163 677 229 71 92 144 
234 212 190 119 26 40 
304 323 260 213 127 18 
187 324 303 130 55 4 
431 643 335 90 107 124 
264 129 309 108 57 30 
222 973 288 109 79 49 
165 373 319 57 90 130 
147 498 237 160 113 97 
302 473 391 79 103 149 
235 214 189 113 49 54 
261 487 257 66 91 113 
312 614 396 156 109 96 
156 430 251 103 92 91 
410 723 304 154 113 70 
234 215 191 110 24 58 
166 733 274 99 114 141 
438 725 352 199 32 59 
398 607 357 33 67 90 
215 934 257 104 88 73 
277 718 235 136 156 178 
177 358 314 96 85 76 
237 208 186 136 47 51 
202 938 286 87 66 56 
230 504 200 97 119 142 
257 804 333 220 167 149 
376 621 321 87 91 98 
171 393 319 95 102 113 
260 987 249 172 132 83 
273 186 348 35 36 39 
146 467 259 100 81 67 
289 521 259 150 156 166 
195 199 291 139 138 143 
328 453 322 86 116 145 
202 668 291 100 108 139 
196 481 248 67 88 110 
259 119 266 112 88 69 
193 349 371 77 100 129 
205 930 272 89 70 58 
306 299 361 131 122 120 
168 589 265 102 84 81 
233 459 217 52 86 115 
384 618 328 94 112 130 
275 92 362 91 75 57 
198 529 205 140 147 161 
298 229 257 99 57 65 
291 240 357 139 138 141 
321 286 349 141 141 147 
308 893 318 126 108 93 
244 306 357 144 120 94 
155 568 231 130 98 62 
332 601 345 58 69 81 
181 451 223 75 94 114 
206 371 243 72 99 129 
197 288 309 82 98 116 
237 181 276 85 39 50 
178 532 274 121 116 116 
237 214 186 151 56 70 
306 784 256 134 123 115 
250 376 267 82 103 126 
297 272 245 133 136 145 
407 763 345 194 166 143 
324 582 357 158 153 154 
341 231 327 94 76 92 
165 485 272 76 72 77 
176 750 305 130 84 87 
243 884 268 72 60 49 
187 499 244 67 85 106 
328 529 344 115 129 147 
151 575 321 49 84 136 
199 207 296 124 126 133 
230 787 235 78 74 73 
390 783 342 166 164 169 
248 163 365 57 70 100 
326 350 297 134 90 113 
296 417 391 44 87 143 
302 697 239 145 160 179 
274 166 327 80 34 25 
206 633 240 119 119 133 
208 522 199 121 130 163 
240 839 293 172 131 102 
171 387 264 69 98 138 
297 742 388 196 181 172 
165 586 310 44 88 122 
198 448 395 159 160 168 
302 282 295 83 104 125 
199 624 293 76 110 144 
399 634 404 52 100 138 
253 1001 263 148 114 81 
193 237 290 152 1 46 
462 667 353 74 105 133 
297 244 311 115 94 75 
235 217 188 124 53 83 
337 200 316 106 72 67 
249 592 202 181 179 186 
295 133 361 92 52 75 
195 734 374 197 72 87 
141 580 352 241 219 205 
208 364 378 38 80 128 
200 332 373 85 105 134 
233 259 210 84 75 82 
443 696 380 125 144 199 
233 220 189 106 74 82 
313 554 372 153 145 145 
457 689 378 178 184 236 
197 437 393 137 148 164 
231 863 343 145 115 86 
293 228 222 103 66 88 
274 63 354 121 99 78 
233 221 190 93 99 109 
144 517 242 146 106 81 
171 445 307 104 107 115 
243 882 362 128 73 68 
253 648 213 160 87 85 
342 810 329 209 161 133 
335 299 351 123 146 171 
298 117 355 141 63 5 
315 298 354 96 53 53 
267 41 396 131 105 83 
232 589 200 188 183 194 
162 549 231 127 95 64 
266 118 198 80 70 60 
161 652 260 109 124 154 
305 286 334 62 69 79 
177 698 221 191 187 199 
402 643 405 166 188 217 
194 687 365 77 99 139 
176 357 265 101 121 145 
328 339 362 191 170 154 
161 559 287 80 89 101 
255 891 247 67 56 44 
220 131 355 110 46 63 
247 242 355 96 68 79 
286 514 268 75 108 136 
268 41 121 88 83 80 
214 297 213 104 113 126 
300 307 368 86 109 130 
455 648 361 83 91 102 
163 707 257 82 104 136 
345 657 276 128 137 151 
239 217 186 143 72 105 
271 82 348 109 89 68 
423 705 311 163 30 50 
167 657 267 131 139 161 
174 368 267 35 73 132 
222 747 371 150 107 113 
277 269 377 152 156 165 
216 633 393 182 174 176 
241 845 283 177 130 101 
410 644 403 84 115 178 
304 248 326 74 59 59 
285 240 302 57 61 67 
255 815 323 194 144 123 
237 222 187 88 116 138 
168 527 285 123 118 121 
274 553 225 81 106 131 
268 161 341 96 51 54 
319 808 267 186 134 99 
260 186 256 78 49 35 
343 597 378 89 86 84 
399 607 357 27 64 88 
320 522 372 68 97 145 
313 356 376 179 155 131 
211 917 269 82 70 59 
189 710 288 100 114 137 
282 217 179 146 57 81 
330 594 271 97 99 103 
451 691 381 111 143 206 
263 774 358 177 139 112 
279 171 363 47 40 64 
197 475 263 68 84 101 
256 621 208 94 153 201 
192 375 293 74 94 115 
196 306 323 153 132 109 
232 377 249 51 87 119 
286 391 390 82 104 140 
305 458 396 96 125 155 
280 133 169 160 115 39 
212 616 220 121 56 88 
262 303 368 150 114 73 
185 386 374 120 126 138 
174 599 264 106 83 83 
188 448 217 81 108 132 
271 108 149 155 124 104 
299 356 379 108 120 136 
161 438 255 102 85 77 
284 79 140 126 103 84 
292 234 273 88 48 61 
203 510 398 101 127 162 
194 319 339 101 92 85 
159 549 292 78 97 115 
227 594 401 178 168 163 
254 514 227 116 122 133 
240 197 182 110 88 93 
192 706 374 130 142 158 
172 401 318 143 139 141 
197 465 206 85 114 144 
358 767 283 162 140 121 
248 325 360 135 97 41 
226 188 284 65 59 71 
251 830 314 176 132 107 
234 476 210 105 116 129 
184 361 243 123 131 143 
218 513 397 128 143 164 
243 196 180 123 94 113 
287 313 268 148 141 191 
176 299 299 172 140 103 
312 912 316 114 100 89 
225 779 343 170 138 117 
160 676 257 122 131 161 
313 662 244 118 135 155 
163 445 368 81 101 129 
244 193 179 124 99 114 
226 173 317 78 60 66 
177 576 233 132 98 74 
307 910 317 135 109 84 
283 300 250 197 187 208 
255 296 255 126 146 199 
190 317 318 135 61 1 
158 576 309 35 55 128 
326 514 304 43 87 128 
156 458 259 116 90 74 
245 194 180 127 97 114 
293 827 312 199 146 123 
317 455 294 177 172 174 
394 708 291 150 33 33 
327 336 276 128 95 110 
304 279 233 73 108 141 
343 159 315 134 91 67 
248 156 368 58 55 85 
216 208 312 109 109 113 
328 536 336 125 132 145 
249 911 357 176 132 114 
261 558 403 109 130 157 
235 886 360 168 128 105 
175 442 253 34 60 111 
204 956 317 125 95 80 
358 789 285 119 103 88 
358 659 286 99 120 142 
198 292 321 147 121 92 
209 215 291 121 120 124 
246 196 180 126 98 120 
249 316 360 137 100 48 
453 700 351 170 183 202 
202 413 232 53 85 117 
213 728 245 29 45 95 
386 764 354 136 127 124 
226 974 333 115 100 87 
323 406 310 53 78 112 
295 607 403 182 126 118 
228 741 225 134 145 160 
161 687 240 136 148 166 
243 186 258 59 40 47 
228 491 390 165 163 168 
391 786 326 164 171 184 
330 546 344 150 144 143 
252 809 327 202 146 129 
269 906 247 54 44 32 
210 733 379 121 81 98 
286 160 327 37 46 55 
206 675 235 64 89 117 
186 484 280 78 88 100 
385 779 307 138 130 127 
310 892 318 110 93 77 
325 366 371 196 166 136 
270 435 397 157 167 183 
316 299 242 140 145 156 
221 879 311 131 103 74 
263 17 385 125 114 108 
200 243 349 79 115 145 
226 871 312 115 92 65 
335 823 293 242 182 146 
422 648 327 67 63 91 
348 733 370 184 151 116 
250 141 259 103 71 49 
327 826 291 238 176 139 
199 375 244 39 78 120 
191 284 293 110 81 37 
288 217 210 119 104 97 
225 817 301 130 130 134 
282 77 164 104 86 68 
221 566 200 147 161 181 
308 252 342 105 92 96 
153 642 245 164 117 100 
193 247 294 129 30 41 
172 384 256 65 79 107 
264 106 193 90 74 59 
177 313 302 185 145 98 
258 167 179 48 67 84 
216 661 224 153 154 169 
231 429 231 131 135 143 
272 153 346 76 41 50 
274 132 205 105 75 39 
432 733 345 199 73 85 
272 157 162 194 106 105 
314 258 341 119 119 124 
231 297 365 123 128 139 
198 514 398 129 144 169 
172 392 245 73 106 134 
245 202 183 138 70 67 
245 203 183 143 68 71 
189 311 278 146 64 1 
274 158 279 63 81 98 
267 126 204 83 73 64 
261 260 360 90 76 78 
269 169 343 94 22 44 
300 246 351 157 136 114 
193 731 227 128 140 169 
324 500 352 90 109 154 
246 203 183 136 58 73 
215 882 326 147 111 81 
312 368 358 130 99 78 
186 503 207 153 157 170 
253 880 260 84 68 55 
222 929 357 183 141 119 
299 902 309 127 102 79 
306 774 254 158 139 122 
242 207 184 126 62 77 
269 127 309 102 62 45 
212 968 295 108 88 68 
246 203 184 132 59 83 
292 242 224 140 136 136 
168 532 256 90 88 91 
208 597 217 154 158 170 
168 759 280 131 147 166 
201 493 202 99 116 138 
320 363 284 74 108 168 
209 342 250 84 111 152 
168 537 234 124 95 76 
175 518 394 90 114 142 
208 911 276 82 63 48 
300 831 271 201 149 112 
189 593 243 104 80 72 
258 717 383 141 106 88 
220 917 258 66 51 43 
275 244 368 145 149 159 
328 573 327 77 90 104 
306 616 398 161 110 97 
321 315 345 110 122 138 
341 245 325 167 100 97 
269 80 179 96 81 65 
238 703 223 108 130 163 
172 551 285 37 53 68 
312 443 288 109 125 148 
214 903 263 154 127 98 
301 313 249 232 194 139 
252 780 350 186 159 133 
165 701 233 118 131 154 
331 545 312 127 138 156 
321 668 406 88 127 160 
265 226 358 127 129 136 
249 192 180 136 103 116 
385 702 365 125 93 88 
232 269 208 106 144 182 
277 103 156 136 108 85 
267 526 243 115 119 125 
321 559 367 131 136 147 
228 321 369 119 125 136 
291 134 306 101 84 75 
265 693 225 154 165 188 
270 729 384 99 93 89 
406 744 306 166 147 133 
306 316 300 111 106 103 
299 379 284 46 81 123 
276 877 335 166 123 91 
188 801 293 190 166 147 
350 745 367 123 109 99 
167 421 256 57 78 119 
309 346 323 136 104 68 
222 982 252 127 91 70 
210 326 224 123 137 156 
275 117 193 97 82 65 
169 593 303 48 75 115 
275 818 325 213 151 132 
281 76 131 155 118 96 
350 662 280 146 146 152 
442 676 390 101 126 207 
216 969 287 103 72 58 
270 538 402 74 104 163 
296 487 402 179 180 189 
200 347 377 85 108 134 
311 441 367 77 108 150 
207 547 203 110 137 167 
223 428 379 85 102 132 
251 198 182 127 97 121 
251 199 182 117 89 113 
202 953 293 98 80 67 
221 247 363 117 131 151 
