ply
format ascii 1.0
comment Created by CloudCompare v2.11.1 (Anoia)
comment Created 2/28/22 9:37 PM
obj_info Generated by CloudCompare!
element vertex 2009
property float x
property float y
property float z
property uchar red
property uchar green
property uchar blue
end_header
216 389 302 95 114 141 
197 346 362 118 105 94 
222 600 437 123 146 184 
229 425 291 136 151 172 
278 177 438 83 83 85 
309 309 478 82 126 160 
220 784 352 134 95 83 
232 452 290 87 112 143 
208 143 289 108 38 38 
191 646 333 81 113 157 
333 61 386 98 90 84 
242 172 437 80 44 44 
289 645 307 152 153 160 
294 350 457 54 91 131 
212 476 409 73 89 124 
316 85 360 113 94 75 
221 559 298 69 75 82 
205 243 350 125 128 136 
269 86 345 103 75 54 
206 796 274 151 80 119 
247 861 343 114 92 70 
409 652 413 81 103 125 
155 444 372 133 135 142 
249 631 269 82 64 98 
165 447 388 43 73 119 
208 140 292 121 31 46 
286 815 310 135 121 110 
161 397 317 63 90 127 
214 890 354 103 80 57 
224 199 447 105 37 20 
321 752 327 151 144 144 
325 627 466 106 133 158 
208 129 318 99 83 78 
309 311 478 73 122 160 
315 902 370 157 122 97 
178 320 429 153 115 60 
169 485 398 130 137 151 
267 343 394 60 93 118 
300 212 463 59 41 38 
314 480 350 86 108 130 
223 311 476 117 130 161 
297 667 468 176 51 77 
320 455 362 62 99 126 
235 644 454 74 51 50 
347 627 320 55 96 133 
194 638 205 111 91 67 
314 281 470 127 115 103 
267 403 491 95 122 150 
205 619 224 111 98 87 
323 255 470 130 18 59 
140 560 348 191 147 138 
425 688 407 157 161 171 
208 144 290 108 32 36 
151 563 294 169 107 103 
296 340 472 96 20 56 
226 465 465 129 146 177 
263 155 444 83 45 64 
321 698 317 140 157 177 
266 708 272 97 116 138 
216 459 468 166 173 189 
274 333 494 171 167 172 
197 397 461 107 140 174 
280 598 300 87 94 118 
248 727 218 149 168 192 
270 435 491 90 110 154 
289 159 357 140 70 63 
160 596 266 161 114 101 
274 153 436 100 53 13 
145 484 366 143 145 153 
217 158 288 54 56 86 
371 193 445 115 103 96 
358 513 382 148 157 172 
303 202 418 120 34 58 
170 390 318 126 116 115 
335 107 379 117 106 95 
219 158 288 63 48 84 
280 145 431 83 65 44 
206 712 316 48 70 101 
256 343 484 95 112 130 
251 722 251 67 67 97 
341 603 390 55 82 105 
262 345 383 56 88 113 
218 463 473 110 128 171 
353 509 387 163 163 171 
257 192 325 99 79 104 
265 27 394 98 74 59 
258 130 430 127 63 0 
292 893 381 177 123 96 
250 673 215 98 110 127 
165 456 391 82 105 133 
314 829 342 190 144 112 
303 353 413 63 95 125 
215 803 318 155 133 113 
358 481 396 113 137 163 
427 649 488 101 83 63 
397 690 469 153 66 72 
379 609 362 79 115 146 
309 595 387 56 64 72 
223 157 289 103 43 82 
324 675 317 76 131 171 
333 208 459 124 38 17 
235 228 460 74 58 60 
376 211 421 172 74 23 
232 674 173 160 124 111 
221 328 476 153 71 104 
258 382 364 61 82 102 
289 705 303 122 142 165 
204 733 261 79 99 131 
357 705 334 136 39 32 
293 189 456 49 57 95 
205 903 347 73 58 50 
329 573 321 155 153 158 
215 565 437 82 116 146 
298 681 306 103 126 152 
232 267 475 89 79 93 
276 819 305 144 135 135 
287 81 390 74 62 50 
332 247 434 78 96 121 
398 637 371 152 154 162 
258 210 340 67 103 134 
204 233 450 71 93 114 
282 180 440 78 66 52 
303 603 462 158 115 103 
311 638 310 134 142 155 
199 746 274 114 134 156 
295 8 432 86 78 74 
159 425 355 102 113 127 
208 162 287 50 73 118 
254 237 362 99 124 150 
212 220 429 68 73 80 
243 205 310 139 136 137 
244 641 247 83 104 139 
199 256 342 77 102 126 
222 356 286 110 140 177 
400 615 422 89 107 125 
303 447 453 104 122 152 
329 889 367 135 116 100 
310 225 433 136 69 90 
156 507 315 69 91 109 
263 435 337 88 100 114 
337 628 466 152 160 190 
160 574 268 141 109 83 
266 809 294 178 150 124 
299 939 356 98 81 63 
251 730 226 124 134 171 
265 946 400 141 102 82 
327 496 430 169 167 171 
257 535 474 172 184 206 
312 456 444 107 128 154 
272 74 366 81 63 52 
242 514 476 134 157 189 
301 895 350 96 72 62 
415 697 384 170 15 50 
299 900 374 170 95 80 
167 472 396 87 105 128 
312 822 338 185 140 108 
277 349 488 151 148 152 
405 748 405 160 147 141 
306 85 353 123 103 85 
173 397 367 135 135 139 
168 567 283 101 92 84 
240 533 276 102 109 118 
273 585 285 144 145 153 
243 618 268 78 105 130 
366 619 487 58 93 120 
190 582 282 74 70 68 
303 846 363 197 144 111 
238 666 247 54 91 132 
192 165 291 117 87 88 
265 607 274 115 105 100 
367 536 368 129 148 171 
278 837 322 231 146 94 
209 668 288 127 140 161 
230 599 441 191 188 194 
248 940 311 67 52 35 
381 622 332 178 181 192 
241 647 248 106 117 145 
368 536 367 137 150 169 
258 388 363 68 83 98 
395 760 408 176 145 112 
259 332 384 91 104 121 
412 625 428 38 65 94 
175 601 247 108 93 78 
259 223 465 70 52 55 
190 308 320 130 17 53 
218 208 437 105 46 14 
193 314 337 153 130 104 
240 633 451 53 51 78 
248 724 429 136 114 92 
238 508 281 106 123 141 
225 361 476 105 109 117 
192 629 306 83 91 133 
373 599 428 64 86 106 
368 187 437 92 74 54 
322 30 401 118 104 88 
153 511 320 67 83 113 
303 260 449 56 110 148 
297 756 433 206 153 120 
409 747 416 187 143 93 
311 500 340 86 109 131 
256 757 263 159 167 182 
369 506 371 125 140 160 
258 426 492 93 114 148 
376 758 451 143 134 133 
187 540 414 126 140 157 
200 563 428 126 142 163 
149 580 350 70 80 109 
238 662 221 111 124 143 
426 698 416 157 73 81 
197 163 294 113 96 96 
283 403 468 65 70 84 
296 138 349 55 47 86 
354 225 446 122 38 55 
293 111 411 92 78 65 
295 231 450 84 39 62 
285 85 335 114 97 82 
202 626 254 91 97 116 
351 428 413 170 166 169 
320 124 351 146 139 138 
283 547 312 139 138 143 
192 658 206 152 105 74 
199 163 292 110 88 88 
177 578 271 93 83 75 
220 495 393 128 131 140 
361 616 327 76 114 147 
322 678 314 87 139 179 
212 233 410 100 103 110 
362 575 358 151 153 163 
209 441 456 95 125 171 
257 506 481 46 88 154 
277 432 352 81 98 114 
271 769 419 211 162 137 
195 676 345 79 98 133 
304 539 449 155 159 170 
196 166 294 118 93 91 
429 635 452 51 67 82 
256 238 317 105 124 146 
280 794 403 201 146 125 
334 187 445 121 95 76 
340 750 446 161 144 131 
317 395 443 130 141 157 
198 165 292 114 94 95 
322 142 402 128 99 65 
291 445 460 119 129 145 
278 240 412 127 129 138 
273 442 340 110 113 119 
222 940 321 124 101 77 
262 328 390 119 124 134 
210 350 398 61 78 95 
270 908 301 49 41 33 
344 453 417 151 154 163 
204 346 296 139 115 93 
351 61 374 145 131 121 
287 631 307 74 119 154 
314 559 428 147 141 142 
189 386 430 74 106 154 
211 894 390 163 130 103 
274 131 310 135 49 54 
327 121 353 185 67 10 
398 630 447 91 101 114 
406 656 379 76 89 105 
195 408 433 39 81 149 
243 947 409 213 166 141 
417 736 435 136 71 92 
236 725 418 117 111 114 
197 286 340 104 113 125 
319 587 458 106 91 78 
221 745 398 151 136 132 
192 170 291 111 93 87 
209 538 299 51 54 58 
323 144 372 63 106 140 
193 168 292 116 95 87 
341 437 378 87 109 130 
206 240 415 119 116 117 
287 145 341 109 42 35 
224 268 377 76 113 142 
258 712 261 60 90 122 
214 673 180 155 110 76 
243 899 314 60 51 41 
205 693 214 101 127 155 
211 955 362 94 78 69 
214 357 395 52 76 98 
168 562 397 76 120 158 
240 849 408 149 115 92 
288 462 344 78 96 114 
315 576 387 90 117 142 
208 253 297 122 129 140 
197 544 424 175 169 171 
220 807 318 161 125 90 
339 434 423 164 164 172 
246 888 317 58 49 43 
195 761 310 160 55 46 
221 633 217 113 101 90 
236 212 375 106 116 130 
335 53 383 123 111 100 
387 723 369 61 70 108 
242 430 473 60 73 86 
178 318 429 155 121 72 
352 480 361 62 97 128 
341 467 362 131 137 148 
422 682 422 86 117 144 
284 372 397 76 100 122 
328 671 448 84 42 53 
276 655 286 65 117 155 
258 737 260 63 93 129 
288 763 300 74 100 124 
285 494 459 112 124 152 
254 725 233 72 95 133 
238 636 262 59 84 139 
217 242 358 83 86 102 
301 733 307 123 24 28 
273 842 323 200 129 73 
222 285 380 93 58 67 
195 172 295 126 96 100 
322 269 466 113 116 125 
250 405 339 56 80 100 
285 447 473 121 130 146 
226 677 173 165 112 81 
269 843 381 138 102 73 
308 344 479 117 128 143 
192 675 358 146 142 147 
405 659 372 155 160 171 
342 426 386 95 116 138 
232 789 366 128 137 152 
173 476 302 116 125 139 
230 261 297 127 137 151 
273 252 475 102 52 63 
176 337 310 192 127 76 
180 719 375 144 142 156 
304 9 442 68 65 65 
268 89 337 118 96 82 
261 899 415 204 153 130 
199 253 460 81 55 63 
197 171 295 127 96 96 
228 679 286 121 129 148 
274 781 411 205 152 131 
236 581 263 91 105 121 
257 88 307 139 123 114 
142 531 287 121 91 70 
269 82 373 84 67 52 
287 137 425 80 57 27 
275 923 310 90 69 50 
389 623 354 149 149 155 
353 230 442 168 54 73 
198 171 294 127 92 99 
196 172 295 127 97 95 
395 731 385 118 112 110 
350 67 372 146 130 118 
182 344 463 115 129 154 
153 461 377 97 111 132 
342 406 399 105 115 127 
193 303 325 106 103 113 
178 628 385 75 96 164 
214 563 297 49 55 65 
315 358 414 90 109 128 
279 747 438 201 169 141 
199 172 293 100 66 56 
340 720 329 156 40 55 
332 765 432 188 134 103 
229 866 405 147 114 90 
410 609 452 136 143 157 
247 951 297 98 76 57 
244 364 483 100 114 131 
198 783 276 66 68 89 
230 232 389 93 76 54 
198 175 295 117 69 74 
206 663 291 146 146 152 
383 616 467 105 89 73 
197 329 405 99 97 100 
302 204 418 106 75 97 
234 459 472 126 142 165 
295 158 427 68 63 60 
151 581 358 185 171 176 
217 709 288 84 99 127 
196 773 294 137 41 51 
323 49 381 114 102 91 
220 319 473 125 92 120 
244 413 475 30 62 96 
218 671 177 129 95 60 
201 160 289 98 86 93 
215 320 376 111 89 84 
284 535 314 124 132 144 
385 756 389 186 152 115 
379 597 345 84 135 173 
354 661 449 133 158 184 
136 549 355 123 123 128 
190 331 408 121 118 120 
219 787 345 126 99 85 
350 669 324 86 141 183 
371 720 355 103 88 90 
358 585 354 78 128 168 
310 900 372 125 106 90 
231 238 381 112 116 125 
289 870 333 122 93 70 
261 397 361 85 93 103 
309 353 414 51 90 135 
316 372 441 122 135 153 
313 34 443 159 144 134 
209 352 481 76 104 131 
359 769 444 146 128 109 
181 575 276 100 93 88 
371 770 377 151 127 106 
342 737 448 166 134 99 
293 319 463 83 43 61 
185 627 222 113 89 64 
181 279 297 199 116 82 
143 558 342 159 105 92 
283 120 319 117 39 14 
172 273 296 169 122 93 
203 362 402 66 84 101 
182 443 395 94 105 124 
202 214 339 70 98 122 
298 378 458 76 102 140 
214 350 396 93 100 110 
216 499 420 65 85 118 
227 965 303 132 100 61 
400 665 488 131 163 195 
224 964 355 77 52 39 
201 167 290 82 88 119 
200 733 292 114 126 142 
235 391 290 110 133 163 
260 985 316 125 101 74 
202 165 289 79 92 114 
316 860 358 118 99 81 
272 450 487 59 86 156 
325 693 450 77 71 76 
299 165 426 70 49 26 
267 720 280 152 154 165 
183 613 400 142 156 175 
262 624 273 78 112 143 
186 374 369 48 79 110 
309 661 451 150 42 61 
370 185 432 100 87 77 
363 199 451 147 110 61 
276 230 468 100 32 35 
205 163 288 51 54 110 
324 140 399 118 76 55 
399 603 449 105 124 144 
202 659 192 133 98 61 
180 596 301 118 126 151 
224 952 309 118 97 77 
260 885 305 78 63 49 
221 787 349 187 155 122 
314 555 433 134 132 137 
163 454 307 113 129 151 
167 404 305 76 96 117 
190 326 330 127 119 114 
311 278 474 183 75 16 
298 389 490 165 149 139 
306 52 390 100 87 74 
231 380 477 29 76 116 
309 405 448 74 102 146 
207 167 288 44 76 125 
363 614 478 110 90 70 
171 556 310 59 69 79 
271 74 329 104 82 62 
256 278 383 139 143 153 
442 629 460 134 141 153 
273 70 365 81 65 53 
201 169 290 119 85 100 
304 183 441 117 77 58 
275 964 327 88 60 53 
382 187 424 149 95 52 
224 438 479 93 118 160 
261 215 365 148 144 147 
203 355 401 52 78 98 
194 612 263 88 92 101 
277 332 467 88 84 85 
267 681 269 99 126 154 
301 758 433 204 156 124 
202 169 290 119 81 102 
142 536 340 76 109 138 
367 484 374 120 135 154 
202 171 290 116 70 92 
183 633 338 137 146 180 
280 435 466 92 103 122 
165 315 304 143 59 48 
255 401 350 93 99 108 
318 657 449 105 137 167 
348 524 342 82 116 145 
365 679 336 144 158 177 
187 502 412 86 108 133 
377 651 475 153 177 205 
229 517 471 135 141 178 
210 706 245 90 105 128 
256 162 446 94 38 28 
288 601 310 140 133 134 
233 548 463 145 162 187 
352 426 412 150 151 158 
293 824 320 186 137 102 
202 175 290 122 40 56 
205 433 451 100 128 173 
143 520 337 89 95 107 
251 345 353 62 94 121 
176 320 459 123 108 133 
331 672 322 87 143 187 
448 684 482 174 190 219 
238 671 175 95 122 152 
388 648 341 149 164 186 
348 688 447 154 119 100 
267 762 422 206 154 130 
182 452 300 152 150 155 
359 552 336 132 124 122 
213 758 376 148 135 128 
204 201 333 109 52 69 
329 202 459 90 31 29 
164 463 392 96 111 132 
180 592 298 117 130 161 
269 312 398 101 109 122 
298 437 457 104 124 149 
323 102 348 152 134 118 
232 209 396 88 81 79 
211 335 398 56 69 83 
175 432 302 151 159 175 
309 10 419 60 56 54 
303 272 481 144 71 7 
441 660 447 127 140 159 
329 518 402 123 138 158 
207 170 290 80 65 104 
311 22 404 105 96 88 
282 87 339 113 95 80 
194 747 306 142 160 180 
314 578 384 98 115 135 
313 564 425 149 140 136 
264 467 322 128 127 130 
311 493 344 102 119 138 
242 882 329 65 56 47 
164 572 313 183 123 115 
213 955 357 97 73 66 
207 173 289 87 78 89 
215 351 379 87 101 125 
258 172 439 80 42 43 
372 202 424 135 99 68 
301 306 486 78 100 120 
216 542 433 99 112 132 
244 600 446 109 126 156 
270 539 465 104 118 145 
199 625 255 119 101 104 
348 446 416 129 139 155 
303 355 412 69 99 129 
344 803 353 193 144 109 
156 512 391 104 119 146 
256 11 412 106 91 81 
246 694 243 47 73 109 
347 575 365 87 130 162 
293 464 347 97 110 124 
245 647 244 40 77 130 
252 331 354 66 95 125 
337 763 436 170 122 92 
303 414 382 92 109 128 
181 276 450 101 111 123 
330 45 392 119 105 92 
241 741 223 136 158 190 
313 588 428 50 63 75 
282 868 393 163 121 86 
327 371 417 124 125 132 
217 587 436 138 150 170 
261 704 451 79 88 99 
204 661 305 71 72 106 
328 199 459 97 69 53 
320 524 335 159 155 158 
336 115 373 126 102 67 
338 608 472 145 108 92 
249 432 317 132 132 137 
182 605 403 121 141 169 
375 788 432 210 147 111 
363 778 369 122 129 141 
189 659 377 79 99 146 
378 746 455 163 141 121 
292 23 452 147 124 109 
198 630 412 175 169 173 
204 918 349 84 69 55 
395 634 380 67 80 93 
258 583 276 84 101 119 
333 131 376 120 126 136 
213 766 246 146 164 208 
159 431 336 76 97 124 
169 314 300 208 163 102 
221 795 338 183 157 134 
213 717 273 73 92 129 
326 613 474 44 67 95 
278 23 443 118 87 69 
188 270 308 144 49 68 
231 757 236 83 127 218 
233 481 287 95 118 144 
260 920 416 159 114 89 
248 412 477 83 95 118 
335 703 448 103 89 80 
290 407 489 101 124 159 
196 787 297 151 123 104 
269 701 454 95 74 59 
180 353 450 61 77 142 
286 760 299 87 93 101 
236 893 423 205 153 137 
310 598 392 51 53 57 
188 719 393 193 80 82 
250 713 246 71 82 107 
296 41 397 91 76 61 
212 467 305 78 99 122 
249 417 327 55 84 108 
350 660 448 134 162 190 
293 352 410 79 101 124 
161 545 319 151 152 213 
444 661 493 81 95 115 
253 825 338 187 137 113 
191 662 216 166 113 89 
206 687 194 173 118 91 
287 827 315 194 139 105 
311 544 442 93 113 134 
315 720 314 155 41 39 
177 603 278 149 102 97 
253 894 307 76 64 51 
218 262 403 65 67 71 
311 802 325 132 107 85 
194 636 308 181 186 202 
282 131 322 157 42 11 
343 516 391 120 134 155 
341 434 422 173 171 176 
215 552 299 63 65 68 
323 561 389 101 130 160 
320 359 421 94 108 124 
362 622 330 72 113 154 
259 880 313 65 55 46 
195 676 343 117 125 140 
198 160 313 52 46 59 
276 293 492 116 99 102 
198 740 292 116 129 145 
314 584 380 104 107 114 
225 535 298 98 99 101 
247 365 334 54 88 130 
140 509 355 124 131 143 
249 231 308 108 122 139 
266 328 489 175 171 173 
198 162 312 51 42 56 
352 62 368 153 138 128 
324 137 398 112 50 57 
379 616 458 81 75 72 
265 589 457 93 119 177 
227 515 470 70 93 164 
192 565 419 159 160 169 
294 339 472 89 32 44 
188 340 411 101 113 129 
207 404 401 139 136 139 
323 97 394 113 92 70 
386 195 430 126 87 42 
260 400 358 81 91 102 
219 769 371 185 163 146 
194 629 297 88 88 133 
247 474 487 163 174 192 
202 797 308 153 130 112 
337 630 450 120 147 174 
322 723 324 150 76 39 
267 87 338 121 95 79 
229 240 391 113 98 84 
195 765 312 142 65 71 
217 739 221 156 164 189 
271 409 491 89 101 141 
330 505 413 121 132 155 
272 556 295 120 125 135 
353 424 400 152 155 164 
199 368 466 61 89 131 
326 439 432 80 114 155 
213 688 417 72 116 150 
223 961 344 94 68 36 
308 615 461 69 75 84 
223 202 441 106 38 22 
265 304 494 89 131 166 
324 595 418 61 61 65 
252 798 379 177 126 107 
187 353 356 117 105 94 
193 168 305 38 58 81 
345 527 339 93 128 158 
406 673 369 149 150 157 
229 962 301 100 75 42 
206 914 389 154 121 92 
353 517 384 136 144 157 
211 932 334 79 65 60 
292 948 380 110 92 79 
250 708 257 47 74 117 
307 29 449 143 130 125 
287 237 453 78 32 44 
235 572 456 102 140 180 
330 523 397 109 134 161 
333 52 380 124 109 96 
278 862 397 167 122 89 
204 698 332 50 52 103 
387 691 355 162 176 194 
270 164 335 91 46 46 
270 89 362 74 60 44 
300 660 469 102 139 174 
194 170 308 39 60 85 
295 938 333 85 67 55 
250 279 368 164 125 78 
293 119 335 100 48 36 
217 301 391 126 123 124 
259 711 448 139 129 123 
171 338 306 228 184 119 
312 778 322 139 111 83 
189 405 385 73 91 116 
193 172 306 34 66 94 
219 792 340 134 95 70 
366 779 442 203 152 118 
208 558 297 78 74 72 
240 294 305 185 135 83 
305 885 361 122 93 76 
193 175 307 46 69 97 
265 695 266 90 117 146 
293 675 466 160 68 95 
194 172 308 38 63 92 
363 660 453 129 155 182 
245 885 321 61 51 43 
296 816 319 178 134 99 
290 143 424 43 61 78 
250 418 327 57 86 109 
179 353 448 83 104 156 
317 151 381 141 97 127 
259 837 373 154 123 93 
256 953 301 94 75 54 
186 312 315 142 30 67 
266 759 279 122 31 38 
290 454 348 76 100 121 
144 535 330 101 99 96 
220 219 406 104 107 114 
259 247 384 77 116 149 
199 284 344 88 108 129 
211 234 355 128 127 132 
313 358 413 85 106 128 
279 920 397 164 122 97 
259 968 304 123 91 55 
207 777 256 177 195 216 
336 812 349 197 147 113 
196 171 311 38 63 87 
419 683 488 159 185 214 
284 276 430 107 106 109 
380 726 364 99 100 106 
331 592 466 130 109 88 
362 786 439 205 148 121 
197 297 303 172 142 107 
362 640 332 172 168 174 
325 96 360 68 52 37 
247 988 317 133 101 70 
364 594 330 159 160 168 
183 308 420 151 109 64 
196 175 310 42 66 91 
189 631 312 124 134 148 
150 488 385 147 147 154 
283 437 353 121 125 132 
259 892 303 61 52 45 
349 765 345 140 132 129 
292 8 432 91 81 75 
198 169 313 45 68 92 
278 825 378 174 127 99 
269 21 399 113 98 90 
258 115 300 121 54 56 
330 619 315 118 142 169 
322 458 434 21 69 129 
157 553 285 95 87 81 
286 653 460 59 68 78 
203 908 366 71 59 47 
193 754 310 126 91 103 
298 383 478 117 100 83 
298 139 352 49 47 75 
249 740 423 173 160 153 
205 232 433 112 109 110 
225 720 201 248 240 239 
255 830 338 179 133 105 
341 486 415 45 78 146 
199 168 317 42 66 90 
199 169 316 49 72 95 
263 92 309 143 125 111 
420 610 449 90 104 120 
361 189 445 101 48 14 
340 519 341 84 60 71 
336 639 446 135 157 183 
365 554 364 107 132 160 
231 238 386 98 90 83 
326 810 343 179 133 100 
292 301 429 101 115 132 
231 315 297 112 122 136 
233 368 287 113 133 160 
322 410 391 102 118 135 
275 409 367 74 95 114 
167 613 355 81 107 168 
239 988 334 181 144 105 
299 937 362 79 64 49 
274 149 321 48 75 122 
199 172 315 44 70 95 
228 672 281 140 144 154 
198 174 313 47 72 93 
246 870 338 82 66 48 
370 673 340 127 109 106 
315 587 460 122 103 87 
371 684 454 121 56 62 
350 514 346 147 148 153 
255 992 343 125 98 74 
198 260 420 63 88 109 
239 693 434 105 76 63 
222 471 463 169 174 187 
226 421 292 119 134 155 
436 709 456 179 192 212 
160 592 375 58 94 128 
380 763 449 88 97 113 
230 666 227 96 115 135 
333 815 352 203 151 117 
200 400 414 118 122 131 
204 910 377 138 108 80 
233 541 451 103 117 154 
286 962 354 106 86 73 
286 539 316 108 120 137 
356 626 479 29 73 163 
325 274 450 159 159 168 
262 580 277 91 108 126 
158 456 386 58 89 123 
249 426 321 119 123 132 
227 451 293 127 139 159 
315 624 311 157 156 162 
325 874 362 112 98 89 
190 672 365 59 84 136 
297 335 416 82 106 131 
385 597 441 22 61 88 
260 535 474 66 90 161 
281 641 459 86 91 100 
286 557 314 106 116 130 
356 577 328 99 122 145 
248 752 241 138 137 196 
322 185 453 140 67 8 
292 339 414 54 91 121 
415 724 399 157 123 81 
208 746 386 184 170 160 
238 663 181 76 100 121 
248 850 413 159 121 104 
188 644 342 110 133 164 
327 145 388 165 98 92 
438 668 443 124 143 166 
254 828 353 157 116 87 
277 499 473 102 123 154 
209 464 427 125 132 149 
390 666 480 153 180 211 
247 848 378 102 79 50 
229 944 310 105 81 55 
281 435 470 47 69 104 
230 190 436 69 36 61 
291 686 462 164 136 118 
169 462 395 91 108 130 
317 679 310 125 43 48 
202 929 364 84 68 56 
201 169 319 41 70 94 
335 746 332 143 130 122 
252 730 231 128 145 165 
284 667 302 148 152 163 
308 329 477 160 160 166 
321 725 323 163 123 62 
343 554 376 157 155 161 
259 731 260 105 120 138 
257 129 411 100 95 91 
200 172 317 47 72 94 
241 596 448 85 122 175 
200 172 318 49 73 94 
200 173 318 59 80 100 
213 219 452 88 74 74 
259 236 469 125 19 29 
302 519 333 100 114 130 
264 19 387 81 65 54 
221 698 297 81 98 142 
271 75 331 113 93 76 
405 662 371 162 164 173 
306 481 451 123 142 165 
254 499 483 63 104 180 
203 635 414 101 67 97 
243 558 462 73 86 150 
192 607 281 62 65 133 
322 686 317 149 162 180 
262 217 372 162 159 164 
354 732 450 156 139 126 
192 630 307 59 74 123 
369 214 438 159 108 109 
210 724 275 69 90 124 
386 674 347 126 158 195 
192 178 293 120 76 75 
264 627 452 93 72 73 
222 973 327 95 78 60 
422 725 463 104 67 109 
193 179 294 118 61 71 
243 674 255 107 128 151 
204 237 418 93 106 120 
254 852 337 153 118 85 
313 893 372 93 81 74 
178 341 310 189 104 59 
290 353 409 64 92 119 
362 561 335 145 146 153 
340 496 405 101 134 167 
213 662 274 130 140 156 
226 495 294 81 94 107 
346 631 457 148 166 189 
163 523 395 116 130 149 
305 80 373 106 87 66 
296 213 437 106 55 30 
324 421 385 74 108 138 
198 470 403 84 96 115 
294 865 361 176 128 97 
289 844 375 182 135 105 
191 322 332 149 125 100 
241 662 260 86 113 152 
259 652 445 142 95 33 
314 278 453 201 189 196 
193 182 295 127 49 68 
312 371 408 67 97 129 
202 658 407 153 149 153 
414 666 386 126 135 149 
147 484 330 107 116 135 
149 564 336 192 132 124 
224 488 416 101 115 139 
298 336 454 79 110 147 
292 83 384 78 66 55 
189 510 414 82 101 123 
300 288 458 124 124 131 
313 434 372 103 119 136 
149 536 330 103 86 101 
253 266 327 129 6 45 
265 892 296 92 73 51 
396 767 436 203 174 149 
178 616 330 160 165 178 
187 652 219 161 113 88 
207 722 253 130 137 149 
194 317 302 150 87 27 
284 290 444 96 89 84 
265 204 368 79 123 157 
199 688 336 41 63 104 
197 219 323 70 103 130 
309 253 478 128 35 72 
194 183 296 125 46 68 
307 284 474 120 122 129 
340 817 389 217 164 135 
361 560 365 142 147 159 
227 964 346 92 57 39 
294 411 486 56 97 160 
284 332 471 89 76 90 
249 677 264 94 112 138 
428 649 463 77 68 64 
331 206 424 62 122 162 
221 206 417 75 35 40 
244 268 475 120 122 129 
199 599 266 35 76 115 
244 472 290 86 114 144 
197 178 297 130 82 85 
213 665 181 113 90 61 
350 485 401 33 73 149 
260 488 310 69 90 109 
309 911 376 144 109 89 
258 730 442 203 179 161 
229 477 427 82 101 146 
224 224 455 47 38 47 
172 331 311 168 139 106 
287 944 329 100 76 64 
247 987 351 99 77 57 
218 310 385 129 126 129 
241 338 308 63 99 136 
167 588 260 98 88 79 
363 466 397 117 131 156 
196 181 296 122 39 62 
233 220 388 125 49 8 
400 708 371 169 21 62 
343 450 418 145 151 164 
199 243 450 75 97 120 
396 672 354 132 149 172 
311 608 460 124 89 74 
283 222 469 44 48 61 
307 240 475 87 49 39 
177 618 334 202 199 204 
191 644 330 120 134 169 
188 639 393 68 66 73 
198 181 296 111 36 54 
258 172 438 83 45 43 
411 676 489 103 139 191 
167 398 319 64 94 136 
291 230 469 70 35 38 
271 772 285 118 113 112 
295 219 470 29 64 104 
251 145 389 45 40 46 
389 711 364 157 36 41 
192 185 295 123 48 63 
191 525 296 56 62 70 
315 832 349 214 161 128 
240 336 481 157 117 68 
264 961 386 108 88 72 
324 588 450 97 89 85 
238 882 424 146 114 88 
210 713 307 92 107 125 
312 801 404 215 161 137 
296 372 458 73 95 132 
195 764 298 126 146 164 
266 733 446 155 154 158 
291 276 457 119 114 115 
300 866 343 118 90 69 
184 693 375 109 122 137 
238 430 483 49 82 148 
330 541 389 112 130 151 
283 669 465 127 70 66 
330 487 429 105 118 151 
199 509 421 102 112 126 
195 184 297 122 37 67 
299 429 370 94 111 129 
209 733 221 157 165 183 
202 313 470 134 84 102 
394 745 398 116 104 98 
191 614 262 95 79 73 
279 926 396 125 95 72 
208 486 299 87 107 126 
190 741 355 158 37 32 
226 787 360 131 129 132 
193 190 297 113 63 86 
214 371 390 75 97 119 
156 439 351 119 124 134 
248 413 327 85 102 121 
299 188 393 58 99 130 
259 559 280 99 110 124 
302 329 437 83 104 126 
254 930 415 192 143 114 
271 660 457 152 124 98 
308 534 331 157 156 161 
349 751 340 142 129 120 
352 187 439 94 75 61 
386 604 449 102 115 132 
181 358 437 72 98 150 
315 581 413 71 109 140 
228 472 441 77 106 159 
168 601 274 184 126 114 
256 783 272 175 145 114 
287 239 476 78 31 23 
225 762 388 187 151 112 
309 879 370 108 89 73 
262 328 485 179 173 175 
195 624 216 97 87 79 
198 204 323 101 71 75 
198 184 297 112 41 64 
386 760 398 160 130 100 
227 665 275 66 81 135 
271 420 492 80 100 143 
279 454 485 125 145 173 
283 960 364 106 89 73 
193 660 204 154 108 80 
152 484 318 64 74 88 
363 712 343 156 31 54 
179 511 300 83 91 105 
199 187 296 106 50 71 
209 462 431 114 129 154 
170 561 300 87 81 77 
337 218 457 82 34 29 
237 559 463 168 178 198 
337 208 458 123 39 29 
207 682 320 86 112 141 
213 324 398 90 95 103 
184 353 327 144 62 0 
266 878 416 182 135 108 
240 727 209 190 191 220 
235 237 301 84 116 144 
221 403 300 88 107 136 
298 802 400 213 158 136 
190 624 256 140 101 84 
222 260 284 89 118 143 
216 940 328 85 69 55 
233 481 476 87 109 161 
360 634 473 57 78 146 
181 322 421 162 121 74 
292 212 421 172 73 0 
198 190 298 98 55 81 
335 646 446 114 151 185 
201 176 291 128 21 50 
234 647 206 89 78 67 
312 655 309 94 131 163 
178 339 436 90 113 133 
142 498 359 79 101 130 
188 348 411 81 98 126 
203 176 290 127 24 26 
212 657 225 125 87 76 
271 725 288 133 145 162 
179 281 455 101 111 124 
421 665 424 57 86 133 
272 614 455 179 128 116 
232 405 482 48 77 134 
365 564 361 159 161 170 
200 176 293 115 46 55 
426 672 495 172 188 212 
230 522 323 112 113 117 
214 696 247 105 116 151 
217 673 178 140 101 67 
227 517 287 83 95 108 
200 177 294 114 60 63 
310 779 423 210 157 126 
211 298 401 112 108 109 
297 184 443 107 69 47 
293 225 434 141 48 25 
281 356 471 67 71 82 
200 178 294 109 66 72 
186 323 469 135 76 76 
305 293 457 106 125 146 
281 787 410 209 159 137 
302 903 341 70 50 46 
250 721 433 142 125 111 
197 282 466 78 108 135 
175 428 388 93 107 126 
209 463 435 69 102 161 
376 573 342 126 142 162 
229 597 442 144 155 174 
229 929 415 191 147 122 
259 766 272 148 12 32 
248 517 281 114 125 139 
295 472 345 53 93 121 
319 519 437 106 123 148 
268 865 320 106 81 56 
246 460 298 60 96 128 
203 183 290 128 75 55 
203 183 291 131 77 69 
250 270 365 102 123 145 
287 540 318 88 105 123 
194 575 418 140 92 94 
309 264 479 137 104 82 
279 93 371 83 68 54 
200 181 295 122 51 55 
253 329 337 110 126 144 
279 368 467 80 78 92 
264 928 411 186 141 112 
282 573 306 137 140 147 
235 946 409 209 160 141 
310 49 393 105 88 71 
227 481 416 102 111 145 
346 241 443 68 53 78 
365 467 383 161 163 172 
350 600 456 92 84 77 
276 664 456 144 88 23 
322 830 367 209 150 117 
197 639 303 182 179 184 
241 819 307 153 152 157 
268 893 297 72 62 52 
255 835 335 167 122 95 
178 617 331 146 152 170 
179 713 379 106 145 180 
282 91 393 74 64 53 
249 139 406 54 44 49 
398 610 428 71 101 128 
244 614 250 101 120 149 
200 205 325 131 126 125 
175 325 311 153 122 80 
196 387 469 72 109 161 
273 524 470 73 96 137 
426 622 443 91 111 131 
272 730 451 200 182 170 
207 177 289 128 11 32 
317 578 400 67 101 129 
233 225 373 100 108 119 
193 257 437 110 117 127 
279 155 433 92 57 7 
239 644 220 108 117 130 
349 786 350 145 128 115 
204 181 289 128 29 66 
202 223 343 84 68 71 
378 720 455 96 102 114 
247 950 300 100 77 44 
204 181 290 131 18 68 
193 387 299 127 138 161 
253 247 368 105 127 151 
205 182 288 142 19 62 
291 895 382 164 110 82 
360 475 367 63 89 111 
274 261 439 47 68 85 
390 628 350 154 155 162 
204 183 290 143 16 45 
218 875 376 134 104 75 
267 517 477 106 122 164 
206 180 289 106 91 94 
224 685 429 128 108 89 
207 180 288 108 91 92 
245 883 324 61 52 44 
231 349 286 70 110 149 
186 298 417 118 110 104 
257 378 487 94 122 149 
398 638 406 82 97 114 
341 487 412 83 112 161 
274 901 304 62 53 45 
210 639 199 90 81 75 
289 667 305 107 128 154 
336 69 386 118 90 52 
175 611 271 175 118 104 
292 308 444 130 91 12 
252 260 335 144 73 85 
397 626 411 44 78 105 
247 989 327 142 111 79 
271 713 287 145 145 152 
282 581 303 139 141 148 
274 674 286 156 157 167 
225 661 262 98 108 145 
201 184 292 124 105 96 
277 871 409 177 127 99 
182 629 331 120 128 179 
259 807 290 115 100 90 
225 396 481 43 80 142 
391 632 384 75 101 125 
284 744 441 206 180 156 
240 847 396 114 91 65 
215 889 359 101 78 55 
193 638 240 153 105 88 
383 627 387 43 55 67 
361 457 379 87 103 120 
326 182 453 115 99 84 
147 482 322 103 117 135 
251 330 318 114 129 150 
295 459 350 93 107 122 
344 557 374 135 139 150 
225 335 476 164 80 109 
211 243 354 93 111 130 
353 63 378 135 122 112 
347 815 396 207 153 124 
151 426 313 135 151 174 
414 621 433 45 80 107 
183 359 452 88 112 152 
356 527 378 151 156 168 
300 412 382 84 106 127 
258 445 326 81 98 116 
250 273 358 100 119 141 
186 632 219 125 93 64 
294 258 481 141 139 144 
209 636 264 106 118 156 
203 275 409 77 68 67 
230 809 327 173 154 142 
213 925 328 85 68 58 
216 497 420 90 105 129 
201 188 295 113 65 67 
215 325 375 126 117 114 
202 188 292 121 84 51 
231 646 205 107 91 77 
333 600 316 128 144 164 
210 292 296 145 122 96 
272 66 368 82 65 54 
262 665 449 140 106 80 
206 390 402 75 90 117 
341 529 386 116 132 152 
284 217 393 105 128 156 
298 105 409 113 91 67 
422 691 396 164 160 170 
294 935 381 89 67 52 
300 643 474 124 153 183 
264 731 446 124 135 156 
258 437 330 89 102 117 
186 344 412 89 107 131 
160 471 311 120 127 138 
368 548 363 172 172 179 
255 740 253 56 74 129 
224 399 291 123 142 169 
230 689 432 167 99 50 
235 669 257 76 104 150 
266 306 395 121 131 145 
254 699 219 115 124 140 
230 432 290 158 166 181 
307 766 430 204 154 121 
256 253 380 147 147 153 
216 889 345 140 105 80 
315 713 313 170 24 46 
277 136 317 152 48 0 
147 481 333 103 117 134 
144 505 376 100 119 142 
332 484 427 113 120 151 
267 921 411 181 142 115 
217 270 400 71 88 104 
201 565 295 87 78 71 
352 465 367 110 124 141 
228 622 432 99 71 88 
262 809 292 172 150 131 
302 22 402 99 89 81 
204 189 288 142 122 99 
196 769 304 174 142 98 
288 226 421 118 106 96 
362 793 377 180 133 98 
386 617 409 96 106 118 
178 637 360 158 172 193 
279 455 486 109 129 169 
223 241 464 78 56 61 
388 631 340 175 175 183 
214 707 309 55 79 122 
205 359 296 104 119 149 
206 188 288 150 129 107 
239 404 300 77 107 133 
236 771 249 166 181 208 
180 625 389 65 70 86 
246 662 210 178 178 186 
286 204 455 34 45 68 
222 681 300 130 134 143 
191 324 335 153 130 106 
174 391 301 105 119 138 
200 186 296 109 56 72 
379 688 349 167 104 105 
244 940 413 205 154 128 
226 388 288 75 116 168 
253 714 237 83 104 123 
330 628 461 100 127 153 
371 743 452 157 133 110 
277 829 315 220 145 102 
200 190 296 100 56 74 
202 419 418 78 92 119 
195 574 420 169 161 161 
269 748 435 145 142 145 
201 190 296 107 58 71 
201 191 296 104 62 76 
164 399 312 59 101 148 
231 529 469 137 150 182 
222 676 226 71 55 55 
219 977 337 165 138 111 
273 931 310 75 57 43 
192 177 307 67 63 89 
412 666 412 128 127 130 
211 384 395 69 87 111 
282 850 380 157 118 85 
228 518 469 164 180 201 
357 589 359 72 113 146 
292 264 447 40 66 88 
222 654 431 99 102 117 
196 335 404 117 115 119 
175 588 293 144 101 99 
204 928 388 172 136 109 
312 14 409 85 75 65 
302 899 344 75 53 51 
242 876 336 82 68 53 
187 336 324 159 134 108 
262 892 298 73 57 41 
403 676 486 178 194 216 
355 604 379 73 97 121 
195 176 310 50 66 91 
164 357 307 207 71 6 
219 294 387 116 108 106 
253 980 353 138 100 69 
198 689 338 32 56 113 
311 589 317 113 128 146 
231 191 444 98 42 25 
186 382 299 86 106 133 
153 420 318 69 105 138 
224 795 268 124 54 62 
246 717 426 135 125 122 
252 269 374 130 139 153 
386 766 400 172 155 143 
225 982 311 187 151 115 
364 508 378 100 123 155 
413 671 383 94 107 125 
203 767 337 107 98 98 
209 460 419 95 106 143 
342 244 440 76 48 80 
210 677 183 167 117 89 
179 351 435 93 118 150 
193 181 308 84 63 81 
267 600 457 186 131 126 
302 926 359 88 72 64 
280 383 389 106 114 124 
273 961 310 144 115 82 
347 65 375 148 133 124 
264 34 379 93 79 69 
227 655 188 100 88 77 
301 153 417 64 70 77 
306 321 481 122 86 76 
174 305 439 129 81 100 
293 590 458 108 95 84 
395 738 459 131 117 116 
220 905 319 71 57 46 
325 703 324 180 69 76 
355 452 410 166 170 181 
379 693 457 143 42 54 
381 628 390 49 77 99 
390 621 471 109 90 71 
253 139 390 35 73 101 
422 669 425 51 100 134 
435 698 444 152 160 175 
228 325 476 156 115 58 
361 650 331 97 136 168 
231 663 264 90 98 143 
214 405 303 113 127 147 
201 382 299 183 174 174 
332 655 321 154 153 162 
253 711 225 128 135 146 
301 159 373 157 31 71 
351 738 449 133 112 93 
425 714 419 114 119 148 
300 738 445 155 137 122 
293 631 464 108 121 150 
204 774 333 137 91 81 
334 114 360 127 105 74 
327 546 329 80 113 143 
249 276 349 128 117 130 
253 723 226 87 112 153 
212 390 395 52 76 109 
198 176 314 62 72 87 
296 307 432 106 120 137 
297 395 489 146 124 101 
258 736 437 150 140 135 
378 648 337 86 149 195 
181 614 234 104 88 74 
279 407 472 92 87 87 
302 281 459 131 118 113 
359 769 445 150 135 124 
172 591 395 120 143 170 
375 564 344 122 112 106 
193 629 301 94 91 128 
231 517 286 82 91 101 
444 653 474 50 64 79 
256 770 268 132 41 53 
252 847 342 155 118 87 
199 178 316 82 68 69 
299 10 447 76 69 62 
404 733 463 94 84 88 
258 258 388 118 67 65 
365 632 480 64 53 121 
316 475 441 72 99 142 
262 738 273 138 148 164 
255 611 451 189 134 130 
205 268 463 118 117 121 
182 628 254 168 117 97 
306 230 435 153 103 102 
345 462 366 141 144 151 
297 798 313 120 110 103 
354 609 322 136 149 166 
263 774 409 206 153 131 
145 502 375 79 106 139 
271 145 315 99 64 70 
333 629 455 103 131 158 
284 802 396 208 155 135 
332 810 403 184 135 107 
313 225 466 68 31 37 
209 893 354 78 57 42 
192 690 399 120 142 165 
186 380 441 66 100 157 
264 989 341 153 124 98 
192 619 293 57 73 128 
198 183 315 74 60 72 
354 424 404 157 160 170 
319 157 401 110 119 134 
262 491 311 113 120 130 
308 423 379 120 126 135 
345 404 417 99 118 141 
241 850 379 114 85 47 
245 177 449 39 37 45 
280 908 311 99 74 55 
231 896 415 168 123 105 
318 99 350 165 143 126 
316 588 437 42 54 65 
213 361 485 83 110 147 
265 844 323 178 123 84 
340 397 424 145 151 163 
256 944 308 83 71 61 
203 509 422 122 126 136 
308 884 364 97 82 70 
225 261 392 92 104 119 
180 348 311 158 107 62 
274 901 410 197 143 115 
397 668 357 119 137 160 
317 271 471 162 77 8 
363 196 421 123 100 98 
214 726 407 174 164 160 
165 466 306 124 132 146 
285 943 325 91 61 42 
209 771 250 122 140 168 
175 532 404 166 159 158 
254 825 343 177 134 109 
162 332 304 186 156 125 
270 112 411 117 104 91 
302 798 405 219 165 140 
188 470 403 78 93 121 
315 67 418 138 109 91 
358 484 361 68 100 128 
200 798 288 203 163 121 
275 626 279 94 89 95 
167 580 264 125 100 77 
331 584 319 81 106 131 
249 579 273 71 96 117 
231 478 436 76 101 163 
284 816 309 163 136 109 
257 36 358 107 92 76 
216 256 405 90 85 83 
350 609 322 149 152 162 
211 539 299 60 62 66 
220 295 378 145 140 142 
165 415 324 130 136 148 
193 606 415 173 166 167 
192 190 306 113 47 73 
326 510 422 104 123 147 
210 473 405 114 123 135 
309 96 340 142 126 112 
220 232 402 87 86 88 
298 8 414 60 55 51 
258 701 446 116 109 108 
176 378 356 97 112 129 
320 630 462 135 163 193 
283 653 302 144 148 158 
235 650 456 96 72 89 
422 719 470 150 29 51 
225 238 462 86 49 62 
274 252 436 54 83 106 
204 256 348 110 119 131 
249 683 438 161 145 142 
210 265 295 105 113 127 
274 897 306 67 55 42 
257 237 321 135 138 146 
326 370 416 93 103 114 
360 539 341 89 124 154 
229 875 356 111 77 23 
231 204 364 108 34 65 
240 800 274 128 99 88 
313 304 468 88 131 166 
431 683 438 91 114 150 
349 552 371 137 144 157 
266 626 452 107 75 75 
261 228 372 135 146 163 
212 639 257 120 136 164 
180 318 423 168 133 91 
279 609 297 75 119 155 
274 609 281 80 113 142 
335 502 405 110 136 164 
211 893 329 132 107 83 
267 611 456 182 130 124 
286 188 380 71 81 118 
205 665 294 104 107 117 
266 569 463 112 144 178 
327 819 346 193 143 110 
335 575 323 84 113 139 
312 303 473 85 114 140 
208 700 324 75 89 120 
283 582 304 149 148 154 
270 618 452 137 102 97 
373 596 441 83 102 121 
217 704 190 123 132 177 
187 638 240 169 117 95 
225 221 299 144 141 144 
342 456 368 95 115 135 
298 136 349 55 64 106 
193 637 242 155 106 89 
296 397 489 136 125 121 
278 292 414 120 120 124 
243 644 232 36 71 102 
357 767 445 165 148 136 
429 710 432 112 77 94 
271 742 440 130 135 147 
249 520 282 108 119 133 
271 529 473 112 135 164 
325 695 449 96 116 136 
140 539 370 140 143 153 
300 350 453 26 85 117 
194 402 441 55 90 151 
198 186 317 78 63 81 
268 562 463 132 149 173 
233 473 473 88 112 152 
246 165 443 79 42 38 
309 349 415 78 106 135 
201 711 325 51 62 87 
173 420 383 70 93 119 
166 593 257 111 96 81 
296 443 458 153 153 161 
173 309 440 136 57 89 
329 128 391 135 72 28 
234 658 188 102 93 84 
277 143 437 106 84 54 
366 628 484 72 51 112 
230 964 301 112 76 41 
218 963 313 124 91 66 
430 713 439 170 109 123 
421 649 427 56 42 88 
245 726 424 134 115 98 
216 800 276 217 40 49 
205 449 300 133 137 146 
287 501 326 86 99 114 
320 528 422 147 146 152 
229 787 363 152 144 141 
236 572 449 110 131 160 
231 905 415 153 115 90 
183 648 364 112 128 171 
197 189 316 101 52 70 
298 131 346 47 60 104 
229 210 400 97 93 89 
359 491 388 122 131 150 
287 395 487 92 106 143 
198 188 317 105 35 59 
252 265 315 113 134 158 
222 248 403 107 105 108 
326 507 427 159 159 165 
318 39 396 126 114 104 
278 651 290 81 124 158 
357 604 455 88 81 76 
303 800 403 217 163 139 
312 305 471 82 129 165 
266 929 309 96 76 52 
267 570 283 106 119 134 
311 720 311 98 60 85 
191 640 208 112 89 59 
312 135 401 121 77 72 
329 589 453 96 89 84 
174 320 452 115 129 147 
293 359 474 137 117 97 
365 462 387 109 129 151 
378 596 439 78 96 115 
225 914 308 74 61 48 
273 904 305 46 41 38 
277 605 457 83 52 59 
174 539 307 65 71 79 
389 638 393 70 87 105 
258 259 388 138 121 113 
194 360 366 72 92 115 
244 957 300 95 69 37 
179 369 333 121 108 97 
254 855 415 189 145 127 
255 396 352 81 93 106 
191 658 349 111 124 157 
332 592 442 82 77 75 
200 182 318 102 76 64 
181 311 464 149 111 64 
282 774 295 134 125 122 
406 752 445 161 146 137 
256 40 394 110 84 68 
295 116 334 153 57 45 
174 271 295 181 96 78 
288 371 489 155 142 136 
358 810 390 214 150 120 
267 308 397 127 132 142 
396 659 355 130 146 169 
319 135 399 112 52 63 
210 162 288 42 70 120 
265 685 267 90 114 137 
342 505 347 130 137 148 
272 123 426 111 78 46 
284 224 469 40 34 43 
184 545 304 80 83 87 
245 932 311 94 72 45 
170 548 311 73 95 121 
370 598 355 80 116 145 
234 709 426 129 53 40 
310 557 440 152 144 144 
200 404 471 130 151 177 
306 637 310 152 153 162 
283 312 494 96 129 158 
366 656 456 134 156 181 
316 548 420 114 127 145 
302 504 337 87 106 125 
304 680 307 168 163 169 
256 235 317 135 138 147 
207 374 399 79 93 109 
398 760 415 218 177 131 
250 325 344 107 120 135 
179 353 313 146 83 34 
199 518 294 74 84 95 
298 557 447 175 168 170 
243 190 449 71 37 30 
263 51 383 83 65 51 
253 377 359 90 99 111 
254 721 441 153 128 104 
314 830 343 192 144 112 
331 41 411 126 116 110 
363 220 439 110 35 29 
180 354 452 75 95 154 
294 313 424 82 96 112 
215 161 288 60 63 106 
214 162 288 44 66 117 
396 693 467 150 84 79 
238 179 409 40 41 49 
282 900 398 178 126 99 
348 709 330 119 89 84 
310 177 417 72 77 86 
261 457 491 106 132 178 
193 350 407 77 91 107 
230 710 192 127 142 221 
375 203 441 153 128 96 
194 305 336 126 51 52 
170 457 394 66 93 124 
212 166 289 42 64 107 
365 715 345 136 48 68 
189 372 370 55 83 112 
203 732 258 86 103 134 
306 318 483 85 125 157 
300 581 444 59 84 105 
209 750 236 151 164 186 
330 737 331 145 129 115 
398 744 398 157 137 120 
255 238 365 115 123 140 
308 263 446 77 111 136 
183 726 370 153 112 98 
284 897 313 96 72 45 
194 624 297 59 75 124 
202 401 409 121 122 130 
235 564 449 106 120 152 
329 627 467 130 146 172 
316 272 473 168 79 9 
246 212 457 113 63 53 
139 529 347 152 151 157 
289 444 352 107 111 119 
185 377 299 87 108 138 
248 144 408 58 43 41 
287 228 419 112 97 81 
285 860 330 151 117 84 
195 767 302 92 72 98 
258 11 381 76 67 59 
211 304 362 125 120 121 
211 170 289 47 74 119 
264 599 455 189 139 136 
310 544 443 95 115 137 
283 336 464 92 96 108 
153 446 363 141 140 145 
209 445 395 114 119 129 
208 172 290 90 66 75 
200 531 426 116 126 140 
270 762 283 135 31 38 
252 250 476 74 95 115 
264 51 375 79 65 52 
210 172 289 75 68 73 
235 721 202 119 136 212 
203 415 466 92 119 170 
180 372 302 98 104 117 
430 710 471 175 171 181 
317 97 402 110 90 70 
218 440 307 147 145 150 
188 333 330 146 127 111 
268 256 411 97 123 150 
275 237 400 167 160 160 
188 441 298 148 148 153 
210 729 216 149 153 166 
212 170 289 45 74 118 
212 171 289 56 68 106 
280 92 335 116 101 88 
360 550 337 102 85 85 
431 642 441 72 100 125 
166 548 396 113 51 58 
240 914 418 120 88 69 
440 642 463 70 78 87 
209 389 397 95 107 122 
448 641 470 131 140 154 
205 907 345 68 57 49 
246 427 313 132 133 140 
400 725 383 117 118 123 
226 402 289 141 155 180 
265 109 408 102 90 80 
239 653 252 97 119 146 
194 606 272 58 78 102 
212 174 289 91 59 81 
280 467 483 107 130 181 
298 324 445 124 130 140 
313 590 395 48 49 56 
205 450 435 86 116 164 
350 223 425 180 73 82 
190 277 314 139 15 61 
227 674 222 72 57 63 
198 262 340 113 119 130 
380 613 448 30 55 78 
293 733 304 136 119 118 
405 675 486 175 194 220 
215 174 289 69 59 105 
284 744 297 114 48 79 
234 672 255 68 100 142 
233 210 367 130 129 132 
229 199 362 101 22 52 
423 646 488 102 84 67 
231 708 426 189 73 46 
410 615 448 98 111 132 
216 162 289 42 58 105 
234 747 405 132 100 85 
275 563 295 129 130 136 
289 821 379 192 139 115 
169 605 270 185 127 113 
186 731 364 103 133 169 
174 371 317 128 115 107 
253 473 306 94 105 118 
312 462 358 78 98 117 
210 748 232 113 128 175 
225 804 330 195 176 162 
195 782 294 170 135 85 
218 163 290 32 48 96 
264 740 277 129 142 159 
249 670 214 89 111 142 
307 268 480 162 78 12 
354 554 369 100 130 159 
437 646 445 77 105 133 
215 889 343 158 116 90 
298 629 311 105 82 76 
216 166 289 45 66 113 
229 302 293 112 118 128 
279 339 464 66 70 87 
244 690 245 49 77 111 
195 320 348 148 126 103 
286 349 470 86 83 91 
381 701 457 116 48 50 
223 252 464 60 94 120 
159 558 286 94 85 77 
361 453 383 128 132 140 
249 205 454 94 45 52 
289 450 460 147 148 158 
277 264 481 106 115 127 
297 46 424 121 94 68 
261 60 384 88 70 53 
177 370 349 113 98 81 
159 457 312 79 102 134 
230 870 360 106 82 52 
199 266 343 130 133 141 
193 668 381 139 145 158 
395 690 467 151 23 41 
250 441 487 114 132 153 
279 842 322 211 143 94 
301 230 440 101 68 68 
275 337 467 64 64 76 
277 857 386 165 121 90 
271 443 338 120 119 122 
382 640 336 92 157 213 
222 161 290 81 63 102 
325 30 435 136 122 113 
253 258 334 133 118 122 
259 847 402 126 93 59 
289 330 414 107 118 133 
186 596 287 62 83 123 
300 258 448 73 123 161 
157 523 317 56 93 127 
241 192 375 61 66 86 
288 185 450 71 53 41 
338 420 427 169 165 168 
150 461 349 142 140 145 
248 142 402 40 46 63 
191 302 468 116 126 140 
237 260 474 70 97 120 
207 195 348 115 45 65 
254 465 490 141 161 191 
339 765 436 170 125 96 
242 155 412 78 53 53 
219 643 198 99 89 81 
222 164 291 41 44 97 
311 306 474 86 131 166 
249 701 232 78 104 129 
248 656 239 72 97 138 
250 740 233 126 145 186 
266 357 387 78 97 117 
295 774 307 136 126 120 
291 139 422 57 69 82 
209 644 271 132 145 183 
304 855 354 127 102 86 
320 84 358 101 80 54 
202 552 304 97 91 87 
242 669 443 140 76 39 
263 957 304 122 93 53 
432 656 495 115 132 166 
340 393 412 116 122 132 
217 169 290 28 61 112 
201 284 346 94 112 132 
286 236 449 82 40 57 
152 556 383 183 167 158 
187 312 312 177 124 78 
392 652 350 161 161 170 
218 168 291 35 63 110 
277 205 458 68 33 33 
187 640 216 146 104 77 
187 577 279 85 77 72 
313 586 425 51 71 90 
176 582 402 157 147 155 
260 987 324 168 137 104 
455 652 475 115 136 160 
327 902 364 118 111 105 
353 705 332 172 60 65 
285 674 301 93 123 154 
358 482 394 121 137 162 
201 224 338 76 98 118 
271 239 397 160 150 148 
277 829 378 170 127 97 
271 116 308 112 55 25 
251 352 485 132 146 166 
361 494 385 87 111 149 
251 821 337 185 137 111 
257 481 309 77 95 115 
214 887 367 123 95 68 
204 730 287 89 104 121 
299 198 399 149 24 61 
209 438 471 108 136 170 
325 81 398 124 103 83 
285 279 436 103 103 107 
300 920 348 74 59 50 
285 594 307 139 139 144 
211 296 294 137 115 107 
424 718 470 191 45 59 
301 895 351 98 73 60 
305 257 447 78 120 153 
308 643 309 118 132 150 
208 443 404 107 115 131 
157 434 353 87 105 125 
227 881 407 172 130 107 
146 494 327 108 122 140 
284 733 297 108 56 54 
357 660 451 119 80 96 
284 101 405 85 70 53 
146 513 382 100 118 150 
238 520 472 92 114 163 
281 8 417 72 66 62 
178 474 401 105 118 136 
355 622 485 66 99 138 
259 222 326 148 144 147 
360 204 448 187 71 4 
189 319 469 131 62 92 
321 785 421 206 155 123 
450 674 461 104 137 173 
259 424 493 82 98 144 
307 41 395 91 78 66 
315 18 443 65 57 50 
417 632 429 37 69 105 
164 606 259 198 140 122 
352 613 321 153 158 171 
394 633 383 34 52 65 
179 632 381 81 105 169 
261 329 388 121 127 136 
320 420 384 63 93 127 
231 228 458 37 63 84 
430 719 448 89 90 133 
296 197 394 148 38 75 
222 172 292 54 54 105 
256 846 334 159 121 91 
208 674 417 120 142 167 
230 581 267 77 95 113 
268 699 278 113 134 158 
193 254 447 126 125 127 
327 766 431 199 142 108 
229 313 292 139 145 157 
284 138 331 105 49 79 
164 373 312 159 138 122 
147 555 340 93 81 74 
411 639 418 86 97 111 
251 689 263 90 111 133 
267 287 493 90 123 150 
257 170 446 98 31 30 
207 604 429 98 127 156 
224 664 430 82 70 62 
259 340 381 65 96 122 
317 811 395 208 148 120 
335 71 387 126 97 68 
304 726 308 156 22 43 
362 563 333 137 140 147 
332 746 446 155 147 143 
313 396 397 78 104 129 
210 178 288 136 40 60 
261 587 459 152 172 203 
295 334 416 82 108 133 
226 488 406 110 119 133 
283 868 392 160 117 83 
156 394 313 104 114 134 
330 580 374 132 134 142 
324 541 398 132 144 160 
249 709 246 39 53 111 
432 703 477 188 197 215 
364 746 359 149 132 118 
168 392 309 81 89 107 
209 182 288 137 24 71 
332 824 369 219 161 127 
286 844 377 171 126 98 
350 768 441 174 133 105 
217 705 261 71 84 127 
211 181 288 116 102 106 
179 586 298 91 95 129 
253 324 332 117 128 146 
210 183 289 154 6 70 
218 874 372 130 102 74 
279 359 398 33 72 107 
251 277 481 92 107 122 
189 384 376 48 76 110 
224 647 227 45 60 85 
181 574 408 85 126 159 
200 429 430 105 132 167 
319 602 315 153 153 159 
259 312 491 156 159 169 
304 256 447 82 123 156 
195 734 386 177 49 89 
271 482 321 94 102 113 
279 209 386 169 162 163 
348 796 354 165 121 87 
276 93 320 144 125 110 
211 944 340 107 85 68 
373 603 361 75 110 142 
256 125 399 115 108 103 
357 431 400 146 153 166 
396 633 378 97 111 129 
193 331 406 117 114 116 
355 517 383 167 165 170 
313 494 344 91 111 132 
330 472 428 172 168 173 
228 520 450 78 108 154 
390 658 486 123 150 194 
194 325 406 80 87 98 
240 630 265 106 124 144 
219 463 473 111 129 172 
352 422 400 142 148 159 
206 204 348 104 52 74 
155 501 391 80 97 131 
158 411 314 102 125 157 
172 306 444 114 108 119 
318 569 399 162 158 161 
309 72 418 132 104 85 
304 335 449 60 99 135 
164 602 254 142 100 81 
303 346 414 68 101 129 
292 297 434 99 116 136 
252 766 406 194 149 126 
294 694 304 145 152 169 
188 451 397 85 96 115 
303 229 438 129 96 75 
197 291 304 167 137 100 
216 481 434 86 104 149 
207 941 345 97 75 58 
349 651 322 146 157 181 
315 594 416 60 63 67 
212 711 254 24 38 107 
285 353 470 74 78 92 
269 205 374 138 114 117 
240 161 408 75 34 26 
254 700 221 80 97 128 
313 491 346 89 107 126 
270 952 314 89 70 48 
322 688 317 144 160 180 
261 976 305 117 84 58 
