ply
format ascii 1.0
comment Created by CloudCompare v2.11.1 (Anoia)
comment Created 2/28/22 9:37 PM
obj_info Generated by CloudCompare!
element vertex 2004
property float x
property float y
property float z
property uchar red
property uchar green
property uchar blue
end_header
250 329 494 171 166 168 
299 489 459 136 149 168 
141 546 366 161 161 168 
207 762 263 144 153 166 
189 449 294 140 144 156 
264 234 485 65 20 35 
227 543 450 92 123 161 
352 604 418 76 94 112 
227 632 231 105 116 131 
173 401 324 77 93 112 
278 32 459 161 146 142 
216 229 413 72 83 96 
196 498 413 99 112 130 
258 965 311 140 111 77 
281 20 472 138 127 123 
269 451 469 105 115 136 
195 730 321 124 152 181 
190 540 419 182 172 169 
167 594 322 159 169 183 
410 739 428 145 134 129 
270 80 342 122 107 95 
227 975 354 140 105 73 
196 251 466 104 107 113 
262 167 450 111 52 7 
157 578 324 159 94 88 
287 452 361 82 101 120 
196 559 307 90 89 90 
253 904 421 146 112 97 
185 628 393 124 141 162 
368 506 373 118 135 155 
424 717 442 155 35 46 
289 209 429 131 125 120 
263 654 459 168 118 55 
376 663 479 142 166 193 
269 18 417 102 86 76 
279 70 431 107 84 62 
155 534 323 81 87 105 
257 506 287 107 124 143 
178 338 473 158 84 112 
219 501 463 145 158 181 
229 128 293 83 103 123 
208 898 370 79 65 53 
271 22 412 93 77 62 
228 130 292 82 97 117 
268 162 349 99 45 48 
234 986 336 134 98 69 
195 684 358 140 136 138 
287 290 476 107 112 129 
230 260 291 82 112 138 
397 633 388 151 152 161 
288 362 506 108 131 163 
180 279 302 144 118 87 
383 772 453 169 160 159 
349 658 457 137 164 191 
184 383 300 132 55 62 
272 149 451 99 87 75 
270 846 322 125 108 95 
362 479 379 81 105 129 
251 342 342 46 77 125 
356 753 355 157 134 112 
251 328 349 95 112 139 
277 802 399 196 139 122 
285 157 449 60 62 64 
245 398 312 126 129 137 
287 886 392 177 130 102 
313 247 450 168 62 81 
303 873 359 118 94 76 
298 887 349 86 68 54 
266 667 231 52 44 117 
211 483 446 103 123 168 
330 526 407 136 147 164 
277 712 466 172 147 133 
303 280 487 97 111 126 
205 675 205 154 106 80 
279 968 337 112 89 70 
187 369 302 120 100 79 
210 926 340 113 97 83 
258 776 269 154 39 45 
221 655 435 92 82 79 
234 670 175 94 81 68 
267 269 496 91 107 124 
289 522 330 140 138 140 
200 740 300 144 162 185 
258 382 489 104 117 134 
240 887 430 203 148 132 
224 137 292 131 83 55 
171 565 317 72 77 85 
228 698 432 201 72 30 
304 761 439 203 153 119 
335 730 455 142 123 105 
209 403 390 108 120 139 
232 280 288 143 145 152 
198 737 311 151 181 212 
243 389 300 117 129 146 
226 721 416 123 127 145 
320 697 319 150 164 184 
306 354 442 98 111 127 
205 407 481 75 103 144 
219 257 293 81 121 159 
277 733 295 137 115 118 
205 322 293 140 89 49 
219 178 431 85 52 56 
299 224 484 56 26 39 
234 792 267 161 53 45 
321 804 409 183 139 113 
261 73 326 94 73 42 
254 681 445 143 127 130 
257 958 400 116 90 76 
292 9 460 61 59 59 
165 575 390 95 132 164 
362 577 369 152 153 160 
261 360 493 115 118 130 
323 594 436 70 67 66 
241 423 290 102 124 156 
197 249 325 88 54 65 
231 879 352 132 95 59 
287 373 503 162 115 50 
283 539 318 116 122 133 
228 609 441 165 163 169 
290 759 305 136 46 66 
258 784 273 163 47 59 
229 169 441 71 33 26 
225 142 292 134 74 50 
225 143 292 134 73 46 
151 560 316 169 119 118 
417 646 498 117 95 71 
263 259 433 75 90 114 
349 810 374 221 166 130 
187 636 335 150 164 197 
234 654 230 45 60 105 
212 541 433 145 143 149 
285 309 445 109 124 142 
322 398 444 126 135 148 
249 280 376 164 126 78 
289 78 408 102 86 70 
197 263 322 134 131 134 
239 190 400 77 45 59 
150 468 347 143 141 146 
195 435 436 40 81 154 
265 673 226 78 111 148 
366 643 490 83 123 170 
199 453 434 79 112 168 
296 418 468 103 124 157 
266 915 419 180 140 112 
230 241 298 86 85 92 
238 774 391 106 116 129 
321 385 411 72 109 139 
224 647 239 77 85 97 
239 152 440 111 43 12 
220 482 296 84 105 127 
305 745 315 149 124 97 
262 749 270 47 86 143 
280 837 327 236 146 102 
247 819 326 101 125 149 
239 892 328 56 46 47 
242 208 308 93 103 115 
302 189 457 144 82 46 
253 295 392 156 132 107 
261 925 316 77 57 30 
257 41 370 82 69 59 
312 628 323 152 151 156 
234 881 426 82 48 35 
293 22 426 110 98 88 
228 143 289 138 71 46 
361 758 363 152 126 98 
269 474 472 81 98 133 
265 303 409 112 123 137 
293 708 310 80 113 144 
254 317 390 109 122 137 
264 196 377 97 98 110 
267 265 443 63 75 87 
234 867 362 97 78 55 
228 376 295 24 57 114 
285 950 338 135 110 85 
152 563 379 209 188 173 
319 403 448 142 149 163 
278 295 438 85 97 111 
237 210 389 90 67 80 
291 794 309 137 117 100 
289 859 381 183 135 108 
375 633 345 171 176 188 
283 872 403 173 126 95 
306 363 454 72 101 131 
257 285 403 140 138 142 
284 927 396 90 67 55 
249 154 389 42 40 50 
237 987 339 204 169 134 
369 740 368 82 76 73 
344 535 390 91 117 149 
338 612 487 60 78 95 
233 135 291 122 82 67 
271 415 373 80 101 121 
285 929 395 98 76 66 
328 550 399 120 135 155 
197 582 288 97 91 87 
311 513 352 85 112 137 
291 745 447 179 146 122 
277 410 474 90 108 146 
238 938 420 232 195 176 
326 676 321 66 117 156 
260 628 266 98 112 130 
273 20 448 149 127 119 
199 329 301 165 136 102 
281 819 385 182 131 108 
293 817 389 199 146 120 
315 668 318 73 116 150 
339 227 450 106 75 87 
248 436 313 122 127 138 
178 570 296 83 80 79 
175 299 464 77 110 140 
322 442 385 111 124 139 
280 647 284 87 107 129 
412 732 418 84 94 112 
209 200 448 98 38 27 
241 149 436 109 46 11 
162 349 308 171 141 107 
345 715 457 146 121 110 
307 919 374 159 110 86 
320 187 464 141 95 67 
316 253 474 135 77 86 
364 567 370 131 142 158 
189 468 295 140 147 161 
269 829 320 225 148 103 
147 541 295 124 90 64 
336 535 348 94 121 145 
237 128 292 97 90 89 
327 118 393 167 73 8 
221 955 399 86 70 60 
216 711 272 72 90 130 
263 245 411 126 83 89 
301 902 334 69 56 54 
234 704 430 135 62 27 
264 734 273 99 117 149 
191 423 435 71 97 159 
200 403 385 106 111 121 
293 93 435 122 98 75 
341 595 466 97 87 80 
205 671 219 167 113 93 
271 267 468 92 91 98 
224 636 217 108 96 85 
149 490 328 89 109 128 
266 94 310 141 124 110 
232 272 481 110 115 123 
217 277 365 82 82 93 
260 744 439 114 124 137 
329 470 443 127 138 153 
170 611 351 89 108 167 
244 948 413 197 147 122 
163 296 442 100 101 104 
214 552 302 52 59 68 
277 179 391 123 60 76 
305 73 400 99 81 62 
238 134 289 99 83 85 
223 263 381 104 70 65 
239 134 288 104 84 84 
390 772 441 159 155 158 
278 875 324 85 66 48 
356 467 418 166 167 175 
260 880 423 186 145 120 
303 397 403 64 95 123 
232 137 290 140 80 48 
258 455 337 83 98 114 
201 765 318 180 122 90 
242 182 391 105 51 67 
211 487 444 68 100 154 
199 627 293 96 116 155 
310 640 473 127 162 196 
306 816 394 197 141 115 
363 223 454 116 91 108 
381 666 485 129 161 194 
267 280 458 112 111 114 
261 155 329 33 66 105 
242 406 296 97 123 149 
333 96 400 132 100 86 
270 359 401 76 96 115 
355 611 406 79 94 109 
325 459 447 83 111 155 
234 138 288 133 75 41 
209 559 434 77 99 137 
308 486 358 68 96 121 
361 763 457 131 135 144 
313 791 330 156 142 132 
207 613 243 104 96 89 
308 101 433 111 90 67 
265 526 298 111 118 129 
239 142 288 173 69 32 
239 143 288 174 62 20 
216 777 349 165 140 126 
322 620 324 147 148 156 
176 388 304 116 100 84 
355 791 370 163 118 84 
223 884 350 181 129 108 
218 715 214 116 132 178 
290 770 431 211 159 130 
342 529 351 76 113 146 
141 569 347 81 96 113 
244 502 286 109 118 131 
201 230 327 70 103 129 
341 75 408 117 85 45 
218 371 482 97 122 167 
164 425 331 100 111 126 
202 918 360 85 73 62 
362 781 376 106 109 115 
233 164 453 80 47 34 
297 183 470 147 54 0 
269 741 279 135 146 163 
225 682 437 164 111 65 
164 469 391 79 99 127 
282 615 296 75 115 147 
253 698 442 107 89 77 
249 278 364 145 127 109 
281 553 458 101 125 156 
342 678 457 117 34 79 
145 535 338 119 127 145 
259 92 317 124 111 101 
315 99 382 172 149 128 
183 256 434 104 112 123 
224 149 291 136 37 46 
259 429 356 109 111 116 
234 640 219 108 114 123 
355 626 331 87 117 146 
303 98 372 136 118 104 
208 948 369 91 75 59 
270 289 475 68 79 91 
270 742 445 73 121 157 
254 831 367 157 116 90 
313 795 331 172 157 148 
264 102 388 93 78 68 
178 618 338 147 148 171 
217 682 216 145 101 79 
382 623 400 51 54 60 
252 947 412 189 142 113 
261 504 307 97 109 123 
378 623 404 48 53 63 
203 423 475 123 144 169 
210 663 311 115 134 157 
409 609 457 98 115 133 
304 350 440 60 89 114 
314 555 434 147 141 142 
324 105 418 108 87 65 
240 680 241 65 95 130 
290 55 448 123 96 72 
228 147 288 136 58 42 
301 58 415 102 90 79 
255 636 455 94 71 64 
365 782 382 139 113 85 
234 454 307 111 118 128 
325 457 447 74 104 147 
227 690 248 55 72 97 
336 63 400 133 112 95 
261 681 456 113 91 74 
249 674 444 123 107 92 
335 813 411 198 150 122 
266 526 298 113 119 129 
227 422 306 68 83 117 
232 282 494 82 101 119 
194 685 359 117 121 130 
186 383 464 40 78 120 
303 100 362 145 128 111 
364 524 383 111 136 162 
278 416 483 101 119 139 
234 468 486 62 82 119 
261 745 240 131 150 172 
225 700 183 177 116 91 
353 813 419 209 141 112 
232 695 176 185 127 99 
239 809 347 155 136 121 
261 476 491 108 126 169 
293 293 475 83 125 159 
252 271 392 156 153 157 
350 651 459 115 144 172 
195 654 342 97 126 179 
237 150 288 163 62 61 
225 187 461 83 50 62 
237 151 289 145 34 53 
409 615 463 86 99 114 
278 31 458 163 150 145 
340 781 443 181 140 111 
238 538 285 100 100 103 
147 579 344 114 150 188 
215 330 481 158 121 71 
197 515 294 113 126 144 
283 554 313 136 136 141 
423 720 472 198 85 83 
325 753 450 106 77 54 
397 757 459 108 99 93 
266 509 474 70 102 142 
207 944 373 88 66 56 
255 921 315 96 72 50 
340 543 345 91 123 151 
370 798 414 186 128 92 
235 570 287 41 60 76 
193 407 470 91 110 143 
253 285 323 183 134 72 
286 36 460 161 141 131 
293 396 472 73 100 142 
332 98 406 136 100 87 
231 250 481 62 80 95 
169 343 435 98 117 137 
249 288 312 180 133 76 
248 387 349 57 83 113 
440 683 502 128 152 213 
183 610 400 121 141 170 
378 755 388 146 116 86 
250 372 327 95 114 135 
169 275 454 124 127 133 
265 710 460 135 117 104 
286 349 471 56 91 118 
425 709 438 128 141 157 
181 362 345 111 99 89 
229 664 250 102 104 143 
167 401 309 123 106 93 
205 324 294 129 96 80 
278 50 437 113 88 66 
213 249 355 103 115 130 
156 581 371 106 48 72 
233 158 288 125 41 61 
266 210 393 151 149 154 
272 715 464 124 108 95 
185 692 366 99 115 133 
193 353 358 116 105 95 
165 333 444 97 115 139 
182 574 304 82 80 82 
381 663 491 143 177 211 
235 156 290 121 38 56 
308 23 439 91 80 70 
253 296 322 156 103 79 
360 676 460 67 104 137 
250 779 398 199 147 127 
203 293 480 109 117 129 
264 544 467 105 119 138 
170 569 396 74 124 162 
185 266 462 113 115 122 
235 158 291 121 40 58 
273 855 409 158 116 84 
337 806 355 179 131 95 
208 719 409 169 125 81 
271 379 391 84 102 120 
275 192 470 34 49 99 
213 197 460 78 40 60 
331 797 430 194 147 118 
347 568 338 111 129 149 
287 817 314 133 124 121 
236 153 289 140 34 65 
317 125 380 138 121 117 
236 153 290 135 29 67 
216 656 191 98 84 71 
162 293 451 107 25 43 
206 271 407 65 88 107 
248 433 496 160 163 172 
217 708 228 71 95 124 
169 578 275 131 110 87 
231 688 249 63 82 104 
238 202 391 69 50 61 
236 155 290 124 31 55 
264 927 316 77 56 38 
232 314 286 158 158 164 
303 372 412 40 83 118 
237 153 292 133 33 64 
237 153 293 130 41 62 
237 153 294 128 45 61 
236 154 292 127 37 62 
288 345 489 168 143 118 
349 695 456 127 70 81 
261 197 352 150 146 143 
250 341 315 70 105 144 
280 479 465 167 165 171 
363 743 462 182 145 100 
286 354 487 168 145 122 
278 40 443 120 91 71 
296 330 437 85 103 122 
188 274 421 104 101 100 
281 418 489 87 117 147 
156 441 310 92 122 154 
198 294 306 175 129 79 
231 570 447 143 146 159 
314 826 347 190 142 113 
239 152 295 127 37 42 
259 721 207 201 192 198 
252 779 264 166 146 148 
156 442 366 91 108 128 
384 623 487 113 93 72 
363 770 457 116 135 156 
321 774 435 204 151 119 
222 266 385 95 61 58 
236 157 292 120 35 50 
177 373 426 84 112 154 
262 814 299 173 142 110 
374 602 363 75 113 145 
307 737 316 147 45 59 
151 510 324 116 128 146 
383 767 407 174 166 164 
227 856 387 132 105 76 
247 264 490 113 117 125 
236 159 293 117 34 46 
383 210 455 131 100 84 
144 572 343 177 142 136 
265 337 405 96 104 116 
236 159 295 131 42 57 
240 421 486 76 97 146 
268 266 442 71 81 91 
239 152 296 128 36 45 
295 521 338 99 109 123 
411 709 398 147 70 92 
305 697 458 161 140 120 
214 371 482 84 109 145 
193 572 305 80 82 87 
376 538 368 150 154 165 
309 401 461 109 126 146 
296 43 457 126 94 79 
205 245 348 138 134 135 
261 227 329 158 153 155 
177 424 385 72 92 120 
274 886 313 60 52 48 
259 647 230 23 61 104 
298 338 445 65 100 129 
271 19 386 118 107 102 
243 177 453 87 61 48 
309 83 396 101 79 52 
195 450 396 104 110 120 
276 900 311 58 50 44 
204 591 284 83 78 77 
297 902 329 80 64 54 
276 78 362 100 91 81 
365 607 460 45 63 78 
226 649 454 74 55 103 
268 562 462 81 107 151 
333 602 326 122 134 150 
238 729 200 196 195 236 
278 745 445 151 130 112 
250 650 253 71 107 147 
402 698 493 179 62 85 
251 220 473 65 39 16 
287 956 374 85 71 59 
242 915 313 74 56 38 
298 851 341 173 128 100 
200 746 364 159 137 118 
304 806 325 71 99 123 
359 664 461 99 129 154 
259 738 225 149 151 187 
180 618 263 192 134 117 
230 309 489 172 170 177 
231 217 399 122 107 91 
240 129 290 100 93 93 
277 650 276 151 152 162 
264 849 414 148 109 78 
236 587 287 50 85 109 
422 721 438 182 37 64 
339 237 467 150 40 72 
168 302 429 125 94 70 
207 627 265 86 111 143 
201 275 341 126 130 140 
321 376 420 115 124 136 
284 570 311 139 139 146 
304 96 373 133 117 102 
322 611 480 52 66 79 
221 795 336 120 92 67 
263 735 243 71 95 134 
189 371 408 48 68 103 
268 101 388 91 79 67 
250 271 346 144 34 71 
157 464 384 105 122 144 
339 598 430 67 73 82 
335 197 463 115 95 84 
339 576 334 96 120 143 
281 476 346 112 115 121 
264 715 219 83 113 162 
246 332 491 131 139 153 
241 134 288 96 84 88 
271 591 461 67 67 69 
191 329 472 117 128 141 
303 350 442 63 93 118 
268 928 413 185 140 111 
328 748 334 138 116 97 
178 326 300 224 178 119 
446 642 483 141 151 167 
239 353 303 64 101 134 
212 772 346 131 118 113 
414 608 466 98 113 129 
364 635 492 108 132 168 
185 532 299 74 110 139 
207 897 346 106 86 65 
279 546 460 178 172 174 
245 129 290 106 83 77 
244 130 290 101 87 87 
185 448 298 121 125 135 
161 464 387 76 99 129 
298 398 469 88 113 151 
285 322 504 92 97 112 
181 362 312 143 101 39 
314 597 411 60 56 53 
364 607 423 83 97 113 
247 128 291 104 62 55 
258 969 383 152 126 100 
291 526 331 116 123 133 
238 614 444 138 101 94 
237 666 240 74 101 137 
162 419 311 58 93 138 
385 642 347 87 134 176 
220 697 262 176 177 186 
193 346 477 104 122 142 
192 374 406 71 86 102 
244 132 290 99 88 97 
286 260 471 58 82 104 
245 132 290 102 85 98 
266 932 316 119 94 64 
336 822 379 216 159 126 
219 769 246 165 175 203 
209 907 339 94 77 63 
236 439 296 99 115 145 
376 678 355 165 179 200 
336 536 347 98 123 147 
344 523 393 129 146 167 
256 488 296 120 128 141 
316 401 403 69 103 135 
234 715 187 150 173 222 
246 133 291 116 89 107 
247 132 291 116 85 101 
277 35 433 108 82 64 
351 603 457 72 79 89 
273 333 507 159 154 157 
298 470 357 107 117 130 
197 653 402 157 153 159 
182 587 265 97 84 73 
288 455 359 73 99 122 
319 641 456 112 140 167 
247 395 322 97 112 130 
307 838 345 194 146 113 
416 673 408 128 137 152 
240 850 414 155 120 98 
316 576 334 95 121 145 
381 613 387 74 107 133 
161 427 343 88 103 121 
247 187 457 53 61 70 
241 138 288 127 75 87 
361 494 367 113 128 146 
440 654 470 116 131 152 
277 670 278 85 93 106 
192 429 432 68 96 161 
242 137 289 123 85 101 
160 454 384 61 90 128 
341 872 356 107 93 81 
208 772 334 153 112 115 
304 929 386 138 113 88 
263 736 448 192 174 165 
266 682 223 93 112 146 
261 734 257 53 66 111 
287 8 457 81 74 70 
296 890 373 121 93 74 
155 562 319 83 77 70 
179 613 331 168 172 185 
199 467 399 105 110 121 
370 637 497 106 135 165 
208 743 390 173 141 110 
400 665 504 100 134 188 
200 326 300 174 132 91 
277 674 282 80 103 132 
210 763 354 196 162 137 
288 858 381 184 136 109 
181 616 250 177 122 105 
328 118 416 129 99 47 
400 639 387 141 148 162 
185 726 370 168 60 79 
293 910 386 113 77 54 
242 140 290 163 78 88 
308 553 339 115 125 139 
240 212 470 124 25 52 
233 289 289 144 151 164 
243 140 291 154 83 96 
318 374 441 86 109 133 
352 635 474 145 172 201 
425 698 426 155 165 181 
210 294 486 110 128 148 
312 695 317 147 154 168 
219 796 329 165 132 96 
295 812 397 200 141 115 
330 415 437 164 163 169 
219 640 203 93 84 76 
366 499 393 125 142 163 
226 476 302 65 91 114 
238 894 427 197 148 132 
234 815 301 203 176 152 
168 341 309 138 101 53 
201 742 377 160 119 117 
211 249 473 56 93 121 
318 760 441 193 141 107 
154 559 307 134 98 82 
287 649 478 102 143 178 
244 137 289 114 86 105 
312 725 317 135 56 42 
169 331 460 127 62 59 
269 852 405 146 105 74 
229 952 309 96 75 58 
212 327 291 138 72 3 
393 766 439 188 150 108 
326 470 373 100 115 133 
255 822 316 162 150 145 
244 139 290 139 92 118 
256 506 285 111 127 145 
397 634 389 141 145 155 
187 628 396 127 147 172 
254 693 236 65 96 131 
262 29 400 103 84 74 
193 684 376 109 124 141 
232 939 418 204 157 135 
285 319 457 104 120 139 
299 659 462 90 133 168 
246 844 411 114 90 62 
186 728 364 61 84 140 
338 588 382 65 100 127 
168 500 398 138 144 155 
347 801 362 185 136 102 
193 529 297 60 74 91 
229 691 235 78 87 99 
264 849 410 141 102 69 
269 548 458 88 104 139 
174 603 260 152 115 95 
189 294 471 110 117 128 
204 336 294 149 79 17 
219 248 360 101 104 116 
314 480 365 105 121 139 
221 728 209 110 119 171 
202 298 350 110 115 124 
382 610 429 87 105 123 
194 677 374 99 124 153 
181 264 293 164 169 181 
268 512 467 119 125 138 
251 298 342 100 121 144 
250 941 316 61 46 35 
256 98 300 133 98 65 
211 569 306 70 76 83 
244 141 294 149 73 87 
385 688 476 69 104 135 
229 681 440 185 128 62 
210 646 200 105 88 69 
288 22 472 134 122 116 
315 633 464 118 152 184 
163 317 447 112 83 85 
191 287 471 108 129 151 
392 676 495 158 181 209 
229 686 256 70 82 103 
256 317 395 109 118 130 
293 467 463 148 152 165 
277 116 322 111 51 38 
388 648 349 100 145 182 
244 871 344 86 69 51 
271 898 299 56 40 33 
384 649 503 134 154 197 
246 139 298 114 77 107 
245 760 237 143 176 221 
153 486 384 112 123 138 
202 932 366 87 71 58 
266 846 388 122 95 65 
232 401 293 95 117 147 
183 343 408 103 109 119 
300 157 401 171 59 89 
307 433 381 109 119 132 
219 283 379 83 106 127 
372 721 465 163 135 116 
303 868 363 105 89 74 
199 749 312 85 118 146 
258 53 394 85 67 52 
249 296 349 116 129 144 
412 726 480 170 38 65 
204 204 320 105 40 63 
242 845 404 112 89 64 
363 593 375 125 128 137 
389 659 501 96 126 189 
244 142 299 140 63 64 
294 366 470 80 111 139 
169 302 429 123 92 67 
245 142 299 124 60 66 
361 494 402 125 138 162 
264 181 345 45 56 84 
201 328 358 138 96 46 
245 141 300 106 59 85 
297 343 450 83 115 144 
250 560 272 59 72 84 
214 957 368 126 98 81 
297 94 368 124 107 93 
255 358 384 102 109 119 
359 757 360 138 115 91 
222 217 412 105 99 94 
246 141 301 86 61 103 
179 563 407 155 136 131 
244 261 302 111 129 150 
407 677 387 146 157 175 
221 202 456 50 38 33 
269 243 452 125 121 123 
207 318 399 127 122 123 
159 549 387 190 175 167 
204 413 401 87 100 123 
419 627 462 65 77 90 
282 224 437 136 46 0 
266 810 380 167 112 96 
332 92 414 138 110 87 
222 412 299 128 133 144 
217 425 295 91 107 130 
261 207 326 87 58 64 
172 276 442 101 112 124 
262 261 496 86 104 122 
198 625 415 184 177 180 
283 942 328 108 81 56 
336 91 405 148 108 92 
270 398 380 91 102 115 
186 315 470 119 90 104 
321 143 425 152 90 85 
195 258 308 97 122 147 
286 95 374 120 102 87 
261 720 237 94 110 127 
272 81 352 110 96 84 
244 951 304 97 77 53 
223 279 282 95 105 119 
338 408 404 107 119 133 
159 431 357 127 129 136 
251 129 293 126 40 55 
251 128 294 122 40 49 
199 365 296 137 118 99 
281 754 438 212 160 130 
313 508 355 114 123 135 
250 130 294 130 67 81 
250 131 294 132 84 99 
266 956 312 129 102 68 
242 385 303 116 126 139 
296 173 412 164 104 71 
238 749 222 161 178 226 
259 270 412 92 120 144 
248 133 293 123 91 114 
184 276 302 131 46 59 
286 114 434 84 76 69 
184 340 407 108 108 113 
369 528 380 163 163 169 
248 135 293 124 96 118 
197 629 266 103 86 92 
199 320 300 181 144 97 
284 928 396 93 71 60 
326 99 418 125 103 81 
263 255 490 113 114 119 
370 796 433 211 147 113 
401 660 376 121 141 164 
242 439 487 73 99 127 
337 66 398 140 122 106 
404 749 426 166 150 141 
224 630 225 104 95 89 
202 425 407 128 131 140 
277 893 317 68 55 47 
169 597 386 176 170 173 
366 625 505 54 106 155 
164 442 307 135 150 168 
292 216 481 113 47 43 
226 169 435 52 43 49 
297 925 338 88 73 63 
216 666 187 124 95 59 
188 446 296 146 144 148 
189 336 338 153 129 103 
172 308 464 68 105 138 
225 725 201 139 154 189 
218 675 220 139 94 81 
280 894 409 176 124 97 
183 605 302 115 119 148 
409 724 404 140 114 99 
196 366 486 108 129 153 
439 633 480 148 153 165 
397 758 421 169 152 140 
410 671 427 79 103 135 
371 223 438 154 101 96 
143 572 351 67 71 97 
249 300 348 103 127 147 
254 311 321 141 61 83 
327 826 365 221 162 127 
175 490 301 83 104 128 
224 687 273 79 91 106 
252 150 460 139 71 27 
224 954 314 109 84 56 
188 340 335 150 130 112 
416 675 419 100 112 128 
220 786 345 143 114 87 
157 438 308 97 123 150 
319 690 318 158 153 157 
350 607 408 69 89 107 
165 426 376 97 113 132 
259 497 304 103 109 118 
230 237 391 122 110 100 
156 554 293 135 99 86 
305 720 457 178 148 118 
349 200 464 97 84 73 
400 677 373 144 155 174 
371 537 376 116 141 168 
252 131 297 127 44 58 
241 980 325 94 68 36 
290 603 319 80 90 103 
272 889 308 58 51 48 
252 131 298 125 40 56 
269 655 461 124 114 109 
253 130 299 123 40 48 
189 409 463 113 127 160 
419 665 442 80 95 135 
286 571 454 139 138 144 
290 298 475 88 108 142 
345 749 455 158 139 119 
296 781 312 141 132 127 
358 204 466 116 101 87 
238 725 421 153 133 122 
257 904 310 74 61 48 
178 359 416 67 103 142 
203 449 461 94 114 171 
266 768 280 139 65 62 
210 329 396 102 108 117 
257 796 388 178 126 108 
277 741 448 110 152 187 
225 530 448 62 91 155 
202 655 206 146 103 75 
322 244 447 166 83 87 
329 506 436 83 102 145 
368 590 337 114 137 161 
247 930 317 72 51 22 
313 84 391 102 82 58 
161 559 295 95 82 75 
216 882 371 125 98 71 
383 667 490 136 169 203 
206 402 484 59 92 146 
253 269 336 126 8 47 
213 892 334 132 108 83 
273 295 477 89 86 90 
189 645 392 65 63 69 
266 695 221 104 115 155 
256 500 287 94 113 134 
181 715 364 144 163 187 
262 262 456 50 75 94 
242 962 403 98 77 62 
274 516 322 97 111 126 
209 947 387 98 77 64 
252 132 298 123 53 68 
192 702 401 120 147 174 
252 133 299 120 66 82 
297 888 372 112 87 69 
326 590 472 115 99 87 
179 594 304 159 130 135 
401 753 438 167 146 131 
287 572 453 136 136 142 
257 162 324 130 51 61 
297 189 448 113 78 70 
259 690 269 119 129 143 
188 623 317 102 117 148 
303 26 466 150 137 131 
202 924 368 76 62 53 
374 528 373 143 157 177 
216 713 249 35 51 112 
252 135 303 117 79 113 
235 434 301 112 120 143 
285 589 314 145 144 149 
276 564 300 97 109 123 
201 763 302 117 40 79 
332 717 332 134 26 27 
325 826 380 214 154 118 
255 155 450 83 46 22 
172 315 305 143 115 82 
219 589 291 81 104 125 
370 501 383 137 148 164 
150 518 383 122 135 155 
202 348 401 67 78 90 
316 574 410 85 100 121 
200 287 342 91 111 132 
251 719 192 210 203 221 
263 660 222 30 86 118 
249 137 302 101 83 115 
245 629 234 68 86 111 
317 506 358 83 112 138 
275 553 305 122 124 131 
210 786 267 195 32 62 
264 709 225 49 82 135 
203 212 322 121 85 87 
364 474 394 55 94 139 
213 598 281 93 113 134 
249 374 360 83 100 117 
251 254 347 118 126 139 
200 248 339 135 131 133 
333 818 394 210 156 122 
374 614 460 37 52 69 
210 192 350 128 81 68 
218 954 345 79 61 50 
251 136 302 116 84 112 
256 119 436 88 81 75 
171 614 350 156 164 183 
410 721 484 165 42 65 
304 71 443 133 106 84 
292 207 457 90 79 73 
182 604 252 99 88 78 
223 277 480 112 117 125 
233 536 297 72 76 82 
271 84 364 91 72 55 
404 749 430 170 154 145 
239 960 405 102 84 73 
248 283 352 126 42 84 
375 770 457 168 158 154 
283 837 327 250 164 116 
282 112 331 144 148 157 
202 549 301 63 71 79 
425 684 506 136 163 209 
346 550 385 148 148 156 
411 738 465 152 69 88 
264 676 227 78 101 144 
333 764 342 132 111 91 
252 135 304 109 74 112 
267 366 496 131 114 104 
403 637 498 115 92 67 
260 718 206 215 206 208 
305 778 318 152 134 121 
255 783 399 201 148 129 
328 498 442 149 151 160 
297 644 480 109 154 192 
221 690 279 76 87 119 
277 849 329 185 126 81 
238 963 403 95 77 66 
224 771 246 158 176 212 
396 628 426 79 93 109 
172 588 305 181 119 111 
226 252 386 109 115 124 
267 279 468 96 96 100 
283 73 439 116 92 70 
226 777 250 186 201 224 
221 952 323 109 92 75 
254 134 307 92 56 74 
242 152 459 77 49 50 
255 133 308 94 40 43 
162 584 323 190 128 121 
438 637 472 67 102 133 
217 500 450 135 150 176 
180 573 306 77 77 80 
439 676 508 154 175 230 
284 459 356 105 114 126 
257 757 249 171 178 205 
338 63 400 137 116 100 
200 411 387 89 101 119 
296 301 477 91 109 131 
205 289 296 113 122 135 
362 487 405 154 160 173 
355 603 475 108 92 78 
302 626 476 125 155 184 
251 137 304 87 78 112 
316 569 413 141 140 144 
250 138 304 76 84 123 
170 458 306 50 87 120 
250 139 304 63 75 118 
249 753 231 167 193 222 
442 654 493 45 65 84 
251 139 305 60 76 118 
197 745 318 159 66 60 
239 290 302 169 144 118 
225 754 396 161 136 112 
338 602 405 43 64 82 
207 269 478 100 64 74 
206 640 293 31 51 74 
249 140 305 61 77 117 
186 691 359 105 118 133 
300 872 366 106 89 76 
253 684 172 138 157 192 
294 540 335 84 103 121 
387 711 476 168 128 64 
223 483 300 70 94 117 
249 142 305 50 69 114 
174 368 449 97 117 162 
248 389 329 113 122 136 
264 453 348 89 102 116 
333 60 406 129 111 93 
244 497 285 98 115 134 
256 966 311 139 105 78 
257 48 361 86 71 58 
199 536 426 172 162 159 
271 741 447 145 139 138 
178 370 343 116 104 93 
195 441 430 57 92 154 
294 695 312 116 129 147 
246 131 438 126 61 0 
289 572 323 94 113 133 
202 387 401 50 78 101 
245 541 475 158 178 205 
216 414 297 74 104 132 
422 711 426 157 58 61 
325 771 437 204 152 119 
281 257 468 42 88 122 
162 538 319 65 83 101 
236 153 422 67 46 40 
281 96 378 112 94 79 
207 430 399 95 110 135 
204 430 391 98 110 127 
232 407 299 101 115 135 
386 773 451 181 158 139 
288 227 485 71 34 39 
253 136 307 78 83 115 
245 287 306 176 140 94 
417 682 436 93 113 132 
251 269 379 133 139 151 
340 412 424 137 143 155 
298 145 438 61 71 85 
238 679 254 73 97 138 
274 616 273 139 135 137 
278 779 420 207 156 133 
277 686 466 153 58 44 
266 904 418 199 148 123 
395 627 483 112 92 72 
303 491 353 88 104 122 
239 621 441 115 107 113 
339 64 421 137 127 119 
266 183 467 81 67 51 
229 807 284 116 102 117 
197 355 365 113 100 89 
255 136 309 71 62 84 
213 588 437 110 134 163 
443 678 474 82 121 167 
262 939 318 113 88 64 
282 182 465 106 81 66 
284 167 391 162 65 49 
174 608 335 176 179 190 
227 544 449 94 127 159 
254 138 311 57 80 113 
207 650 238 144 98 84 
238 447 488 115 128 146 
395 629 490 116 95 72 
252 140 308 55 70 118 
424 658 449 90 116 144 
333 60 426 148 137 130 
223 490 298 113 120 133 
374 744 466 169 147 128 
253 140 310 59 76 116 
260 945 410 171 129 104 
253 141 310 51 69 115 
417 680 507 145 162 203 
225 685 288 75 79 116 
218 286 292 142 136 136 
242 747 414 188 173 165 
252 143 311 53 72 118 
274 375 496 135 116 97 
424 688 505 147 169 209 
290 911 389 112 82 59 
217 271 396 107 110 116 
288 92 359 124 106 93 
316 512 449 130 150 172 
216 338 481 168 125 55 
259 103 399 103 91 79 
255 139 312 52 77 111 
221 570 306 73 72 74 
253 461 317 93 106 121 
256 714 451 146 129 114 
288 352 507 132 140 155 
280 677 470 147 57 63 
334 515 409 108 133 159 
230 464 486 96 123 161 
218 243 408 75 77 83 
312 586 456 97 85 77 
173 507 302 113 121 134 
268 446 492 105 130 173 
206 742 387 113 129 145 
396 680 498 150 168 191 
312 76 437 135 105 82 
180 622 390 119 126 146 
264 654 460 176 127 60 
187 621 241 141 101 74 
292 44 454 129 102 77 
220 723 211 92 101 139 
360 781 373 133 125 120 
316 37 433 106 94 82 
240 145 289 171 60 43 
171 294 303 163 139 113 
205 677 417 112 138 164 
218 258 295 86 111 137 
240 145 291 160 61 39 
350 501 361 145 151 162 
199 372 401 44 68 92 
323 414 445 78 105 148 
221 567 308 79 79 82 
410 732 414 74 91 113 
241 144 292 160 59 44 
246 466 286 146 155 171 
238 189 408 70 39 30 
248 344 314 84 125 159 
333 417 435 168 164 168 
327 621 323 148 150 157 
376 604 377 72 108 139 
278 246 463 111 60 91 
250 846 380 103 81 56 
339 409 404 89 104 120 
202 367 400 56 80 101 
198 389 404 99 101 107 
342 612 489 69 74 81 
311 616 482 107 134 160 
150 505 326 127 133 149 
322 80 429 127 105 86 
278 691 290 119 136 156 
209 655 420 141 162 186 
336 198 469 112 84 48 
313 861 362 123 97 77 
351 742 348 123 111 104 
180 700 372 126 142 160 
271 614 459 154 104 96 
328 634 322 97 118 142 
232 744 409 152 124 102 
258 104 403 101 90 80 
196 623 298 74 101 176 
231 582 454 140 156 179 
360 462 395 90 118 144 
337 432 432 140 150 165 
241 147 296 139 64 38 
215 796 324 152 132 115 
223 207 456 96 48 55 
309 24 461 157 140 131 
170 596 279 170 121 107 
353 651 332 130 150 178 
243 144 297 140 55 30 
338 64 399 139 118 104 
199 307 477 137 12 47 
267 934 411 162 128 103 
243 807 286 194 171 157 
191 687 373 110 121 135 
209 365 396 51 80 103 
406 745 422 182 146 110 
206 357 480 109 121 140 
335 221 454 58 94 120 
239 698 174 163 130 168 
213 251 412 110 107 108 
245 603 259 64 93 116 
243 147 299 140 62 50 
226 403 305 95 106 125 
243 146 300 131 48 32 
171 359 437 56 95 145 
266 527 471 75 101 135 
248 579 466 102 131 186 
240 148 296 137 66 59 
239 611 446 154 145 146 
217 793 268 139 65 60 
245 564 464 118 134 176 
191 512 417 113 126 142 
176 368 458 51 96 155 
251 276 388 150 152 160 
152 544 380 103 125 152 
161 576 384 93 131 164 
277 857 391 165 120 89 
240 150 297 141 70 58 
165 333 305 160 127 97 
374 610 340 171 174 185 
170 398 342 95 109 124 
280 731 299 123 135 150 
241 150 299 135 60 50 
186 345 346 118 102 96 
248 845 403 113 85 54 
407 621 457 93 101 112 
391 707 372 132 93 102 
320 203 460 119 49 6 
193 327 346 148 128 107 
319 390 445 160 158 162 
341 693 333 152 173 198 
224 261 281 90 127 159 
251 898 312 71 58 47 
255 874 328 74 61 50 
209 692 327 41 60 108 
243 148 302 134 52 31 
281 656 466 105 93 85 
324 494 446 77 104 148 
196 268 472 120 122 127 
234 340 289 73 124 167 
326 598 416 70 83 97 
255 633 238 78 111 139 
374 686 355 159 74 93 
209 386 387 47 77 121 
243 150 303 136 60 41 
295 373 470 59 89 135 
290 476 463 144 150 162 
209 472 452 160 167 181 
257 991 332 148 115 87 
272 499 330 94 106 120 
321 55 409 120 107 93 
209 384 484 67 105 145 
202 330 402 75 84 95 
215 701 212 101 123 151 
355 446 411 100 118 139 
245 144 302 133 64 55 
258 10 414 97 82 71 
413 734 468 173 55 67 
235 729 200 230 221 239 
244 147 301 139 63 42 
244 146 302 134 51 24 
283 877 327 98 73 50 
244 147 303 145 69 56 
245 414 311 120 129 142 
324 141 415 143 106 96 
167 413 366 106 117 132 
194 433 442 56 92 157 
271 815 303 187 147 101 
308 364 416 65 88 110 
215 660 289 66 91 144 
211 420 293 106 121 140 
273 92 353 122 106 92 
244 150 303 135 58 33 
313 421 394 63 98 126 
321 635 458 128 156 184 
306 181 466 124 101 64 
187 374 409 69 88 112 
206 713 304 89 103 120 
422 723 465 137 143 173 
268 350 404 63 92 115 
182 361 350 121 108 96 
297 388 470 75 93 143 
259 385 377 105 110 118 
254 173 451 74 49 58 
236 781 256 214 221 235 
392 741 472 169 167 167 
364 695 349 94 104 132 
202 364 293 127 107 85 
309 104 432 111 91 70 
271 17 442 130 116 109 
355 763 456 109 98 98 
213 290 486 126 130 138 
249 702 178 177 184 223 
413 727 413 99 108 120 
271 722 278 101 126 166 
326 493 444 128 141 157 
258 730 265 89 103 118 
164 324 444 131 69 91 
242 153 303 126 39 33 
274 855 323 147 111 75 
163 418 344 113 119 130 
323 627 465 94 122 148 
261 605 458 107 93 111 
289 448 465 141 146 158 
269 62 331 124 102 85 
184 394 299 128 133 146 
228 556 462 174 182 197 
204 438 392 78 90 123 
271 21 401 102 91 84 
281 624 290 84 101 122 
227 187 460 56 43 54 
195 684 402 130 145 164 
339 528 395 153 153 160 
252 487 489 112 139 183 
288 119 347 98 50 39 
189 727 348 105 107 141 
228 564 444 155 155 161 
245 648 215 80 106 130 
187 261 462 130 130 136 
290 884 379 164 123 100 
288 831 323 207 146 108 
380 775 409 163 161 167 
261 252 414 90 126 152 
267 338 501 172 169 173 
331 780 343 146 128 111 
189 550 304 65 71 78 
199 379 486 100 129 170 
400 717 386 175 109 76 
242 157 302 131 52 61 
181 550 410 176 165 161 
294 64 447 128 102 80 
312 827 346 187 141 110 
218 372 482 92 120 166 
307 139 387 41 73 119 
329 70 425 123 101 79 
259 734 220 186 192 206 
327 882 370 133 115 103 
180 389 441 67 97 155 
265 416 368 66 89 110 
219 511 448 169 171 180 
274 575 285 97 115 134 
387 644 507 166 185 213 
161 593 337 182 190 210 
275 78 357 96 77 62 
206 472 441 95 126 171 
168 561 395 75 121 158 
369 604 432 79 95 112 
276 563 301 92 103 115 
244 149 304 136 60 33 
376 208 452 131 101 78 
275 14 470 126 114 108 
215 276 398 74 86 97 
267 172 352 106 33 37 
257 442 497 85 107 156 
248 311 377 162 128 89 
244 151 304 135 60 42 
219 692 261 144 148 160 
189 338 344 147 127 108 
215 689 190 157 107 77 
235 682 252 43 74 114 
199 381 379 56 78 113 
204 399 400 74 84 111 
327 106 413 105 89 70 
213 283 359 119 125 137 
273 153 363 44 63 97 
178 304 418 110 89 71 
223 562 308 60 69 78 
255 613 248 71 97 122 
235 458 487 55 72 109 
216 904 410 121 95 74 
184 403 443 58 87 149 
229 667 252 89 100 135 
275 428 369 115 119 128 
189 537 416 133 138 149 
180 339 475 141 53 89 
247 150 308 133 62 45 
243 650 210 51 83 107 
274 213 476 71 39 56 
356 599 388 76 110 137 
352 733 347 141 128 122 
404 645 510 77 110 156 
304 502 456 137 149 167 
348 622 494 37 62 112 
166 559 393 80 124 158 
155 466 322 119 123 131 
269 603 272 128 132 140 
204 303 480 189 145 76 
248 620 248 94 115 136 
177 364 462 69 97 145 
321 547 418 137 148 165 
289 786 421 215 165 140 
198 701 340 66 84 101 
351 576 374 89 134 169 
243 156 305 124 22 32 
310 511 353 104 120 138 
355 686 337 155 173 197 
430 688 503 89 124 194 
252 323 342 109 125 144 
287 512 331 116 121 129 
182 370 321 136 61 8 
300 736 312 140 73 75 
217 287 380 91 112 131 
420 711 420 123 65 107 
287 799 306 175 141 101 
243 158 307 128 50 81 
340 61 415 123 109 100 
202 236 419 96 101 109 
219 600 271 43 88 117 
234 904 422 190 144 120 
358 792 377 171 126 92 
217 664 286 107 121 143 
267 432 493 81 103 152 
193 671 364 88 103 140 
304 796 323 147 136 131 
181 378 418 108 133 159 
294 947 347 129 105 84 
208 630 217 100 91 84 
141 524 364 113 132 154 
299 845 338 194 150 117 
312 452 455 170 166 169 
363 541 348 85 118 150 
268 170 455 109 52 7 
351 790 361 147 110 75 
226 708 187 109 147 191 
237 562 285 69 84 98 
229 218 402 94 95 98 
147 546 336 72 96 117 
245 154 308 130 50 43 
183 354 465 98 125 159 
225 813 296 189 157 129 
261 679 189 91 114 136 
232 866 414 148 119 91 
214 495 424 91 103 139 
193 741 346 61 79 149 
268 583 461 62 86 148 
296 96 389 132 114 97 
208 602 278 49 94 125 
275 405 379 95 109 123 
277 297 454 147 124 100 
174 326 468 138 67 94 
380 582 360 164 167 177 
359 606 421 78 94 111 
361 650 335 169 167 174 
363 650 470 132 160 189 
331 476 371 74 101 125 
404 717 392 158 96 62 
251 423 341 88 101 117 
208 389 294 99 117 139 
245 156 307 130 42 45 
220 529 298 64 72 81 
176 367 458 93 128 166 
230 966 357 103 80 57 
265 698 199 148 152 161 
273 475 342 80 92 106 
182 447 301 118 128 145 
261 143 326 48 51 66 
233 613 440 118 73 90 
200 284 306 114 112 133 
226 776 372 193 167 146 
299 917 343 87 70 57 
260 131 441 116 69 20 
290 262 466 60 99 127 
269 460 491 122 148 180 
284 542 318 101 111 126 
236 461 304 85 99 116 
250 426 332 88 103 120 
182 302 304 153 128 101 
182 523 300 74 87 116 
219 781 257 180 192 212 
393 766 447 190 160 131 
240 367 485 67 89 120 
328 124 400 161 73 5 
373 207 453 128 96 74 
414 730 473 165 29 71 
259 648 243 106 125 145 
293 283 492 116 119 128 
246 159 313 130 56 92 
296 750 443 203 154 122 
251 368 338 57 85 126 
206 239 348 141 135 135 
247 159 314 124 45 87 
275 190 472 41 53 96 
291 495 461 121 134 150 
267 508 471 119 128 143 
248 145 306 127 63 70 
238 800 360 134 94 77 
396 695 486 110 131 153 
171 414 304 54 85 124 
336 79 418 140 107 84 
395 705 374 168 35 37 
298 319 490 127 139 155 
256 476 315 95 107 122 
279 72 427 99 77 58 
233 682 271 83 95 124 
257 28 412 113 88 87 
169 351 306 169 136 99 
371 599 365 74 110 140 
308 53 454 144 110 94 
367 787 392 163 121 83 
237 648 455 154 103 54 
404 749 439 163 140 119 
262 746 248 114 134 163 
251 961 400 103 86 72 
271 957 316 124 97 65 
206 644 417 74 118 154 
336 870 363 107 91 77 
245 543 474 101 129 190 
378 734 468 82 81 96 
257 760 263 100 128 160 
376 541 365 110 81 93 
284 366 485 160 135 109 
192 397 298 124 129 139 
168 340 459 143 46 88 
233 857 410 140 110 85 
288 315 437 124 128 137 
236 216 391 133 119 105 
248 149 308 133 49 26 
249 763 245 148 162 203 
261 987 330 156 127 97 
277 170 384 113 85 111 
157 548 328 107 124 188 
297 153 391 144 44 74 
259 221 343 83 118 145 
235 275 298 133 133 137 
231 220 397 132 113 93 
271 332 507 133 118 115 
279 295 450 107 119 134 
162 442 317 78 103 135 
242 420 295 88 112 138 
251 144 395 39 63 84 
321 116 423 118 95 65 
275 284 501 108 108 113 
211 768 352 90 81 88 
175 394 366 82 101 121 
368 216 441 143 86 47 
299 923 345 62 45 37 
261 197 343 91 125 151 
288 203 423 122 38 72 
316 583 400 66 87 105 
162 426 313 45 77 128 
254 439 498 92 117 156 
354 774 361 127 133 143 
171 620 358 102 123 173 
224 751 229 125 138 193 
319 810 344 176 133 102 
219 505 467 51 91 165 
448 665 510 68 100 126 
190 371 406 47 69 102 
188 338 340 148 128 109 
342 679 457 125 43 78 
305 271 466 175 171 177 
212 605 273 87 114 138 
214 806 290 75 35 109 
233 579 305 59 64 72 
313 33 455 85 87 92 
211 249 353 117 123 134 
390 771 435 155 143 138 
340 621 490 46 74 127 
273 90 334 141 125 112 
343 630 466 141 159 182 
312 582 431 70 107 136 
313 92 431 120 95 70 
254 144 314 46 59 105 
309 839 347 193 146 115 
285 352 485 153 130 108 
156 566 319 107 85 66 
274 195 470 27 55 98 
238 357 301 95 118 142 
193 620 269 147 101 91 
254 146 315 44 65 111 
287 698 464 131 129 133 
266 521 471 71 96 134 
255 146 315 41 64 111 
229 315 283 134 142 163 
262 412 367 112 115 121 
218 695 231 57 65 76 
261 676 195 96 120 145 
283 938 323 106 78 51 
269 877 321 63 46 44 
211 218 354 68 101 127 
234 701 177 187 132 114 
321 494 363 76 103 128 
166 604 364 64 125 167 
253 266 392 119 136 156 
267 468 342 98 106 116 
287 513 331 109 115 125 
391 707 371 121 88 106 
182 384 369 69 92 115 
286 313 435 92 106 122 
183 606 285 167 112 107 
192 541 301 57 69 80 
237 788 374 152 137 126 
150 469 370 135 140 150 
196 433 293 79 105 136 
264 759 428 201 151 126 
258 939 317 79 53 26 
359 481 413 127 146 168 
261 814 300 175 140 97 
140 541 364 53 78 136 
247 220 473 83 49 35 
223 652 443 74 71 133 
254 149 316 63 61 109 
333 875 368 119 110 103 
234 744 216 199 198 226 
354 573 337 93 124 153 
279 912 408 200 143 117 
150 556 314 185 127 120 
223 298 285 154 154 160 
276 33 439 126 105 90 
255 150 317 68 60 104 
201 454 418 130 131 139 
232 276 287 152 151 156 
248 152 309 128 46 26 
251 401 352 49 79 103 
287 756 438 210 158 125 
193 438 392 76 89 111 
279 255 464 47 90 120 
317 373 420 114 122 133 
224 886 344 132 59 17 
224 902 319 100 82 66 
218 303 486 102 131 171 
248 155 311 129 60 71 
250 152 311 124 44 41 
430 677 456 117 132 154 
192 581 283 97 87 79 
293 355 414 60 87 122 
239 856 415 140 112 87 
208 327 292 137 107 82 
249 347 360 73 99 123 
386 612 429 91 106 122 
202 407 474 64 88 141 
250 153 312 122 52 65 
311 46 419 111 104 99 
153 552 331 101 111 125 
204 935 381 129 102 85 
273 504 329 65 83 100 
250 154 313 121 56 69 
315 760 441 194 139 108 
266 556 280 128 130 136 
222 321 286 147 151 161 
189 420 433 75 100 159 
274 91 345 129 116 104 
378 773 402 160 146 136 
341 599 427 71 82 93 
315 252 474 133 74 82 
165 560 319 82 79 80 
212 462 478 112 130 173 
324 386 436 123 135 153 
159 448 315 78 106 136 
236 563 288 73 83 94 
313 641 461 102 145 182 
226 615 436 166 161 164 
223 878 354 118 61 23 
186 351 352 124 83 59 
174 499 404 91 108 132 
170 469 396 91 105 131 
410 731 410 89 94 103 
372 598 444 70 90 109 
184 542 303 55 68 81 
272 584 279 94 115 136 
277 847 318 172 123 81 
218 757 387 179 160 148 
269 165 452 117 56 0 
220 968 324 119 92 70 
179 466 398 77 94 118 
167 546 318 83 99 117 
287 200 421 118 78 93 
199 561 427 87 109 131 
350 219 466 139 126 136 
168 575 277 120 101 82 
286 615 312 83 125 159 
320 424 451 148 152 163 
252 778 401 201 148 129 
203 629 281 81 141 186 
216 213 417 80 50 50 
283 223 437 138 56 5 
195 422 294 113 123 138 
203 619 269 95 95 104 
268 474 488 112 134 181 
318 225 456 103 81 93 
227 386 300 82 93 123 
192 640 333 141 152 187 
175 473 398 99 110 131 
258 109 417 66 52 32 
309 839 372 204 148 116 
248 638 226 105 126 145 
233 812 323 134 118 109 
161 541 320 65 79 93 
198 256 333 131 127 129 
389 768 428 182 156 133 
355 783 366 157 126 93 
272 462 350 93 105 118 
374 604 434 78 95 113 
162 512 394 170 164 166 
225 773 375 117 80 65 
239 678 230 113 118 130 
287 470 352 118 121 128 
163 596 337 87 118 189 
217 678 295 108 124 162 
143 520 371 116 128 149 
176 381 355 90 105 127 
249 332 312 84 106 142 
271 60 340 115 95 79 
358 806 389 206 150 117 
242 412 298 60 95 123 
221 629 222 111 100 90 
207 411 292 116 129 148 
254 155 319 126 55 78 
266 986 353 136 101 72 
322 537 420 165 160 163 
255 155 319 122 56 74 
256 430 349 52 73 92 
189 564 311 75 79 85 
216 264 358 73 104 131 
156 495 311 100 111 126 
204 317 358 150 128 107 
360 224 444 66 115 153 
425 660 450 81 108 139 
320 866 371 107 95 85 
342 203 460 105 76 23 
203 657 324 127 150 188 
183 359 464 135 142 162 
234 758 401 156 142 138 
155 576 327 162 96 85 
173 328 466 146 68 84 
447 660 486 117 138 173 
398 703 487 168 55 78 
224 161 284 76 45 59 
225 777 370 181 156 133 
307 790 421 219 169 139 
287 332 422 95 113 135 
177 599 396 145 157 176 
234 204 402 93 42 34 
255 641 251 83 114 146 
200 754 304 158 55 60 
229 564 446 161 160 168 
209 894 339 106 83 60 
265 56 346 105 88 71 
248 293 355 144 60 89 
225 884 350 155 80 49 
200 741 301 155 172 193 
223 209 362 106 42 63 
264 662 235 11 65 129 
278 752 295 60 67 99 
262 12 403 93 83 79 
398 647 410 57 73 105 
332 712 456 116 107 107 
274 299 428 115 116 120 
209 231 415 72 81 92 
311 49 453 127 99 85 
298 161 407 172 27 81 
222 972 328 94 77 58 
284 123 344 169 43 27 
258 697 268 120 127 137 
327 64 428 103 84 65 
378 654 497 146 175 204 
272 178 382 109 40 54 
227 165 284 61 49 74 
227 165 285 62 49 73 
198 727 313 104 115 129 
261 93 307 141 125 114 
256 51 397 87 67 52 
250 711 185 159 172 224 
306 867 356 109 87 66 
194 670 384 97 128 157 
278 709 466 185 166 150 
181 484 299 101 115 135 
229 161 285 103 39 52 
260 151 451 96 53 12 
212 302 292 172 144 114 
265 933 414 179 137 109 
299 689 459 57 50 67 
366 705 462 56 31 79 
216 888 401 177 137 113 
311 216 458 132 74 68 
298 858 364 180 130 101 
333 599 420 82 94 108 
250 888 319 55 43 36 
278 688 289 100 127 153 
231 161 287 112 45 65 
266 542 288 107 118 133 
255 590 459 93 102 164 
270 20 399 103 91 84 
220 961 383 92 78 68 
291 129 437 131 63 3 
281 369 403 78 100 124 
301 104 433 115 93 69 
202 759 286 133 45 63 
229 164 286 78 52 65 
268 30 384 88 75 66 
228 166 285 57 49 70 
218 653 273 127 136 171 
205 306 480 153 140 134 
228 167 286 57 50 73 
292 721 308 122 115 118 
259 124 301 165 54 54 
206 590 287 82 77 75 
325 248 449 173 89 98 
337 875 364 102 95 89 
338 509 409 124 147 172 
150 462 354 99 110 127 
144 492 357 134 136 144 
333 631 455 100 132 160 
329 667 322 90 140 181 
310 861 353 134 103 74 
283 745 300 128 21 32 
270 268 466 90 87 90 
396 628 484 113 94 74 
196 365 300 128 111 95 
247 417 319 85 104 124 
202 257 306 115 116 130 
277 562 301 108 115 124 
192 377 468 64 110 147 
325 599 391 90 96 106 
144 520 373 105 122 148 
270 556 456 135 142 156 
310 51 417 71 57 42 
252 683 443 108 60 78 
293 76 442 127 101 78 
158 444 331 90 106 125 
209 785 324 103 107 120 
298 218 459 64 26 31 
270 807 389 178 116 100 
264 540 281 100 114 130 
231 580 452 91 108 154 
251 558 470 148 168 194 
233 198 367 43 77 101 
386 747 468 163 147 137 
250 874 426 184 142 117 
385 664 497 108 140 189 
422 689 413 163 167 178 
282 934 397 99 77 63 
293 708 461 141 133 130 
263 730 237 103 119 136 
276 96 371 105 87 72 
373 615 459 40 56 72 
193 719 335 103 115 130 
243 675 169 124 99 70 
227 172 285 55 68 105 
267 421 367 80 99 117 
255 829 356 154 115 86 
318 646 320 94 112 137 
226 174 284 59 76 122 
284 510 461 111 127 159 
356 621 502 104 130 165 
266 327 409 101 112 127 
209 355 293 149 128 111 
376 219 458 178 127 36 
264 316 408 91 102 117 
227 175 287 54 75 123 
389 629 463 74 81 91 
299 154 442 101 92 94 
324 529 426 135 140 151 
357 690 458 186 153 111 
229 168 286 57 50 74 
438 681 468 79 118 161 
275 957 322 125 96 67 
211 361 293 120 118 129 
217 776 352 161 139 122 
245 928 424 196 147 123 
181 367 334 109 86 69 
241 972 308 182 147 108 
237 986 356 115 84 63 
255 798 281 83 89 97 
281 223 419 139 112 71 
237 872 352 106 85 58 
300 183 470 151 63 6 
228 172 287 58 66 102 
250 366 342 51 82 121 
266 284 423 81 73 77 
202 333 477 146 39 87 
256 187 468 57 59 63 
365 566 342 129 141 157 
279 226 419 123 121 125 
365 489 377 112 131 152 
381 758 392 147 116 85 
306 667 458 142 39 54 
320 559 408 127 140 159 
275 210 407 154 148 149 
282 225 431 160 63 7 
296 951 386 143 122 102 
142 527 370 124 139 158 
255 360 382 94 105 120 
304 778 318 155 138 124 
221 290 492 83 115 143 
424 692 502 157 166 212 
222 265 372 79 111 138 
390 624 355 167 167 174 
246 349 486 106 129 154 
165 585 322 175 120 118 
349 604 394 65 92 117 
191 727 388 189 99 107 
378 566 349 139 141 147 
249 299 312 186 141 90 
262 227 395 114 127 144 
214 268 402 96 91 90 
396 762 439 163 135 106 
328 524 419 107 123 152 
215 742 399 153 131 111 
358 600 456 118 122 130 
293 608 466 147 106 97 
335 426 392 21 65 112 
276 471 346 113 116 123 
264 788 402 195 140 122 
312 651 320 110 129 150 
272 548 300 80 102 123 
219 699 289 114 125 147 
240 912 313 61 47 34 
217 653 429 130 150 172 
265 667 231 60 48 120 
195 324 351 152 131 110 
312 744 451 107 124 144 
413 640 437 35 59 89 
209 203 445 101 43 14 
255 274 325 101 119 139 
299 763 436 205 153 123 
222 713 200 142 155 182 
215 218 356 71 96 116 
381 579 347 125 133 146 
211 748 246 129 137 155 
240 646 215 51 85 124 
255 764 415 195 147 122 
249 323 363 141 143 152 
177 617 340 160 163 175 
220 711 201 164 171 188 
232 894 424 175 129 113 
262 650 267 72 90 115 
175 605 258 134 95 76 
265 118 424 106 86 63 
429 677 455 115 129 151 
280 197 470 64 51 70 
252 754 235 113 123 189 
385 692 475 56 108 147 
285 928 320 97 76 60 
337 494 432 119 133 153 
228 721 195 129 140 202 
169 314 426 158 129 93 
405 738 472 117 111 110 
194 250 419 70 87 105 
178 327 471 131 53 84 
359 679 338 153 162 178 
301 409 467 63 91 148 
215 810 297 179 139 93 
261 564 468 118 132 160 
213 639 207 101 92 84 
226 188 287 126 44 54 
226 189 286 134 52 59 
306 689 316 116 133 154 
302 438 375 106 118 132 
200 660 406 166 158 158 
369 595 449 79 98 116 
203 448 464 73 102 169 
192 466 292 162 159 163 
241 791 267 191 132 137 
230 801 343 152 129 113 
285 66 418 83 67 49 
333 636 455 122 147 174 
220 670 433 86 69 60 
271 796 399 198 141 125 
228 191 287 127 72 88 
398 757 435 169 149 134 
396 762 445 179 148 115 
223 307 487 117 142 169 
174 626 368 122 148 179 
251 724 443 193 151 96 
172 333 460 146 102 75 
324 516 438 161 160 166 
255 447 335 83 98 114 
316 534 347 151 150 156 
203 351 294 133 117 103 
191 656 380 80 77 108 
367 590 337 111 133 156 
196 382 377 56 76 114 
342 780 351 135 140 150 
283 701 466 150 107 111 
232 196 456 84 43 56 
268 468 342 91 102 115 
269 332 411 96 105 119 
247 608 453 173 119 115 
261 181 331 144 46 1 
251 786 269 172 40 64 
354 701 339 95 91 129 
341 818 376 218 161 127 
310 649 320 119 130 145 
