ply
format ascii 1.0
comment Created by CloudCompare v2.11.1 (Anoia)
comment Created 2/28/22 9:37 PM
obj_info Generated by CloudCompare!
element vertex 2007
property float x
property float y
property float z
property uchar red
property uchar green
property uchar blue
end_header
243 415 290 206 73 0 
248 52 494 109 92 76 
248 53 494 109 92 76 
192 518 440 97 110 144 
287 898 351 85 63 58 
249 53 494 109 92 76 
250 580 327 61 70 81 
252 286 401 131 126 127 
181 378 473 82 108 145 
209 554 486 99 127 171 
251 883 372 93 74 52 
242 556 315 157 160 169 
208 611 311 109 95 84 
329 646 328 159 162 173 
257 15 485 80 69 58 
230 288 541 162 164 173 
250 260 497 74 112 142 
192 209 505 136 35 26 
224 227 403 75 45 48 
308 546 346 113 117 124 
303 743 240 148 152 212 
181 582 419 172 171 179 
276 755 246 140 146 205 
294 550 338 82 95 110 
199 652 434 118 132 150 
274 136 343 111 90 66 
349 606 415 104 120 141 
249 56 494 105 88 72 
255 413 295 171 73 7 
270 627 542 69 87 133 
237 673 337 82 91 104 
279 817 316 173 154 139 
312 687 257 127 136 155 
369 682 559 133 143 170 
235 622 487 135 87 83 
198 300 498 135 136 143 
217 579 318 88 114 139 
167 291 414 119 111 117 
291 612 451 81 69 68 
226 570 482 83 112 162 
237 402 502 77 64 70 
237 294 405 141 34 65 
292 593 463 73 108 137 
250 59 494 113 95 78 
259 762 474 186 141 113 
175 378 333 82 98 136 
234 629 275 96 86 79 
162 548 334 122 133 151 
257 113 380 108 78 61 
196 168 527 127 30 35 
284 674 275 52 67 91 
218 617 473 147 108 93 
253 358 504 50 82 115 
304 432 507 108 127 148 
287 900 440 177 123 94 
245 202 501 90 33 52 
253 805 415 177 122 101 
191 398 349 49 78 121 
252 625 308 72 72 74 
195 405 370 78 96 130 
286 172 458 130 57 68 
258 277 492 153 148 150 
171 306 363 144 143 149 
277 153 340 135 69 3 
255 415 295 172 86 7 
236 585 324 50 63 76 
320 870 410 136 104 82 
250 62 494 112 93 76 
224 983 385 164 138 114 
332 537 421 132 132 138 
256 185 398 58 57 63 
288 687 507 126 37 40 
329 597 398 99 117 136 
172 279 390 83 76 84 
267 45 468 76 67 59 
216 616 301 125 104 82 
278 859 431 156 110 79 
194 593 444 152 153 160 
268 967 351 128 100 66 
253 289 453 136 135 140 
243 748 290 136 155 177 
177 309 408 116 92 103 
253 61 495 109 92 77 
313 665 367 138 138 145 
252 62 495 107 89 73 
372 750 509 114 100 90 
247 668 321 50 60 93 
232 505 297 65 115 176 
171 203 488 103 32 39 
176 580 394 158 146 145 
265 384 318 108 101 94 
272 490 362 72 84 96 
286 357 494 122 133 148 
266 59 392 115 92 72 
271 102 370 119 93 69 
153 285 433 63 97 125 
212 671 450 181 127 41 
200 394 394 74 92 120 
300 670 247 73 96 121 
288 486 387 81 92 104 
204 189 497 65 34 37 
168 202 436 58 54 62 
364 763 496 147 131 119 
288 340 336 175 169 170 
231 306 412 138 46 81 
170 486 370 161 156 157 
292 391 500 114 125 140 
252 48 497 109 92 76 
319 806 369 152 130 109 
216 376 501 125 112 102 
263 264 394 148 148 156 
287 882 439 180 131 102 
177 480 317 90 111 143 
271 521 320 160 157 161 
302 802 503 189 144 115 
253 50 497 110 92 75 
302 444 508 156 159 169 
366 653 585 120 148 185 
164 159 482 45 48 77 
230 767 327 163 124 76 
295 801 310 205 167 119 
325 785 525 183 175 176 
239 669 335 76 89 107 
197 612 322 105 93 82 
361 760 517 167 155 151 
211 169 545 81 60 72 
268 228 436 78 121 155 
259 660 278 91 77 80 
233 758 454 182 163 148 
252 53 496 113 94 75 
223 637 476 76 61 59 
179 433 472 75 103 150 
260 37 358 121 106 92 
355 743 548 174 82 93 
273 224 390 130 32 58 
201 386 313 96 94 94 
320 658 315 88 119 173 
266 208 465 138 17 56 
254 52 497 116 97 80 
213 532 495 105 132 178 
340 796 495 192 135 98 
297 887 416 132 100 74 
204 744 401 191 165 140 
234 642 286 176 118 101 
219 688 332 66 88 111 
230 408 290 215 177 137 
255 54 497 116 96 78 
268 319 369 144 143 149 
192 664 405 168 161 162 
359 717 572 172 182 199 
194 453 490 65 100 164 
207 699 326 68 81 124 
238 647 281 171 115 99 
331 816 409 175 133 98 
177 619 367 182 130 119 
292 647 541 124 149 177 
195 348 339 104 116 133 
167 394 446 81 108 144 
209 649 343 171 111 105 
325 560 466 161 163 174 
164 191 469 116 33 40 
255 184 389 65 45 45 
344 524 442 124 127 135 
185 597 330 92 127 157 
159 240 443 143 140 143 
203 309 507 81 98 116 
255 63 496 103 87 72 
336 678 609 143 156 182 
272 984 357 140 111 78 
331 679 385 87 126 159 
192 125 438 159 137 119 
179 415 474 80 98 141 
300 942 383 79 63 56 
215 907 377 80 64 54 
211 750 408 105 100 100 
324 475 496 171 167 171 
321 446 460 75 100 123 
304 817 460 192 144 117 
312 608 526 115 117 122 
232 971 435 88 72 60 
286 437 425 115 119 127 
176 468 375 110 113 138 
238 290 407 130 22 48 
271 610 345 69 90 109 
253 368 378 56 89 129 
332 740 384 143 64 58 
323 835 427 213 154 118 
292 81 494 142 113 91 
273 652 276 68 60 56 
297 737 518 135 123 114 
322 832 435 213 151 116 
184 423 360 85 103 124 
242 858 416 124 91 42 
183 548 405 113 124 142 
193 123 442 156 136 119 
160 213 420 82 50 58 
333 821 419 191 142 111 
238 270 420 137 138 146 
240 264 549 106 37 55 
189 460 311 105 118 138 
313 613 533 39 65 86 
162 248 469 76 105 129 
193 661 411 78 67 86 
229 236 537 98 90 107 
192 120 446 143 126 112 
362 750 531 220 199 182 
230 782 357 177 155 141 
269 357 506 99 123 148 
194 215 423 50 55 62 
215 445 506 136 150 174 
273 651 267 79 68 60 
274 660 219 96 86 77 
371 752 505 165 131 98 
197 356 378 113 123 140 
198 431 407 74 89 124 
189 692 381 122 136 153 
258 899 461 201 154 133 
194 122 445 152 133 117 
255 620 523 69 74 93 
255 162 421 94 76 67 
232 207 549 107 77 80 
195 122 446 152 133 117 
274 798 455 184 133 112 
317 487 496 156 159 170 
251 648 290 82 77 75 
278 381 328 154 135 119 
233 532 487 138 148 170 
325 613 495 42 79 104 
358 679 612 129 153 202 
315 697 271 64 83 110 
249 196 397 67 55 53 
249 284 449 119 119 123 
242 337 291 137 44 61 
277 411 353 48 72 106 
237 299 523 155 159 170 
159 273 463 109 120 135 
195 127 440 154 133 116 
282 388 507 104 125 149 
220 277 367 102 98 99 
285 652 329 52 89 127 
226 400 522 161 145 135 
196 361 387 81 95 130 
243 802 392 182 131 111 
383 695 522 159 158 164 
196 122 447 151 132 116 
197 122 446 155 135 118 
235 789 336 115 102 91 
197 123 446 156 136 119 
188 700 380 118 137 158 
303 771 298 162 179 201 
287 231 346 22 58 118 
254 408 409 76 90 106 
174 564 321 90 111 133 
194 654 365 141 97 80 
192 628 422 176 166 166 
360 652 416 75 118 153 
272 204 320 122 73 50 
230 730 307 146 167 193 
352 552 435 96 119 142 
226 509 488 65 73 111 
197 125 443 162 141 124 
345 717 584 190 204 226 
281 565 331 100 110 123 
243 543 492 106 128 159 
320 816 493 206 141 115 
325 738 297 201 196 202 
194 718 355 133 155 179 
228 708 478 86 66 58 
192 473 390 135 138 148 
221 740 448 164 116 79 
361 726 557 182 21 55 
159 193 451 80 56 40 
248 739 276 142 151 172 
223 161 488 101 42 44 
267 388 507 141 147 159 
192 659 375 168 125 129 
171 524 372 136 149 169 
185 487 387 88 98 139 
272 208 437 106 45 46 
198 125 444 160 140 122 
221 294 345 92 95 103 
347 796 453 177 125 96 
162 252 471 82 76 90 
260 873 379 98 78 53 
189 455 486 93 117 159 
306 530 358 88 96 108 
268 616 350 62 89 110 
178 408 409 57 85 129 
308 848 378 179 136 105 
240 774 439 197 146 118 
265 594 502 99 87 78 
313 503 420 78 97 118 
206 371 319 132 92 74 
303 842 425 205 150 116 
201 124 447 151 132 115 
360 602 469 90 133 166 
167 195 483 42 40 54 
270 61 336 161 129 106 
206 169 516 37 43 69 
176 368 466 89 113 154 
304 540 336 154 159 171 
261 437 370 34 42 106 
326 475 449 78 102 126 
283 389 363 97 121 148 
202 125 447 150 130 114 
180 481 448 128 146 184 
242 640 309 89 84 86 
271 331 503 84 101 136 
234 954 449 165 126 109 
278 399 346 66 90 145 
199 454 304 145 142 145 
188 521 405 134 141 156 
260 516 311 165 159 159 
275 681 282 57 73 96 
282 179 478 146 72 64 
392 712 490 149 61 66 
206 634 442 63 114 154 
264 288 478 134 134 140 
292 364 463 72 95 116 
254 440 387 24 67 100 
199 185 486 49 36 40 
300 653 581 158 173 194 
229 625 480 112 79 83 
322 613 488 70 91 111 
276 986 393 146 121 96 
204 711 335 153 171 193 
316 628 342 84 122 158 
173 430 456 77 108 153 
316 683 235 88 107 126 
282 438 422 99 106 115 
272 436 344 48 71 111 
209 590 321 94 111 132 
316 546 400 107 117 131 
295 365 472 89 111 133 
312 626 363 101 58 69 
319 737 270 109 144 188 
266 304 364 129 134 144 
257 962 346 85 70 58 
335 529 474 152 162 179 
215 169 448 105 42 16 
300 607 485 55 52 50 
233 673 480 138 98 67 
233 991 378 189 164 142 
240 67 385 107 87 68 
173 488 329 112 117 129 
228 410 291 214 179 141 
278 990 385 134 106 82 
192 654 384 55 54 58 
256 807 299 205 152 102 
283 52 479 110 99 90 
328 602 469 57 95 126 
236 156 490 112 60 56 
238 361 289 180 149 115 
278 463 362 76 104 144 
200 403 305 140 105 59 
214 689 334 86 98 116 
251 248 456 117 80 91 
282 797 465 182 135 108 
228 575 482 108 139 168 
188 436 413 66 89 131 
311 703 536 166 134 92 
271 507 322 75 92 110 
182 427 412 64 84 131 
217 624 297 169 118 105 
303 770 300 156 163 177 
299 803 491 185 142 112 
242 67 388 105 85 64 
172 285 376 80 87 95 
318 710 331 114 134 177 
275 341 502 84 117 146 
316 704 325 152 166 185 
307 755 333 147 23 52 
313 714 540 127 90 79 
240 69 384 107 88 69 
260 778 463 192 143 116 
362 566 442 161 162 170 
294 750 513 87 87 89 
262 218 456 132 115 117 
250 273 457 73 79 90 
178 442 307 69 100 150 
275 202 445 113 68 80 
240 70 385 106 86 66 
349 700 403 145 157 175 
161 229 420 119 114 111 
250 179 414 87 54 41 
217 766 390 175 145 122 
241 70 387 104 83 63 
244 775 446 198 147 120 
239 333 502 115 110 114 
362 697 586 110 138 188 
199 695 426 160 111 86 
265 243 309 131 88 71 
219 917 456 161 130 108 
297 499 506 103 114 152 
353 760 526 160 143 132 
243 68 389 103 83 62 
202 491 488 74 97 152 
242 743 480 155 140 131 
295 606 484 64 61 61 
242 70 388 104 84 63 
252 312 390 153 112 58 
180 411 326 62 96 133 
207 718 430 174 61 47 
243 71 388 104 83 63 
291 685 196 132 101 68 
284 389 445 106 114 125 
302 434 442 93 110 128 
249 256 460 74 110 139 
234 261 521 74 104 129 
196 393 360 75 96 131 
211 747 359 171 71 97 
193 599 439 152 155 165 
177 475 327 134 136 143 
186 501 307 159 150 148 
316 736 255 112 123 209 
334 545 418 115 113 117 
177 598 368 81 125 162 
244 71 390 103 81 62 
271 313 359 142 140 143 
245 640 304 81 80 80 
262 98 463 81 70 59 
192 451 490 95 121 165 
169 473 346 46 80 123 
284 381 368 110 130 152 
357 595 424 106 125 148 
308 532 390 87 109 132 
199 720 413 159 50 67 
294 853 420 181 127 98 
272 669 291 95 98 105 
232 930 461 182 139 117 
198 292 505 71 110 141 
291 446 511 125 141 162 
331 452 483 148 153 165 
246 64 394 102 82 60 
279 772 263 117 132 216 
229 783 390 132 117 106 
283 631 564 86 115 147 
161 361 442 149 153 166 
198 190 512 38 46 89 
233 684 484 134 49 29 
183 423 331 85 101 136 
325 629 336 100 61 87 
199 653 433 118 137 158 
236 990 371 181 147 112 
193 362 481 98 110 128 
247 66 395 102 80 60 
213 504 497 114 129 170 
200 732 355 155 177 203 
245 69 392 102 81 60 
193 456 386 127 131 141 
270 640 245 111 99 89 
235 788 347 146 132 122 
246 68 393 100 79 59 
271 152 490 96 101 111 
254 282 458 132 130 133 
253 718 492 36 38 43 
226 632 478 139 102 93 
221 966 413 80 65 52 
254 639 509 114 144 174 
320 477 438 68 93 118 
276 660 498 85 127 160 
210 535 308 72 98 142 
192 671 399 75 82 94 
219 216 419 54 46 53 
277 95 469 82 70 58 
202 631 325 175 118 108 
235 612 321 69 78 88 
354 777 482 145 135 132 
343 611 545 76 103 126 
314 689 554 94 115 180 
221 875 430 143 106 78 
201 720 348 131 154 181 
165 339 411 133 74 98 
247 881 378 103 82 56 
338 784 401 188 164 144 
278 900 453 181 129 105 
181 369 340 112 118 145 
271 541 502 139 150 168 
191 365 353 91 109 143 
362 702 584 122 144 183 
178 320 343 92 80 73 
330 516 481 146 155 173 
295 788 296 194 37 62 
277 195 450 94 61 89 
236 333 527 99 124 152 
258 337 380 150 111 52 
256 665 275 97 75 74 
222 355 512 116 122 140 
209 627 448 123 117 119 
253 984 355 105 75 56 
147 293 426 117 131 150 
240 267 546 83 78 90 
254 431 298 144 123 100 
249 251 450 79 122 157 
242 652 277 164 111 91 
241 78 384 101 82 63 
258 445 313 87 109 143 
287 167 408 150 40 22 
242 77 385 100 81 63 
253 202 501 113 31 58 
273 58 379 108 92 77 
285 343 486 77 113 142 
243 76 387 99 78 59 
366 647 556 92 127 159 
243 77 387 98 78 58 
242 78 384 100 82 63 
219 279 365 103 101 104 
231 712 293 122 136 179 
287 640 556 67 87 156 
301 610 520 77 83 92 
243 79 385 97 78 58 
252 225 492 165 72 3 
250 949 456 196 143 117 
268 477 379 66 79 93 
163 532 335 127 133 145 
263 848 386 125 95 67 
291 507 365 71 85 100 
317 692 280 67 108 156 
164 221 455 49 65 102 
233 690 484 150 62 30 
253 802 423 175 119 100 
219 296 509 89 117 144 
210 628 312 169 117 103 
292 658 282 84 89 97 
332 825 439 214 153 119 
245 74 389 100 79 59 
308 542 471 139 148 161 
195 271 378 91 96 105 
198 328 480 156 112 56 
351 632 483 95 65 69 
218 495 501 86 118 166 
316 423 481 130 138 150 
344 687 396 80 125 160 
255 628 269 110 99 90 
322 704 368 129 136 150 
291 689 511 109 38 46 
213 382 290 148 25 62 
306 818 461 197 147 119 
319 549 402 113 120 131 
318 526 414 113 120 130 
266 723 245 125 129 162 
286 198 341 108 57 29 
244 76 388 98 77 57 
326 507 427 71 98 122 
258 157 325 137 102 72 
281 328 329 134 141 153 
258 383 506 64 99 138 
245 618 320 66 77 89 
278 343 355 148 143 145 
248 715 271 111 130 166 
181 449 374 93 100 133 
301 596 334 79 82 93 
200 683 374 89 99 111 
306 808 336 43 48 58 
151 344 416 152 92 101 
274 781 472 185 138 112 
275 755 246 111 127 194 
308 817 489 192 137 111 
381 715 527 152 165 184 
316 602 321 98 73 63 
241 983 354 185 140 93 
234 266 508 105 115 129 
247 78 390 100 76 56 
249 388 382 64 97 134 
272 217 316 105 53 65 
304 495 504 169 168 173 
284 194 377 30 52 103 
198 604 445 119 137 160 
341 611 527 85 100 117 
247 74 392 101 77 58 
248 64 395 104 80 60 
154 172 474 45 36 50 
352 557 471 169 173 185 
275 60 339 150 124 104 
272 136 338 120 95 65 
178 361 326 104 94 85 
371 598 452 164 166 174 
213 289 372 113 112 116 
199 741 375 218 181 134 
253 971 349 109 79 47 
173 342 348 133 146 164 
249 65 396 107 82 65 
193 690 416 73 114 148 
244 247 500 90 113 136 
244 666 314 51 63 104 
193 255 500 131 135 144 
291 878 370 109 82 62 
298 551 485 179 169 168 
308 412 457 102 117 136 
208 360 302 135 115 95 
280 489 355 123 140 161 
224 225 405 69 39 47 
251 590 334 75 76 78 
248 68 394 100 77 58 
288 607 531 101 89 79 
211 592 321 73 100 125 
344 803 475 198 143 105 
220 207 541 125 26 54 
315 584 351 122 138 159 
303 659 580 141 155 189 
366 757 511 144 129 119 
377 641 462 153 153 160 
345 756 545 157 143 135 
329 721 378 116 100 105 
236 317 539 116 139 163 
278 182 487 111 97 114 
172 409 434 62 81 111 
291 414 509 84 112 154 
259 12 379 110 95 81 
308 611 527 89 89 92 
255 233 439 156 151 154 
327 593 396 100 114 130 
251 71 394 110 83 65 
236 639 315 145 102 93 
301 660 317 54 98 147 
223 954 378 100 76 61 
288 655 341 59 91 123 
308 684 266 93 111 131 
209 187 516 86 26 46 
268 472 385 73 85 97 
190 727 369 123 158 189 
246 564 318 83 92 112 
214 522 303 87 108 138 
266 665 286 52 67 98 
194 689 420 83 95 109 
208 211 432 43 44 50 
262 643 278 70 62 56 
337 523 477 108 129 162 
268 105 375 128 97 80 
321 633 560 102 86 72 
226 637 481 67 62 75 
199 405 496 81 104 143 
261 18 475 92 80 67 
293 759 255 139 169 233 
257 982 415 75 55 51 
246 291 296 81 110 135 
245 653 495 81 136 177 
193 380 395 83 102 128 
248 511 497 106 128 161 
270 663 283 76 89 107 
220 482 504 108 129 175 
354 779 476 157 138 122 
176 501 314 113 121 150 
183 334 363 97 125 152 
270 740 238 98 113 167 
298 663 562 115 133 182 
235 373 522 188 159 129 
229 464 504 143 154 176 
188 523 404 150 150 158 
272 964 354 128 102 71 
185 506 391 75 96 124 
325 463 455 134 137 144 
179 397 407 49 76 124 
288 237 356 103 73 80 
309 525 482 107 133 162 
265 855 451 151 105 80 
176 597 359 92 118 148 
274 894 345 76 59 47 
209 148 449 137 60 5 
369 592 448 108 134 160 
291 526 332 83 112 140 
295 663 218 112 100 88 
194 643 362 102 120 163 
265 355 375 120 125 136 
268 878 365 89 74 59 
206 608 454 153 159 171 
250 77 391 102 79 61 
165 245 460 95 50 67 
284 156 456 34 61 83 
189 619 423 136 154 177 
148 316 421 170 119 76 
323 707 370 137 144 157 
242 585 481 72 96 121 
228 268 306 103 69 88 
281 643 245 111 102 97 
294 366 470 103 116 132 
215 232 416 70 39 36 
329 607 330 135 159 186 
325 587 328 82 116 144 
258 685 289 89 94 104 
370 598 461 168 167 175 
270 223 411 110 66 84 
353 770 506 191 160 131 
227 650 329 130 127 131 
188 240 493 64 99 127 
233 459 495 73 81 125 
265 312 502 106 117 132 
280 55 499 95 81 70 
199 637 431 77 116 144 
263 443 403 87 97 109 
228 721 484 137 119 107 
250 75 393 104 78 63 
236 310 544 114 107 118 
295 726 516 96 94 96 
151 239 421 83 112 137 
183 629 361 61 47 52 
228 466 498 63 83 142 
305 922 386 77 56 48 
197 395 365 102 117 139 
247 160 491 109 57 59 
251 77 392 106 81 64 
270 640 360 51 77 106 
238 795 354 183 147 107 
228 260 304 83 106 124 
184 331 337 142 142 149 
341 564 418 92 113 134 
334 673 298 77 116 147 
348 551 471 150 170 195 
324 497 490 100 127 161 
349 753 410 179 147 111 
328 709 587 187 203 226 
303 715 523 73 72 71 
302 875 408 132 100 74 
225 668 344 68 79 103 
285 540 500 130 144 163 
338 571 413 82 104 124 
315 645 342 72 135 180 
256 29 460 91 78 67 
351 776 425 176 155 139 
221 690 472 91 69 56 
276 934 448 128 96 73 
187 711 369 133 149 168 
279 677 203 127 99 67 
279 354 453 56 82 104 
234 945 362 134 107 76 
392 700 478 159 168 184 
277 358 450 34 73 107 
252 77 392 109 83 65 
225 776 373 167 143 120 
338 818 429 201 146 115 
251 171 418 90 54 35 
279 890 452 176 126 100 
193 663 404 153 150 154 
243 377 502 62 82 112 
277 655 269 76 65 58 
254 76 393 111 85 64 
314 773 341 148 16 49 
188 714 397 157 118 122 
279 649 301 86 84 91 
262 115 455 98 85 76 
230 265 516 96 96 97 
349 630 566 90 111 147 
224 271 339 72 86 101 
242 80 384 98 80 62 
152 283 432 69 98 123 
154 299 433 130 119 118 
224 154 549 143 60 4 
268 839 376 174 131 102 
198 155 497 91 65 45 
333 728 289 132 155 201 
359 632 418 21 73 115 
308 666 582 115 125 174 
201 332 495 137 118 100 
223 298 310 122 120 122 
241 790 414 182 130 107 
243 953 453 186 143 119 
293 213 342 64 37 47 
252 815 314 146 123 100 
250 337 295 145 108 83 
294 56 490 128 121 116 
342 783 515 171 159 154 
309 721 529 79 96 114 
264 678 300 47 63 88 
178 231 413 79 54 58 
273 160 369 114 55 1 
352 636 410 74 103 133 
325 812 387 144 133 127 
151 279 418 127 132 142 
252 434 377 60 84 127 
365 676 591 113 141 179 
267 415 508 86 116 152 
277 390 441 89 101 116 
154 382 415 68 119 158 
275 437 332 72 99 143 
358 637 582 111 135 160 
205 282 507 96 103 115 
217 570 315 78 121 155 
180 542 313 122 139 163 
184 277 480 107 125 146 
284 778 269 198 212 231 
352 627 519 92 113 134 
242 915 463 125 98 72 
272 80 467 88 75 61 
189 330 390 149 125 100 
230 898 458 164 119 100 
170 185 492 32 45 83 
192 482 468 156 161 173 
204 563 467 99 122 170 
210 197 440 47 52 58 
352 508 465 122 144 168 
328 729 273 85 53 152 
392 707 499 159 165 177 
261 9 403 109 97 88 
202 605 451 138 139 147 
340 799 492 194 134 100 
246 87 384 96 75 56 
246 87 385 95 74 54 
333 615 498 61 87 108 
159 380 426 34 68 102 
378 623 453 167 168 175 
215 337 319 129 111 93 
207 145 448 141 66 6 
281 965 365 133 104 69 
233 393 287 205 164 110 
280 340 350 156 151 153 
247 89 385 90 70 50 
316 700 254 92 109 129 
247 90 384 88 70 49 
213 560 312 62 76 103 
257 458 374 124 126 133 
341 647 398 105 130 158 
198 211 515 108 29 39 
285 674 203 97 85 73 
218 148 555 135 99 74 
246 849 450 125 98 74 
248 80 389 100 75 56 
310 613 328 94 110 128 
331 484 490 123 133 152 
249 81 389 99 77 58 
198 570 316 109 112 125 
272 102 365 119 95 68 
376 683 516 129 132 142 
275 866 368 120 93 64 
257 585 493 103 50 78 
264 225 442 60 109 144 
201 476 403 146 148 157 
270 754 493 168 147 129 
288 467 509 49 88 154 
224 612 480 119 125 154 
235 787 319 67 78 89 
338 706 300 174 181 196 
250 81 391 104 79 62 
261 247 423 90 96 110 
221 245 522 127 66 79 
207 496 493 184 187 199 
290 656 252 107 89 71 
314 493 424 78 99 121 
270 627 547 53 126 173 
214 931 381 106 91 77 
193 662 447 165 139 114 
147 266 423 149 148 154 
343 746 400 71 50 96 
229 288 539 172 172 179 
231 185 551 106 81 75 
191 623 425 188 181 184 
191 416 370 134 134 141 
300 506 379 51 90 122 
259 302 374 129 137 150 
270 454 321 171 165 167 
213 694 319 46 54 94 
308 591 370 141 142 150 
271 960 436 126 98 78 
308 608 477 55 68 80 
340 814 429 197 144 111 
388 683 453 172 180 196 
241 512 300 45 83 166 
293 785 489 175 132 100 
250 848 450 120 89 67 
330 667 322 74 91 128 
317 891 420 176 131 98 
251 84 389 102 77 60 
338 766 396 89 76 72 
204 614 313 118 98 77 
178 406 409 39 73 125 
218 617 298 125 105 86 
172 270 411 103 112 125 
232 695 481 144 48 26 
220 394 513 134 114 95 
315 696 348 103 133 162 
356 524 469 163 167 179 
247 902 354 61 49 41 
276 453 367 86 99 145 
196 430 314 117 105 93 
265 260 388 154 153 159 
233 598 484 70 88 110 
320 759 354 157 9 53 
254 80 391 113 86 68 
218 682 456 132 117 104 
265 640 243 107 95 85 
291 723 512 103 101 104 
254 82 391 111 83 64 
177 238 408 80 95 107 
220 398 516 146 126 108 
196 451 490 113 139 172 
155 368 413 79 108 153 
233 272 298 78 110 137 
349 616 556 91 110 130 
232 405 289 199 160 113 
329 681 602 102 119 160 
330 766 542 171 148 128 
174 469 338 54 85 114 
291 931 436 108 86 63 
252 87 388 101 78 58 
375 691 526 49 62 93 
305 935 405 80 60 51 
254 85 389 106 81 60 
262 730 251 104 122 157 
220 193 543 121 67 75 
208 680 444 113 90 74 
221 279 330 69 94 116 
193 578 318 76 85 96 
198 648 457 149 99 39 
225 901 363 90 64 45 
351 766 419 135 116 100 
325 741 288 163 174 213 
254 361 436 73 97 119 
249 719 271 76 102 164 
178 382 332 80 98 133 
370 711 544 154 161 173 
228 584 483 86 116 154 
300 684 519 152 63 76 
301 793 506 180 135 108 
347 627 507 107 122 141 
283 265 359 129 114 100 
187 583 431 98 122 147 
288 262 355 134 98 43 
367 662 581 156 171 193 
256 73 466 91 76 60 
250 89 386 93 72 52 
192 493 307 132 134 145 
298 402 499 95 119 145 
251 89 387 96 73 54 
255 375 429 89 99 112 
216 741 424 140 125 115 
283 152 432 46 68 104 
352 730 568 195 47 78 
251 91 386 95 72 53 
265 328 306 136 135 139 
248 92 385 90 71 51 
256 901 461 190 145 125 
329 873 412 123 100 87 
304 669 536 131 160 190 
286 149 479 63 78 100 
248 94 384 88 72 55 
243 643 502 123 153 184 
316 735 258 145 162 216 
216 436 508 106 135 167 
268 650 280 61 58 57 
290 358 467 89 106 125 
250 93 385 90 71 56 
208 582 478 141 161 184 
229 398 288 220 182 138 
243 923 465 196 162 139 
224 245 508 64 75 95 
277 976 400 84 63 52 
175 283 372 86 111 133 
261 277 379 92 112 130 
292 363 485 119 129 143 
255 648 299 75 93 111 
172 422 455 142 150 163 
261 710 493 124 111 104 
285 443 350 72 110 164 
264 34 370 120 110 104 
180 552 396 137 144 156 
170 571 361 187 180 183 
279 980 393 132 101 70 
216 315 505 68 105 135 
236 493 494 170 172 182 
179 615 362 86 69 58 
254 89 387 104 80 59 
196 484 397 118 126 145 
304 595 459 104 113 126 
171 510 327 132 136 146 
251 352 435 60 91 116 
343 771 407 140 121 104 
321 812 378 161 150 145 
179 549 393 119 135 154 
292 377 455 71 92 115 
166 494 362 107 116 139 
171 462 349 89 105 123 
152 280 418 133 139 150 
224 153 487 108 66 62 
286 360 339 106 130 155 
201 460 409 113 119 136 
218 558 311 81 122 156 
221 362 510 116 127 143 
388 678 488 164 164 172 
301 394 488 137 143 155 
278 889 344 83 66 45 
181 263 385 109 106 106 
254 92 386 105 80 61 
319 811 372 179 161 148 
258 493 312 84 107 132 
302 664 574 119 138 178 
266 41 360 127 117 111 
200 450 392 71 92 140 
283 152 434 35 70 112 
158 188 454 71 45 37 
285 749 238 234 222 229 
247 534 308 106 123 165 
190 349 334 106 117 132 
341 571 416 128 119 116 
299 707 201 77 136 216 
217 905 375 102 84 68 
251 368 294 123 127 140 
249 324 506 112 77 100 
175 389 408 95 113 136 
232 706 485 141 117 104 
255 267 410 133 132 137 
263 13 382 131 116 102 
172 410 433 56 76 110 
247 796 295 125 74 103 
251 98 385 102 79 55 
275 718 224 119 128 174 
170 464 348 73 96 118 
339 560 468 115 146 180 
219 920 455 175 135 114 
235 856 435 135 109 80 
267 59 467 105 88 73 
345 807 450 198 140 107 
246 718 274 133 145 167 
288 570 484 161 155 156 
259 676 251 134 88 74 
322 770 359 115 116 120 
258 126 491 101 82 86 
214 253 397 98 77 79 
171 509 373 94 115 144 
179 571 319 137 142 153 
255 426 401 67 90 110 
283 384 506 165 161 165 
289 350 482 95 118 141 
255 96 385 108 82 60 
350 693 404 145 154 169 
238 285 441 119 118 121 
299 816 456 181 131 106 
220 545 484 101 117 147 
203 670 447 139 122 108 
345 710 589 157 181 209 
294 966 394 113 87 71 
252 100 384 103 80 57 
182 594 409 96 91 108 
322 458 453 99 112 128 
221 270 372 96 85 88 
284 74 470 115 95 77 
252 102 384 103 81 56 
301 410 450 63 90 115 
222 883 411 126 99 70 
203 159 487 96 53 23 
258 608 514 146 105 93 
222 764 357 89 106 125 
317 712 328 63 100 168 
183 613 403 135 40 72 
295 702 200 214 145 113 
259 806 428 173 119 102 
271 280 311 147 145 148 
226 688 475 121 65 21 
281 331 484 113 122 135 
164 199 425 56 50 63 
375 622 462 149 152 162 
271 575 496 164 161 166 
257 152 319 157 137 119 
287 492 349 79 100 145 
164 174 458 73 62 58 
285 648 354 35 80 114 
279 178 485 113 91 111 
257 267 478 71 104 132 
262 524 312 148 148 159 
382 704 451 162 164 172 
158 399 430 68 88 126 
343 802 424 158 118 83 
236 545 485 166 167 175 
276 752 244 170 167 187 
320 721 233 113 124 154 
161 549 335 142 148 162 
213 927 447 170 131 106 
184 605 413 73 124 163 
207 230 517 95 29 49 
315 605 522 76 92 110 
254 261 415 150 148 153 
325 740 283 94 114 182 
229 309 541 83 126 161 
224 382 524 163 93 59 
250 650 241 111 89 62 
270 634 507 116 143 170 
325 811 388 116 116 121 
193 120 455 127 112 99 
270 147 401 102 71 46 
195 598 443 134 157 184 
161 423 431 168 171 182 
195 120 453 134 118 103 
275 225 316 99 90 99 
270 107 371 126 98 72 
300 664 235 135 108 81 
195 120 455 129 113 99 
258 632 311 68 67 70 
173 296 389 149 149 155 
254 817 360 98 71 69 
348 632 484 114 113 115 
251 706 255 109 120 186 
285 786 476 181 134 104 
325 659 597 142 144 153 
274 73 376 123 102 84 
260 395 506 84 114 154 
218 964 409 101 77 59 
306 630 332 0 56 101 
229 318 542 115 108 119 
236 623 488 140 91 87 
195 639 349 180 122 118 
188 129 479 103 97 93 
198 121 451 144 125 109 
254 646 503 120 145 171 
256 8 405 105 93 85 
231 262 301 87 110 127 
256 204 315 94 83 81 
305 610 522 79 87 98 
219 150 547 125 81 75 
233 369 527 178 147 113 
176 166 457 81 66 57 
269 686 263 34 51 75 
252 216 501 147 73 32 
270 314 310 127 134 146 
256 26 458 124 112 106 
339 758 550 119 101 99 
200 243 513 137 137 144 
291 835 356 226 162 118 
178 587 397 93 108 138 
260 222 452 142 138 140 
185 365 325 122 90 59 
286 738 229 76 96 213 
239 520 303 96 113 157 
200 395 373 106 120 141 
307 555 463 101 122 144 
273 445 410 114 115 120 
222 501 499 121 136 173 
182 136 470 113 85 54 
318 480 433 86 103 121 
192 120 457 121 107 94 
307 429 504 133 142 156 
231 333 415 128 73 92 
345 737 567 148 39 60 
268 651 229 99 88 79 
226 549 480 92 112 145 
203 229 409 96 41 17 
323 725 365 153 160 173 
255 427 401 63 88 110 
213 521 303 69 94 128 
248 253 497 74 108 136 
279 798 461 183 135 111 
199 468 304 95 112 132 
214 672 453 153 62 43 
254 848 448 124 87 60 
284 419 357 40 77 109 
199 686 439 171 127 81 
194 721 404 61 62 118 
286 637 521 158 185 216 
206 724 344 158 167 191 
247 811 329 169 147 128 
306 899 414 157 107 83 
247 569 321 116 110 107 
252 468 502 100 119 165 
258 786 455 195 143 119 
372 739 449 128 136 149 
192 121 463 106 94 83 
193 121 462 108 95 84 
319 688 212 55 92 141 
246 668 323 81 92 111 
215 655 346 70 72 81 
264 952 449 129 92 67 
181 604 382 108 128 153 
236 775 310 148 128 113 
226 757 330 171 26 55 
285 467 345 128 148 177 
284 66 339 143 110 72 
310 515 404 122 127 137 
180 209 420 95 36 17 
236 542 485 175 174 179 
283 777 482 179 129 101 
291 654 348 4 70 117 
199 381 365 58 86 134 
228 376 286 185 156 121 
224 769 408 124 121 123 
273 95 495 129 103 78 
226 610 312 95 90 88 
225 651 332 156 156 166 
176 492 324 123 132 147 
316 638 570 107 87 67 
296 459 423 73 91 110 
201 415 382 134 136 145 
357 769 502 203 167 130 
232 168 557 112 93 81 
273 455 337 58 80 100 
334 818 461 218 156 121 
308 685 283 53 76 105 
262 879 367 76 63 50 
289 486 347 146 159 178 
270 218 316 98 55 55 
339 673 303 164 168 180 
370 682 550 165 168 179 
210 723 430 133 111 101 
222 609 317 65 72 79 
282 893 449 178 128 100 
313 611 352 70 114 149 
311 716 535 118 94 109 
214 690 333 91 100 115 
331 618 476 65 104 135 
190 339 368 107 127 151 
276 464 508 178 178 186 
198 122 462 111 96 83 
323 498 490 98 126 161 
219 270 519 119 78 34 
275 810 444 180 128 110 
259 308 378 114 125 139 
287 103 478 100 81 62 
276 359 449 31 74 108 
255 281 496 150 146 149 
269 661 281 76 78 99 
250 646 293 82 83 84 
282 177 347 94 45 55 
246 159 491 109 52 54 
241 508 298 83 114 168 
329 677 385 62 104 139 
279 773 483 176 126 98 
369 701 554 123 149 176 
250 195 384 84 56 43 
277 167 358 121 94 94 
279 525 325 107 117 130 
264 573 332 53 77 97 
351 629 512 99 117 137 
309 671 311 71 110 158 
228 465 503 149 158 175 
326 595 341 144 162 184 
249 811 338 178 150 122 
179 497 383 98 112 131 
234 641 320 111 85 85 
308 695 197 129 115 144 
258 311 304 102 120 140 
283 271 356 117 44 73 
201 122 453 135 117 101 
246 496 300 110 131 160 
200 122 455 130 112 98 
354 542 472 129 149 173 
235 696 272 192 187 194 
305 776 519 122 123 128 
196 237 508 142 126 126 
222 673 474 124 85 41 
203 122 453 133 115 99 
307 551 464 94 110 135 
242 287 442 121 119 122 
365 645 549 74 108 161 
348 597 469 68 115 151 
277 380 357 113 123 140 
199 700 352 111 122 135 
225 465 508 104 128 173 
182 620 378 107 126 150 
203 124 448 145 126 110 
310 828 445 186 138 112 
196 641 425 72 110 140 
204 123 451 137 118 102 
204 123 452 135 116 100 
177 157 464 68 45 33 
353 775 492 159 149 147 
283 490 333 68 102 134 
258 665 490 71 112 142 
210 467 499 95 117 157 
218 234 522 75 44 85 
187 420 483 51 82 138 
277 527 502 146 157 175 
310 817 350 134 123 117 
346 681 399 87 128 162 
344 790 494 140 117 96 
281 153 398 115 59 29 
156 229 421 136 117 117 
224 519 483 77 87 116 
237 856 425 117 91 58 
188 699 404 115 143 170 
162 260 412 139 130 129 
297 659 550 156 178 205 
233 980 398 137 108 78 
207 926 434 163 125 97 
236 374 520 189 159 129 
276 135 431 129 74 41 
269 769 259 176 166 234 
316 725 231 230 232 247 
320 707 245 116 130 168 
201 689 370 98 105 113 
210 751 402 112 99 100 
206 124 450 135 116 101 
221 894 395 114 83 54 
297 691 517 140 50 52 
242 607 502 158 116 106 
188 701 397 76 117 149 
305 679 274 68 86 104 
362 742 540 164 134 100 
191 701 408 93 136 170 
173 435 456 157 160 171 
215 202 435 53 51 56 
220 301 511 113 127 145 
317 509 485 106 120 158 
276 660 499 82 125 157 
240 618 288 110 101 94 
196 165 443 68 44 50 
254 628 287 77 71 67 
309 744 332 154 167 186 
194 177 436 76 38 26 
202 458 398 148 147 153 
278 992 377 154 127 102 
199 239 513 146 142 144 
192 280 370 96 108 122 
270 148 381 123 83 57 
218 507 301 115 130 167 
211 634 459 84 59 54 
284 261 336 172 78 6 
333 625 477 62 101 133 
219 317 508 76 111 141 
193 498 470 57 68 135 
163 367 412 80 112 166 
247 854 411 100 78 50 
185 320 393 148 118 83 
208 533 485 73 107 171 
214 531 495 104 129 174 
275 364 376 118 124 135 
275 398 367 103 115 134 
178 548 389 106 128 151 
290 354 483 108 126 147 
382 721 459 160 66 66 
227 572 482 80 112 160 
200 154 511 83 62 68 
264 268 371 79 112 139 
200 122 463 108 92 79 
172 418 455 86 114 152 
179 222 419 66 31 23 
291 658 249 112 94 77 
147 272 429 107 123 143 
251 487 307 62 95 125 
263 602 522 144 110 95 
279 481 356 92 100 121 
178 544 387 118 131 147 
190 415 368 118 123 133 
237 792 397 119 82 71 
223 267 341 74 77 87 
291 892 362 97 75 55 
220 266 378 102 91 95 
328 532 419 130 131 137 
298 897 426 153 99 79 
193 466 419 69 95 132 
230 583 322 59 66 75 
212 710 439 118 43 51 
281 270 315 149 147 150 
300 814 457 186 138 111 
281 120 450 123 91 69 
310 408 478 99 119 141 
310 744 261 168 188 216 
238 603 333 77 87 99 
307 789 326 106 101 100 
223 230 539 41 60 102 
196 651 358 135 91 82 
158 223 421 118 54 66 
159 134 492 138 54 3 
279 544 324 96 111 128 
278 633 527 115 128 184 
316 692 205 102 124 160 
219 211 533 87 36 47 
338 585 469 151 150 154 
210 472 499 108 134 172 
197 564 444 106 128 155 
204 122 463 108 89 74 
242 646 260 153 109 81 
318 708 556 141 30 47 
348 582 470 169 168 175 
281 214 375 131 32 23 
336 662 304 75 108 146 
253 167 494 89 62 56 
277 634 509 126 159 191 
222 683 466 113 71 71 
305 736 233 245 237 241 
186 507 441 163 166 177 
281 893 450 176 123 98 
221 766 360 87 54 35 
330 669 322 44 82 149 
223 411 519 141 96 96 
292 380 453 53 84 110 
278 563 327 86 106 125 
198 498 427 122 128 141 
236 856 441 144 114 87 
317 700 569 133 150 174 
199 738 401 134 30 83 
183 506 390 105 115 135 
193 122 465 104 91 81 
287 476 344 66 95 119 
296 529 349 100 108 119 
170 421 419 122 133 151 
327 823 405 183 140 103 
321 760 542 163 140 120 
276 647 346 82 98 117 
270 587 492 81 99 121 
182 465 426 137 141 152 
206 935 417 111 87 70 
294 798 308 215 172 122 
320 822 467 205 151 124 
234 620 488 156 107 99 
356 524 463 166 166 174 
377 740 472 111 141 168 
272 987 397 123 98 74 
228 325 290 159 138 115 
173 534 320 105 118 142 
286 776 486 180 132 102 
381 696 446 163 174 191 
260 638 285 68 63 59 
275 890 345 109 86 59 
323 635 336 75 135 179 
257 678 309 82 90 100 
221 207 544 138 42 72 
195 654 362 154 108 92 
376 673 433 77 134 175 
176 290 364 85 106 128 
326 736 562 154 121 98 
314 416 473 134 142 154 
243 647 293 115 79 68 
190 452 383 94 107 130 
313 905 417 103 75 62 
238 703 275 176 176 193 
334 731 573 132 82 84 
222 301 310 126 124 125 
277 359 361 115 125 140 
253 344 439 72 92 115 
308 583 365 158 158 166 
218 766 377 77 84 100 
164 506 349 116 128 145 
254 886 360 69 58 49 
224 332 524 147 146 153 
258 168 411 84 61 45 
302 669 295 56 78 100 
231 485 494 86 96 127 
277 590 484 66 103 131 
301 921 425 143 79 55 
150 165 478 29 62 108 
295 661 299 61 84 107 
228 566 315 43 61 85 
306 494 503 138 149 165 
279 962 430 90 68 57 
246 798 412 177 123 101 
210 322 504 67 66 78 
275 992 388 136 108 86 
266 481 367 75 84 95 
349 636 560 93 114 138 
267 952 360 81 65 49 
221 306 329 103 102 106 
201 606 325 61 67 73 
280 185 394 121 44 43 
286 124 477 150 63 2 
212 490 300 100 118 141 
237 736 296 161 177 198 
293 580 471 143 139 141 
250 210 502 113 106 114 
378 627 461 172 168 171 
209 638 461 41 43 74 
299 772 281 164 171 206 
222 731 468 191 152 105 
220 533 486 87 99 142 
255 721 259 109 128 155 
217 345 504 140 137 141 
270 646 357 74 91 109 
214 310 345 79 90 103 
318 834 392 184 136 109 
164 365 430 100 107 124 
280 159 427 52 55 76 
193 125 473 97 85 75 
194 564 315 144 147 159 
239 240 505 99 88 95 
322 694 278 68 118 168 
231 321 415 133 84 100 
305 574 463 74 100 126 
241 979 417 113 90 74 
281 356 346 128 128 134 
220 238 524 109 45 74 
333 497 445 106 119 136 
319 579 392 74 42 49 
247 243 494 135 131 133 
276 515 504 117 137 162 
260 852 436 121 85 53 
274 232 383 128 51 85 
234 309 513 115 62 76 
319 839 400 185 137 106 
256 232 309 102 99 103 
258 247 426 134 134 138 
192 127 476 96 83 72 
254 638 252 104 92 81 
214 604 466 154 114 113 
193 127 476 96 83 72 
212 272 510 112 98 110 
279 197 409 76 41 43 
212 192 487 41 48 73 
339 626 479 72 107 137 
313 805 347 155 135 117 
282 186 386 60 42 62 
361 553 464 98 113 127 
312 554 337 95 117 138 
171 573 327 207 197 199 
250 371 503 55 83 116 
303 434 442 93 109 127 
350 534 442 83 113 138 
302 806 329 155 132 113 
315 625 551 87 79 75 
251 910 352 57 47 39 
229 645 485 96 87 81 
193 475 308 114 124 138 
230 693 478 141 52 28 
272 672 295 91 94 103 
200 737 362 122 54 63 
272 386 438 87 100 114 
339 666 317 84 74 114 
300 772 283 169 181 201 
199 457 392 114 122 143 
346 505 454 115 128 144 
161 193 428 64 37 48 
363 644 585 165 172 186 
365 653 532 48 67 120 
194 206 432 58 49 38 
389 709 467 166 90 104 
292 507 337 54 93 125 
265 496 503 85 115 161 
229 265 515 102 78 85 
306 935 405 81 63 53 
183 425 336 75 97 133 
252 246 475 109 122 141 
281 664 501 110 129 147 
222 705 301 75 101 167 
201 122 464 106 89 75 
235 974 429 101 82 68 
289 620 350 102 97 93 
204 200 516 94 38 53 
315 678 314 42 103 172 
275 346 360 129 137 151 
184 325 398 126 80 74 
362 759 446 152 133 118 
229 876 448 157 119 96 
232 369 287 161 115 71 
282 969 371 137 110 80 
206 553 479 124 141 169 
299 664 302 61 92 125 
180 607 365 80 123 155 
240 667 323 76 88 113 
173 573 325 231 207 188 
308 698 533 151 94 141 
200 123 468 99 82 69 
268 384 369 54 94 137 
201 123 468 99 82 69 
201 123 469 98 81 67 
242 238 502 133 129 131 
202 123 468 100 82 68 
287 614 543 118 98 78 
223 771 367 104 97 106 
278 196 459 107 105 122 
190 680 391 135 150 169 
200 124 469 97 81 68 
276 339 458 72 93 114 
226 618 290 105 96 88 
248 856 400 151 118 88 
341 810 471 211 148 115 
202 124 470 97 79 65 
232 197 418 59 47 55 
202 430 401 86 101 118 
235 547 484 173 168 169 
244 617 326 75 84 95 
238 360 517 175 146 115 
232 640 297 169 110 97 
323 630 538 63 69 84 
276 77 369 133 108 87 
202 382 317 145 119 90 
204 123 467 102 83 66 
259 594 497 86 81 79 
179 233 411 85 103 118 
266 413 508 93 124 160 
193 701 366 96 109 123 
188 233 496 123 44 76 
259 277 470 79 114 143 
277 946 442 99 78 62 
387 725 493 189 151 101 
344 485 479 54 90 136 
358 534 456 172 172 179 
217 176 442 99 37 20 
284 518 327 107 115 126 
177 140 483 130 95 81 
264 432 410 50 79 103 
270 42 471 61 54 47 
349 682 403 75 122 158 
305 504 400 103 114 127 
259 137 491 106 78 74 
338 576 412 113 105 105 
248 677 320 28 51 65 
237 778 309 147 60 66 
281 354 454 67 87 107 
281 677 277 54 73 92 
303 949 402 104 78 62 
259 704 229 155 165 198 
278 556 326 86 107 126 
302 606 455 92 94 100 
241 363 418 57 83 105 
188 347 359 144 146 156 
317 659 354 67 121 163 
235 370 392 65 99 132 
282 522 503 134 151 172 
272 437 324 120 132 149 
306 628 334 0 61 100 
320 698 341 119 141 166 
192 490 464 107 122 153 
349 748 410 137 125 118 
231 982 394 152 117 89 
291 700 512 128 106 108 
307 414 455 98 112 129 
211 197 525 119 40 50 
308 522 398 127 134 145 
215 282 377 111 105 106 
275 734 500 165 134 101 
339 531 432 106 99 97 
275 917 354 61 46 35 
206 271 508 122 116 126 
272 62 336 153 119 93 
345 734 401 156 74 37 
261 245 308 132 89 63 
368 658 574 132 157 183 
193 503 465 113 136 182 
311 514 409 53 83 107 
313 826 369 191 146 113 
252 251 479 88 100 114 
203 125 476 91 75 63 
327 764 373 86 99 114 
301 62 483 121 106 93 
297 391 454 51 84 111 
202 127 477 90 76 65 
190 430 491 132 138 155 
203 126 477 90 75 65 
264 240 426 82 117 147 
284 176 476 147 65 72 
209 173 528 65 55 70 
229 638 308 161 107 93 
284 98 473 90 75 58 
185 635 359 171 120 104 
313 687 552 179 126 125 
256 637 253 106 95 85 
286 665 210 102 91 82 
177 337 354 131 146 165 
149 316 427 156 119 76 
325 771 371 135 118 104 
348 631 483 84 55 71 
165 250 453 131 134 141 
246 571 322 110 104 100 
209 580 480 90 135 171 
286 944 439 128 106 86 
269 249 412 72 120 156 
207 124 472 96 76 57 
361 653 494 64 84 102 
201 414 381 142 142 148 
221 343 512 159 152 153 
188 632 407 152 157 171 
289 388 449 80 95 112 
219 713 312 161 184 211 
261 416 310 144 122 104 
186 474 385 134 135 144 
209 933 438 185 143 120 
264 325 382 151 115 76 
208 561 485 121 141 176 
179 549 315 160 165 180 
212 200 493 39 33 53 
254 431 374 74 86 138 
288 194 374 35 49 94 
225 609 319 65 74 85 
221 210 422 51 47 56 
236 233 555 141 86 96 
220 918 368 102 85 68 
242 309 437 108 66 6 
355 733 415 145 77 70 
260 306 505 148 104 38 
188 273 481 111 124 140 
265 633 513 107 139 169 
199 516 435 114 119 129 
206 216 427 55 45 39 
321 716 565 160 68 81 
300 943 382 78 61 54 
254 442 384 45 77 106 
360 768 458 171 138 100 
316 704 213 159 171 198 
290 657 289 75 81 89 
346 777 513 196 151 103 
315 736 258 147 149 203 
257 314 303 113 132 153 
291 94 478 113 89 68 
176 502 380 111 125 144 
249 896 352 76 62 54 
337 759 549 158 139 124 
344 791 491 195 175 158 
227 907 361 80 60 45 
289 975 392 105 84 61 
319 799 364 148 128 112 
316 640 354 101 70 93 
312 496 421 73 96 117 
279 633 560 119 128 174 
239 418 290 192 94 19 
270 356 308 170 131 74 
295 542 333 81 105 127 
275 139 404 109 72 46 
297 571 470 120 130 148 
265 432 318 109 105 118 
260 957 447 134 97 79 
308 627 329 94 110 128 
250 653 243 130 96 65 
184 350 330 94 114 135 
192 637 416 154 151 155 
318 438 495 144 146 155 
313 680 245 120 127 138 
189 448 486 96 118 154 
279 304 324 72 114 148 
152 313 431 142 130 122 
328 504 431 60 89 113 
170 254 476 60 95 123 
254 653 289 105 107 110 
262 53 465 95 82 70 
176 324 362 89 115 145 
213 394 292 192 160 126 
277 84 495 132 108 85 
311 856 404 145 104 72 
357 562 437 151 150 155 
359 659 599 94 124 161 
216 908 447 104 86 69 
276 787 468 187 139 113 
259 278 383 142 135 136 
197 570 450 127 130 142 
166 435 428 142 153 171 
379 739 490 124 127 140 
180 136 495 119 70 48 
197 403 319 122 100 86 
267 803 294 211 47 69 
311 517 485 111 137 165 
341 798 414 136 126 121 
317 676 335 160 164 177 
205 654 350 166 112 102 
367 646 487 152 154 164 
184 446 417 88 106 132 
194 271 486 104 126 149 
316 778 347 117 115 118 
159 268 413 138 140 147 
182 266 379 131 127 129 
182 604 399 72 120 157 
266 612 528 146 112 96 
180 462 307 152 161 176 
248 667 309 33 43 85 
278 322 353 110 56 62 
178 557 391 87 110 133 
309 562 362 178 172 173 
209 123 456 113 93 77 
199 658 454 103 81 105 
168 443 430 106 128 158 
292 379 453 49 81 107 
201 335 481 148 103 31 
330 554 412 102 99 101 
275 153 489 103 106 113 
185 320 380 133 80 11 
305 62 490 128 119 113 
229 691 289 84 99 115 
336 610 516 70 92 111 
243 296 397 128 27 54 
319 702 565 84 83 112 
263 420 317 117 103 89 
183 148 455 97 83 72 
213 311 347 74 91 108 
263 999 392 113 84 63 
312 700 262 45 68 88 
321 766 357 165 70 76 
376 669 433 75 127 168 
173 451 429 94 115 157 
378 689 438 162 177 196 
287 831 426 177 130 107 
360 759 433 147 130 118 
211 123 460 119 90 65 
380 708 449 137 153 170 
295 732 225 192 193 228 
268 50 372 91 80 70 
234 256 522 72 99 122 
247 247 498 92 108 128 
208 124 456 114 94 78 
283 172 404 143 45 24 
248 658 253 167 118 93 
246 425 291 193 69 0 
288 476 354 115 136 163 
385 671 488 168 167 174 
209 717 334 154 173 196 
371 607 443 168 169 177 
268 737 495 180 162 148 
237 286 524 149 150 156 
214 123 458 123 92 66 
176 375 334 103 116 142 
285 690 199 162 113 81 
215 123 459 124 91 63 
283 516 504 90 117 158 
316 691 364 95 117 140 
231 367 286 196 160 118 
331 513 483 138 151 171 
212 123 462 120 89 60 
276 310 351 122 135 153 
352 544 439 99 126 151 
241 772 445 198 144 117 
285 791 473 183 136 106 
348 508 455 97 116 137 
214 123 461 123 91 62 
183 600 408 86 118 148 
180 136 453 128 64 0 
192 357 479 126 87 58 
333 536 421 129 131 138 
347 573 470 165 168 179 
249 246 431 147 145 150 
215 123 462 122 89 58 
227 984 372 135 109 91 
187 475 471 88 116 172 
218 239 403 90 45 36 
213 124 457 120 92 69 
352 688 609 148 161 207 
356 776 451 164 152 146 
214 897 431 169 133 106 
206 175 505 39 34 33 
203 404 383 76 99 131 
237 301 436 118 77 20 
374 611 447 155 158 169 
208 627 446 65 99 128 
178 165 456 85 70 55 
285 652 288 86 83 84 
216 126 454 114 78 0 
195 531 454 109 133 165 
392 696 490 152 167 187 
237 331 428 111 96 82 
280 406 436 105 113 125 
262 307 309 94 107 122 
377 739 507 142 128 120 
235 698 273 178 182 197 
222 648 472 144 109 82 
258 348 505 60 92 120 
294 585 343 73 103 132 
308 571 369 128 137 152 
389 686 500 87 86 93 
264 121 493 128 56 12 
215 421 299 187 72 2 
290 781 488 179 134 103 
183 243 489 65 104 134 
217 122 463 124 88 55 
162 551 349 117 130 156 
230 147 488 99 72 57 
222 315 298 95 106 120 
249 621 339 65 79 93 
290 123 453 120 95 71 
170 415 447 80 105 141 
278 373 329 139 118 97 
218 123 462 125 89 57 
219 122 462 129 90 55 
230 213 546 84 67 79 
226 279 527 128 124 124 
272 386 508 164 163 170 
320 474 500 150 155 167 
216 125 457 122 91 63 
205 659 453 160 110 38 
172 210 484 141 28 27 
346 773 414 147 117 79 
216 124 458 123 91 63 
287 640 529 128 161 192 
255 559 320 98 102 110 
184 204 424 88 37 21 
289 612 349 57 75 91 
324 583 342 91 132 167 
275 715 217 147 174 223 
312 453 442 90 104 122 
195 618 322 163 106 99 
336 810 413 168 123 96 
193 432 316 104 79 94 
171 541 368 109 125 145 
361 763 504 169 157 151 
185 326 396 133 94 70 
250 253 461 123 54 75 
273 802 451 178 124 106 
270 463 507 180 180 188 
174 321 348 131 131 135 
347 672 607 84 86 91 
293 787 487 174 131 100 
237 353 290 190 159 126 
180 515 387 71 97 134 
216 956 428 93 77 66 
176 167 456 83 70 62 
328 722 305 111 127 176 
340 543 470 101 136 171 
249 685 305 92 98 118 
221 122 462 136 94 55 
221 122 463 135 93 54 
277 810 308 135 86 94 
248 632 262 101 91 82 
252 970 437 98 75 56 
181 297 474 158 120 74 
191 357 333 142 81 69 
293 818 450 188 139 114 
222 122 463 138 94 55 
297 433 436 129 131 139 
171 502 329 145 142 144 
282 722 216 144 168 207 
230 970 402 76 57 46 
220 125 458 146 107 71 
257 233 469 111 117 127 
222 252 521 151 132 117 
248 152 434 92 74 65 
159 272 461 111 121 136 
319 520 417 94 110 128 
356 678 410 117 111 133 
281 395 334 155 133 109 
258 306 452 85 100 115 
195 370 358 78 118 149 
222 125 457 147 103 67 
292 484 398 98 101 107 
253 439 376 122 132 147 
212 339 298 139 117 95 
201 549 461 106 113 151 
232 663 481 73 62 54 
199 472 416 70 92 130 
271 680 210 137 98 67 
285 138 461 83 106 128 
252 845 400 155 121 90 
231 291 425 121 106 93 
388 672 473 98 127 154 
323 698 274 55 91 150 
305 631 563 112 92 72 
391 686 467 104 142 178 
171 278 401 105 111 121 
205 579 463 70 108 153 
249 356 295 119 125 133 
294 660 295 63 79 96 
235 163 436 95 59 45 
252 161 425 95 70 59 
251 599 337 57 69 81 
252 569 324 105 108 114 
295 850 369 155 117 78 
276 513 504 106 131 162 
331 710 382 121 138 158 
269 259 368 112 130 150 
308 677 252 81 98 114 
287 679 200 108 89 68 
314 706 543 139 80 89 
210 123 465 110 84 59 
305 775 311 144 163 186 
216 588 321 77 109 138 
316 800 352 156 140 129 
266 326 507 164 158 159 
253 287 502 101 119 138 
289 775 489 174 128 98 
280 224 377 88 46 47 
172 513 375 74 99 127 
237 905 461 180 134 117 
163 261 458 130 128 133 
276 422 337 78 111 142 
322 822 474 202 143 116 
289 149 473 53 77 98 
311 850 384 192 144 116 
356 770 434 167 134 96 
206 694 338 66 93 118 
216 332 321 114 103 94 
185 453 380 135 137 145 
280 823 430 174 124 103 
304 683 194 161 115 84 
245 292 400 126 26 49 
282 463 405 97 101 108 
305 822 450 181 135 110 
358 675 613 102 135 185 
382 655 471 127 149 174 
315 636 350 103 97 115 
272 14 397 139 127 120 
281 348 330 132 140 153 
261 788 455 193 141 117 
271 202 467 59 113 150 
284 801 299 179 108 97 
254 790 445 191 140 117 
160 261 446 117 126 141 
314 566 327 140 143 151 
213 122 467 112 81 52 
295 405 505 155 158 167 
148 317 426 154 115 67 
165 236 464 71 100 128 
257 993 400 99 74 53 
198 442 386 96 115 139 
189 160 522 158 39 17 
246 369 292 137 46 50 
302 454 432 68 89 110 
283 190 341 84 82 82 
188 712 365 122 146 171 
177 231 413 77 52 54 
301 814 334 177 158 144 
310 620 365 67 99 130 
213 122 469 107 77 50 
182 379 320 112 100 90 
190 709 363 121 133 148 
275 978 397 110 87 65 
216 691 451 180 166 160 
320 578 468 160 161 170 
322 492 493 109 139 169 
188 350 397 116 122 133 
316 508 419 93 110 128 
208 657 454 150 94 81 
225 404 521 155 139 128 
208 707 435 162 80 45 
222 225 538 48 62 91 
163 430 437 95 120 157 
208 123 472 96 75 55 
307 836 368 198 149 116 
181 560 402 110 129 150 
246 633 262 99 89 79 
325 770 371 153 133 115 
355 659 588 48 83 135 
270 626 551 70 129 172 
197 529 468 100 126 156 
289 675 202 97 85 74 
291 71 498 141 111 87 
257 12 432 139 127 121 
306 500 500 88 113 155 
211 196 522 110 20 45 
193 500 477 72 104 161 
