ply
format ascii 1.0
comment Created by CloudCompare v2.11.1 (Anoia)
comment Created 2/28/22 9:37 PM
obj_info Generated by CloudCompare!
element vertex 2010
property float x
property float y
property float z
property uchar red
property uchar green
property uchar blue
end_header
346 579 435 168 175 190 
284 292 357 146 146 152 
303 485 486 147 157 174 
304 568 537 122 140 161 
298 887 467 155 118 85 
290 303 364 71 103 130 
323 798 323 182 191 209 
301 288 501 68 118 157 
335 772 431 180 119 119 
244 662 620 43 57 98 
269 40 470 49 41 33 
202 759 442 190 158 126 
272 10 404 130 114 102 
288 273 420 119 18 56 
293 586 367 125 126 133 
329 806 354 85 71 83 
288 495 346 80 105 135 
344 703 341 134 144 191 
276 397 508 84 103 141 
176 296 459 139 137 141 
297 238 405 128 65 93 
267 634 526 63 82 102 
211 176 470 73 38 36 
345 434 453 91 115 139 
336 648 503 73 96 125 
210 179 470 62 40 25 
211 178 470 59 41 31 
180 675 478 114 88 79 
301 323 493 119 133 152 
267 1011 455 95 70 50 
294 435 356 167 105 53 
277 157 317 193 75 30 
305 114 503 109 96 87 
208 182 470 77 37 38 
266 450 348 115 74 75 
250 990 403 168 137 112 
224 777 380 151 158 172 
339 779 451 97 82 75 
288 487 347 96 117 142 
344 694 405 185 184 193 
266 460 346 125 125 129 
279 42 484 81 72 63 
292 757 565 133 120 114 
226 465 526 111 131 153 
306 262 456 97 39 54 
213 176 469 61 35 34 
346 657 414 89 144 185 
306 650 335 72 103 131 
305 251 388 68 95 128 
330 759 359 142 152 168 
260 654 283 144 104 76 
221 183 524 149 68 5 
252 826 438 186 127 108 
295 838 496 194 147 118 
332 330 507 182 145 102 
337 617 500 116 141 169 
193 506 416 89 110 138 
201 251 438 120 121 125 
197 666 535 118 142 175 
191 460 512 85 103 141 
280 109 410 115 93 67 
310 664 314 108 126 157 
203 396 517 118 136 158 
298 60 475 105 84 61 
325 693 240 112 94 78 
201 265 439 131 133 141 
267 451 350 105 88 78 
347 746 488 82 68 90 
175 669 449 88 53 69 
213 181 469 44 33 46 
218 967 477 95 76 65 
312 686 582 110 124 152 
301 104 447 122 78 77 
346 386 458 82 116 155 
325 663 558 46 57 70 
239 202 516 92 76 75 
203 262 436 130 131 137 
247 795 546 188 138 109 
260 351 357 115 65 61 
345 670 458 179 178 185 
196 379 499 85 72 77 
258 774 340 144 66 79 
294 215 434 127 63 65 
214 182 469 59 38 56 
352 637 410 176 180 192 
334 752 307 140 157 186 
182 598 491 86 109 151 
206 347 509 132 71 94 
224 971 486 84 68 59 
218 696 370 105 119 136 
236 235 509 51 23 30 
308 120 493 112 87 77 
326 312 490 136 75 93 
257 192 510 52 44 59 
248 693 643 94 120 171 
270 308 359 76 88 104 
222 676 538 138 168 200 
313 783 523 161 146 136 
252 347 503 118 132 150 
288 393 363 141 12 55 
238 782 522 163 117 86 
223 767 518 98 72 58 
267 857 426 159 121 89 
282 765 308 127 140 158 
276 245 364 162 153 151 
275 505 345 74 95 120 
309 387 429 104 95 91 
211 350 376 150 120 85 
209 404 370 94 112 134 
191 641 562 116 96 76 
326 227 486 100 43 58 
262 430 324 92 119 149 
290 88 474 88 68 47 
177 605 422 74 94 133 
211 304 511 85 93 108 
238 416 338 73 93 113 
285 983 473 81 61 52 
330 877 467 118 95 76 
298 490 363 58 93 131 
330 623 505 129 146 180 
287 275 433 124 120 116 
211 665 520 132 173 211 
267 368 334 140 116 90 
308 165 510 87 50 59 
267 468 347 63 86 109 
359 514 452 117 136 166 
206 384 403 74 99 128 
189 379 503 114 29 62 
279 653 340 41 65 113 
305 155 496 39 36 50 
227 736 533 143 102 81 
237 655 524 43 60 75 
289 108 448 72 59 44 
263 626 311 92 85 79 
269 552 522 166 165 173 
215 187 467 66 29 45 
176 679 453 119 65 14 
225 655 574 56 73 92 
209 429 518 82 104 143 
296 215 368 107 65 55 
310 866 421 169 128 93 
319 266 463 124 73 27 
181 625 404 73 103 129 
224 498 342 123 143 172 
234 768 541 87 96 111 
208 208 497 56 42 50 
233 462 326 95 112 133 
214 184 468 61 34 48 
235 748 589 69 53 72 
260 475 322 110 131 159 
199 250 386 140 140 146 
334 175 484 73 59 75 
304 708 316 47 60 115 
319 770 521 198 157 109 
232 735 570 96 105 118 
230 935 507 182 140 117 
295 310 495 148 147 154 
256 847 432 166 120 95 
228 392 357 86 108 130 
214 398 364 60 88 115 
209 710 487 133 28 41 
239 940 510 182 139 115 
342 452 444 105 130 162 
208 617 373 87 79 72 
305 944 486 93 76 60 
283 694 280 121 91 90 
266 688 619 142 154 170 
215 481 353 98 112 148 
282 379 371 166 132 91 
285 743 307 73 87 110 
266 643 338 33 41 61 
282 285 362 109 124 142 
271 449 355 108 96 85 
240 455 522 77 102 131 
190 682 408 125 135 149 
229 323 373 113 120 130 
226 703 571 122 145 170 
346 697 427 166 168 179 
262 159 369 110 69 0 
245 437 519 72 98 129 
258 213 518 85 40 65 
181 537 432 90 106 132 
224 925 501 147 117 92 
222 366 366 134 130 132 
343 650 522 126 130 141 
216 178 467 33 35 50 
271 662 348 89 110 159 
228 961 497 173 133 115 
337 696 317 81 118 148 
295 835 502 203 155 125 
326 211 478 136 54 70 
195 580 518 118 135 161 
319 774 519 190 156 120 
215 573 362 164 155 153 
259 335 352 138 135 137 
303 148 466 95 85 76 
266 646 279 100 89 80 
223 779 482 197 146 114 
289 182 340 48 59 70 
236 689 643 110 131 176 
202 466 520 38 68 116 
351 701 485 116 133 152 
281 157 331 141 59 5 
352 593 468 163 160 165 
216 180 467 43 39 58 
324 707 565 159 172 188 
290 232 438 98 56 59 
182 379 505 184 156 129 
270 637 552 103 120 141 
270 85 497 104 88 72 
198 302 500 92 100 111 
249 590 343 42 46 53 
311 467 479 152 150 156 
345 671 407 83 136 175 
351 499 463 132 145 172 
240 769 571 155 131 109 
281 338 347 168 166 172 
279 854 419 166 128 102 
280 906 499 167 118 91 
276 472 513 132 138 149 
334 681 466 138 71 97 
192 653 402 140 128 125 
314 133 507 121 59 0 
287 892 485 163 122 92 
328 768 292 124 134 186 
335 365 499 56 104 141 
230 657 519 44 57 72 
343 660 427 104 83 107 
249 870 441 154 116 88 
344 605 413 70 113 151 
352 670 387 183 184 195 
225 484 529 76 104 145 
302 541 365 79 103 135 
309 127 484 138 86 50 
290 50 431 100 83 66 
266 203 518 73 46 41 
341 519 462 62 94 154 
206 339 431 84 84 88 
294 205 516 132 2 58 
255 1011 449 132 100 70 
273 948 408 74 55 33 
329 818 362 193 150 91 
310 830 502 209 150 117 
191 371 437 81 86 95 
293 345 381 148 5 59 
218 939 498 175 134 112 
250 1008 421 177 144 111 
289 924 490 103 73 57 
186 364 470 156 149 149 
215 456 522 97 118 146 
340 275 471 102 128 153 
328 811 355 80 55 112 
189 682 473 75 87 102 
203 231 420 51 81 106 
311 422 420 132 118 105 
311 569 395 94 115 138 
308 68 491 107 79 51 
344 554 445 137 157 182 
201 336 403 141 62 70 
263 142 392 109 93 76 
269 982 406 112 89 60 
338 352 476 97 115 136 
182 619 403 111 81 89 
200 327 511 102 123 147 
311 915 422 86 66 53 
202 294 435 69 96 120 
258 367 505 70 107 139 
201 163 480 120 66 30 
299 296 379 93 97 108 
278 687 338 63 98 127 
183 549 511 140 148 162 
337 671 492 83 113 140 
214 647 520 24 47 68 
246 603 520 131 146 165 
336 660 541 155 154 159 
321 889 459 140 105 79 
248 356 353 114 117 124 
213 388 370 71 95 117 
220 718 623 185 197 221 
330 618 534 154 155 165 
306 157 393 111 95 82 
198 327 444 86 94 105 
210 625 364 129 94 81 
279 772 314 125 137 154 
324 290 514 160 158 164 
270 30 440 95 82 73 
217 217 497 69 41 65 
310 171 516 119 70 70 
207 761 409 188 167 186 
282 637 359 65 69 76 
304 184 421 145 85 25 
336 521 477 107 130 155 
216 908 473 182 139 116 
288 342 392 164 140 118 
337 653 479 128 149 175 
338 748 456 125 33 44 
243 790 541 164 126 96 
200 296 440 72 103 128 
210 946 476 180 139 115 
334 487 446 119 129 144 
273 944 407 71 52 31 
228 883 489 157 122 96 
291 228 438 102 47 59 
338 692 365 165 169 181 
297 73 496 128 93 75 
283 326 359 105 111 123 
279 162 334 137 51 3 
170 669 461 90 94 118 
318 875 454 151 109 81 
205 330 508 97 93 100 
294 476 500 104 119 137 
226 685 528 121 122 133 
331 217 491 66 36 45 
204 728 371 120 147 175 
268 232 524 117 128 144 
203 166 484 123 60 14 
270 852 457 145 102 76 
203 167 485 121 63 21 
211 257 491 30 54 96 
317 715 236 107 82 126 
315 228 468 88 52 57 
305 584 391 85 107 131 
255 429 322 62 92 124 
282 696 247 139 97 67 
332 766 501 163 143 127 
275 633 358 64 67 72 
324 231 474 52 53 72 
199 655 590 113 92 69 
353 402 472 66 105 144 
204 163 484 127 59 5 
326 569 493 128 128 136 
205 162 485 130 63 10 
205 163 485 130 61 8 
296 328 375 109 128 150 
237 807 440 193 140 118 
233 357 361 102 110 122 
295 709 596 119 115 123 
188 332 444 120 95 75 
305 965 474 114 92 71 
252 489 537 80 103 150 
207 161 487 130 61 3 
179 572 496 81 106 142 
206 162 487 130 59 3 
309 233 391 155 76 86 
307 435 485 103 113 140 
326 693 567 89 100 119 
340 380 500 87 116 144 
340 398 444 105 123 143 
328 692 261 69 107 145 
342 701 396 59 80 99 
318 271 515 80 125 160 
237 190 520 106 112 120 
285 987 463 101 76 60 
205 164 486 129 60 4 
293 847 386 117 119 125 
278 201 524 108 80 72 
180 656 517 90 99 117 
294 251 368 81 47 65 
287 547 526 135 150 170 
345 621 430 114 8 63 
190 277 454 113 113 117 
229 580 342 157 166 186 
193 348 487 89 38 34 
202 457 402 96 117 143 
277 102 503 100 90 82 
225 944 427 75 62 51 
328 440 492 90 114 157 
274 420 510 126 137 153 
342 451 482 147 156 180 
226 603 520 170 167 172 
293 161 388 130 112 95 
208 683 631 162 170 186 
224 787 408 133 104 80 
206 313 420 56 76 94 
337 655 477 92 127 170 
295 521 355 92 117 159 
266 715 617 143 160 181 
278 273 511 77 119 153 
329 915 484 171 142 113 
260 437 341 106 72 79 
260 357 341 115 102 93 
358 576 432 114 145 184 
264 646 601 99 129 159 
311 756 265 234 229 238 
360 698 503 165 178 198 
180 645 549 149 111 88 
243 629 309 160 115 91 
307 158 387 118 103 92 
298 494 513 104 122 142 
352 602 425 95 134 177 
262 19 474 83 71 58 
328 331 484 147 65 92 
231 483 324 151 147 148 
292 361 381 175 146 112 
200 170 481 79 48 40 
316 559 423 82 91 102 
332 665 552 114 129 148 
210 624 509 34 42 50 
315 806 317 197 204 219 
329 780 329 142 160 186 
316 193 474 59 30 39 
332 248 483 41 80 107 
187 376 420 102 115 150 
332 635 495 122 146 179 
263 492 531 94 111 149 
317 307 509 110 123 139 
206 757 417 106 103 115 
326 447 422 48 79 107 
186 651 511 101 73 72 
183 602 404 142 145 156 
269 380 343 122 105 96 
289 406 496 95 110 145 
333 352 491 129 138 151 
325 839 393 221 185 151 
256 136 508 50 71 90 
195 283 507 86 24 55 
353 667 388 179 184 197 
342 593 439 181 181 190 
290 381 365 183 146 101 
230 872 471 137 107 77 
248 981 416 90 67 42 
193 215 468 88 54 57 
232 742 595 181 61 70 
187 655 575 126 97 70 
290 170 525 63 98 125 
269 804 334 150 41 54 
252 764 341 82 84 110 
293 93 489 105 84 65 
196 730 397 120 49 77 
181 633 541 124 104 85 
158 451 476 62 98 126 
199 702 382 149 164 184 
201 174 483 115 41 22 
186 587 406 157 152 155 
261 917 508 191 153 130 
350 638 440 83 128 163 
269 819 357 152 123 101 
346 421 442 124 141 169 
188 554 517 111 123 144 
301 428 402 113 102 92 
304 324 440 75 100 126 
202 173 484 100 47 24 
330 283 481 110 118 129 
307 551 375 73 104 147 
198 479 410 78 99 129 
266 855 427 158 118 87 
208 704 604 163 189 218 
258 109 499 90 75 59 
263 472 330 110 122 138 
335 782 375 159 161 171 
301 945 489 92 74 58 
203 174 486 109 81 71 
325 227 474 92 53 79 
168 609 467 78 106 143 
272 363 507 68 104 139 
255 637 582 70 100 130 
306 733 569 176 29 60 
345 674 426 79 133 173 
304 600 534 115 139 165 
283 913 494 166 121 94 
277 772 329 110 122 137 
188 353 418 159 114 55 
275 780 576 179 147 114 
274 790 324 108 127 147 
325 219 488 83 13 27 
264 793 571 131 131 138 
205 171 487 111 80 68 
182 617 404 130 124 126 
294 224 345 104 94 95 
291 274 442 127 125 127 
302 730 577 169 113 75 
204 283 426 128 126 130 
205 168 488 127 58 7 
343 752 461 177 142 95 
263 29 405 166 146 141 
292 108 429 116 95 72 
235 891 444 127 98 61 
208 480 524 159 157 163 
227 434 337 83 103 125 
269 630 512 66 60 61 
339 293 466 159 149 150 
157 569 444 166 174 190 
267 365 335 132 107 77 
349 701 528 154 153 164 
258 202 362 78 54 63 
210 632 515 61 57 54 
251 802 546 195 143 116 
338 710 471 116 130 148 
192 366 435 69 72 78 
302 582 384 73 97 121 
253 823 465 174 121 101 
198 316 396 106 132 166 
273 195 520 69 62 74 
205 173 488 105 96 92 
327 747 266 120 133 194 
255 600 522 119 139 162 
212 242 393 102 43 63 
205 174 488 110 98 96 
252 261 375 138 138 144 
263 783 580 208 166 119 
336 806 417 101 84 80 
322 836 467 195 146 112 
346 695 484 117 128 142 
249 450 321 79 106 137 
242 704 354 80 97 120 
277 92 469 82 65 45 
215 426 516 93 118 150 
329 656 367 67 111 157 
248 869 452 98 74 45 
284 286 359 127 128 134 
194 626 521 82 75 69 
251 462 320 147 150 161 
279 637 343 66 66 69 
331 772 314 151 170 193 
247 612 340 100 92 87 
206 464 521 150 150 156 
263 632 581 54 87 133 
199 664 551 73 108 186 
248 993 465 101 79 59 
209 273 502 54 27 47 
287 738 587 176 147 110 
278 868 471 125 86 58 
218 916 451 130 101 75 
267 884 502 168 122 94 
330 334 510 182 139 85 
332 815 440 146 137 134 
293 177 335 52 68 83 
189 640 560 120 99 77 
260 347 363 103 105 110 
271 743 604 160 24 42 
258 160 363 117 65 0 
187 426 428 96 114 135 
205 382 418 63 85 118 
274 835 483 176 123 101 
332 495 445 136 138 147 
187 738 462 135 126 126 
318 508 477 85 104 133 
241 632 555 69 94 124 
212 406 517 95 117 146 
218 755 512 184 159 137 
241 398 511 54 89 130 
313 233 497 87 93 101 
265 674 281 171 117 94 
223 888 462 142 106 79 
197 182 481 116 43 22 
290 669 299 80 98 132 
262 52 500 116 93 73 
234 747 572 122 108 105 
265 36 468 62 52 44 
240 811 459 183 132 109 
267 854 425 165 123 92 
334 669 552 127 144 166 
184 392 434 35 71 101 
214 230 507 98 43 43 
287 681 290 112 83 82 
340 702 411 174 175 184 
342 584 445 116 137 166 
253 427 525 96 117 140 
291 364 368 182 144 101 
308 885 436 172 130 98 
199 182 483 118 43 17 
209 385 375 68 99 126 
247 641 320 178 119 105 
198 183 484 110 42 28 
287 840 358 206 180 157 
341 746 460 136 112 99 
266 195 361 89 67 110 
354 490 452 78 110 145 
333 654 482 97 127 164 
178 627 529 108 94 83 
263 67 435 100 77 64 
333 746 287 125 140 175 
195 189 482 79 44 54 
280 635 519 96 98 104 
195 190 481 80 45 52 
280 701 251 149 103 75 
296 430 371 170 73 3 
271 7 426 75 63 54 
197 416 513 81 102 139 
226 785 482 196 145 114 
211 363 376 105 116 130 
244 900 505 171 130 113 
286 386 366 141 100 45 
232 742 593 163 34 66 
267 935 403 71 56 43 
334 739 334 101 119 161 
214 767 382 214 160 136 
186 692 409 91 117 142 
197 185 483 100 46 37 
316 804 313 145 177 209 
294 280 356 149 160 178 
246 632 562 55 75 120 
316 665 303 78 107 140 
204 684 579 104 151 191 
228 248 513 102 88 100 
294 88 458 78 65 51 
195 475 422 79 93 112 
260 405 326 54 86 112 
232 728 556 107 79 109 
210 551 528 114 129 148 
328 418 430 100 116 135 
210 325 383 143 105 70 
327 787 332 168 180 197 
303 368 490 99 121 150 
305 657 318 82 105 131 
332 695 557 165 168 179 
217 935 497 180 139 116 
316 535 511 169 168 175 
320 734 248 179 183 221 
341 241 477 93 24 44 
333 812 374 165 128 123 
199 269 444 113 116 124 
238 881 502 95 64 51 
291 592 368 74 94 113 
293 106 501 89 81 73 
270 620 511 140 139 144 
239 663 609 59 77 96 
267 960 412 110 79 50 
340 721 405 184 180 185 
214 758 367 64 48 122 
240 337 510 153 72 105 
342 730 400 78 121 157 
196 284 400 91 123 151 
264 127 514 120 71 33 
319 841 474 194 139 109 
277 97 502 96 83 69 
320 541 403 86 114 149 
262 918 508 190 153 127 
195 220 464 91 49 69 
307 529 373 158 154 156 
302 836 340 198 135 164 
294 910 485 156 110 85 
333 155 485 163 72 6 
285 289 356 140 145 156 
323 375 501 78 111 151 
314 437 416 98 109 122 
218 402 514 59 87 135 
182 606 491 104 131 161 
208 390 417 70 87 113 
250 708 348 82 101 121 
205 228 411 120 100 101 
287 407 362 179 137 90 
218 289 505 64 72 82 
256 146 510 65 95 120 
300 776 547 170 155 145 
293 58 410 113 92 72 
317 797 309 162 182 205 
198 190 487 65 40 48 
212 259 383 73 118 155 
185 295 452 68 88 109 
358 670 505 77 101 123 
281 882 419 130 100 70 
212 428 360 139 139 145 
199 189 488 65 46 63 
174 660 519 78 109 143 
298 782 546 174 159 151 
326 131 511 148 69 2 
345 458 457 74 105 142 
343 369 472 51 91 124 
199 734 491 94 93 101 
278 42 438 97 82 67 
309 957 435 102 78 61 
183 655 436 50 82 110 
257 765 341 101 119 139 
284 187 343 84 55 73 
299 338 435 122 118 117 
269 582 524 90 112 148 
196 569 522 108 126 151 
185 444 427 83 107 132 
304 179 469 117 49 31 
358 500 459 117 142 176 
199 649 398 164 150 145 
314 484 400 86 104 124 
301 744 564 181 170 163 
204 692 588 146 175 206 
313 765 538 145 127 112 
272 836 393 94 127 156 
221 708 592 113 152 188 
306 898 430 91 64 52 
296 902 410 83 63 47 
203 176 487 116 60 39 
291 798 300 117 141 208 
286 973 484 91 73 62 
270 995 465 133 109 88 
202 179 486 116 41 15 
208 684 573 165 185 210 
201 245 441 89 80 93 
194 327 416 110 122 137 
280 14 397 142 128 120 
310 513 499 60 91 144 
259 90 415 99 82 64 
305 569 380 99 114 132 
274 191 370 110 60 74 
261 82 432 104 83 65 
345 620 482 115 145 176 
313 258 515 104 57 80 
306 601 412 74 84 100 
220 788 447 192 142 113 
271 348 353 123 111 100 
176 670 421 103 89 78 
202 206 494 39 36 39 
296 198 431 58 100 130 
271 197 368 90 62 102 
201 618 386 113 110 113 
157 458 476 90 119 147 
202 182 487 98 44 30 
305 359 433 128 129 136 
230 342 369 124 107 96 
314 182 473 120 32 36 
289 741 322 107 116 132 
181 504 425 109 124 149 
263 899 404 101 80 55 
178 685 417 110 91 79 
237 279 376 104 129 154 
202 180 488 102 42 22 
176 391 438 110 117 131 
243 334 360 129 126 127 
178 412 494 114 51 12 
275 642 579 83 113 148 
167 431 474 87 96 108 
285 668 590 31 62 125 
292 274 444 125 122 123 
283 660 583 77 104 142 
242 785 547 86 117 145 
222 596 352 59 55 73 
291 261 412 144 45 89 
223 425 349 121 121 125 
283 686 245 138 99 66 
290 993 413 146 114 79 
331 68 446 127 114 106 
340 548 474 103 126 151 
263 653 581 64 90 123 
302 619 524 124 125 133 
214 664 533 155 183 215 
178 408 497 142 64 9 
303 781 541 172 161 155 
340 716 443 131 151 177 
282 842 394 125 129 139 
225 763 522 127 121 122 
267 1006 418 110 84 62 
216 230 392 104 76 76 
339 373 490 119 132 156 
206 176 490 108 93 87 
342 722 469 118 119 127 
323 590 427 124 123 127 
258 418 324 101 115 133 
303 805 532 188 134 100 
309 693 314 128 137 151 
263 780 340 73 52 86 
312 513 513 77 105 150 
267 802 338 151 119 117 
314 468 479 86 111 135 
196 648 399 151 134 129 
258 641 565 59 73 113 
300 393 419 106 66 46 
207 179 492 95 86 86 
257 818 486 184 133 110 
308 506 491 127 142 161 
263 53 435 98 79 62 
216 550 361 120 130 143 
158 468 463 92 118 144 
302 757 556 98 87 88 
318 679 256 72 78 84 
300 651 302 78 98 118 
300 771 279 211 201 221 
206 214 495 29 44 73 
346 650 509 74 104 131 
217 735 357 108 128 149 
316 860 424 199 152 119 
303 850 480 200 144 114 
301 620 409 62 109 144 
324 655 379 63 105 150 
294 876 412 157 116 81 
263 400 357 130 106 81 
334 646 523 106 109 118 
214 297 393 100 110 124 
161 534 444 70 100 135 
275 680 288 148 97 80 
317 863 432 192 149 120 
218 771 499 155 131 109 
290 642 534 47 55 64 
207 182 493 79 37 55 
275 42 475 78 70 63 
240 643 538 60 74 89 
261 896 410 100 80 57 
267 209 522 86 56 70 
182 381 441 101 114 131 
201 184 487 83 43 45 
339 679 362 116 136 174 
313 817 324 183 201 228 
246 199 508 33 26 27 
254 267 523 76 120 155 
264 628 351 66 66 68 
215 450 353 110 124 146 
183 436 433 70 82 104 
328 779 338 78 129 167 
211 569 526 185 176 176 
323 522 433 144 142 145 
346 676 536 111 137 164 
225 694 519 94 107 146 
254 873 429 143 111 80 
291 189 375 98 72 74 
250 803 534 185 141 110 
175 553 479 152 155 165 
294 301 385 81 127 162 
229 761 531 154 118 88 
348 669 451 171 170 177 
181 381 505 185 157 127 
206 257 518 143 105 82 
192 475 426 148 154 170 
209 452 381 67 91 132 
206 642 552 81 76 73 
346 460 458 81 110 138 
255 828 454 180 122 104 
203 187 491 63 47 64 
296 66 471 106 84 58 
293 735 313 66 78 114 
262 148 370 129 82 72 
182 637 424 178 172 173 
193 202 482 94 45 48 
302 247 375 86 71 75 
268 897 408 87 72 58 
263 79 496 110 91 73 
292 820 533 201 133 103 
294 246 451 38 63 83 
255 524 325 182 176 181 
182 445 431 78 90 109 
274 974 411 81 66 49 
305 296 448 95 96 101 
187 621 496 85 83 85 
200 397 421 39 91 138 
333 648 501 93 111 136 
278 830 498 186 138 113 
179 379 461 143 140 143 
188 355 417 161 116 55 
304 728 575 125 31 44 
255 915 508 178 141 121 
231 749 350 109 134 160 
277 285 366 112 128 146 
331 580 498 99 139 173 
298 197 375 91 60 57 
265 211 360 111 44 42 
293 309 385 125 118 122 
186 315 469 92 117 142 
223 509 528 78 98 137 
291 693 283 69 90 136 
334 446 494 178 179 188 
249 373 505 70 109 141 
320 563 523 88 135 173 
203 306 514 159 158 165 
183 577 510 90 111 144 
213 521 381 94 115 146 
237 790 378 87 93 186 
308 239 389 148 52 70 
275 43 494 99 86 72 
258 298 369 81 105 130 
207 184 494 83 45 66 
283 561 526 90 113 148 
265 122 447 59 48 36 
244 635 310 181 127 106 
314 782 524 166 154 148 
213 610 359 102 86 67 
290 723 290 96 104 118 
346 672 412 68 131 178 
316 866 461 147 105 76 
219 654 551 63 73 84 
279 717 264 114 142 175 
176 460 474 42 61 99 
205 188 493 91 42 56 
187 587 405 152 148 152 
344 548 437 92 122 152 
293 483 351 137 146 163 
257 376 338 120 59 58 
273 911 504 175 125 99 
166 452 479 61 75 91 
341 464 483 122 146 178 
301 912 409 77 62 47 
260 628 569 102 119 137 
179 677 469 99 119 139 
170 534 432 102 118 138 
241 262 521 124 127 135 
351 651 449 73 135 179 
292 399 402 139 127 118 
319 860 433 186 140 110 
177 660 550 76 106 135 
307 500 492 83 109 138 
289 619 378 50 67 85 
188 322 504 81 119 149 
212 944 486 181 138 115 
204 609 374 144 106 92 
199 754 442 120 81 63 
192 199 477 81 43 42 
293 81 493 120 94 73 
180 668 577 49 85 146 
220 768 512 137 137 143 
199 551 521 90 105 131 
243 981 432 67 51 45 
244 637 320 176 119 103 
268 652 336 36 44 90 
242 801 490 198 144 118 
302 491 509 115 129 148 
179 552 494 123 130 147 
316 950 455 66 54 45 
223 458 335 96 113 136 
341 742 429 152 170 192 
341 596 485 92 121 146 
311 76 444 108 80 39 
247 861 497 149 109 91 
228 877 483 138 105 82 
169 631 466 127 97 80 
226 406 354 61 85 110 
298 215 416 117 94 105 
252 352 503 154 150 153 
207 271 418 99 96 95 
322 876 469 129 99 77 
327 275 483 147 146 151 
252 628 529 83 103 122 
264 588 343 54 65 77 
204 384 391 98 115 139 
187 471 503 100 115 146 
257 651 601 86 101 120 
210 162 492 124 66 19 
264 78 436 105 82 67 
310 181 506 106 53 49 
346 751 485 63 103 136 
211 163 492 130 68 23 
267 126 406 112 93 74 
302 529 365 67 100 131 
334 694 314 101 123 152 
237 509 537 165 164 171 
279 155 387 112 94 76 
184 540 431 105 115 149 
296 244 352 116 86 95 
320 495 476 108 122 141 
274 596 532 141 149 164 
265 533 521 109 127 155 
236 638 542 53 70 89 
185 653 432 62 107 143 
182 541 505 156 158 166 
209 167 491 132 58 4 
269 391 337 129 102 85 
329 700 560 165 174 188 
197 293 445 72 78 91 
265 951 505 148 114 94 
340 244 475 90 47 50 
217 733 512 142 101 79 
281 463 503 132 139 150 
292 687 597 79 80 85 
266 522 340 103 117 137 
291 350 371 177 138 89 
289 65 449 78 65 52 
254 401 331 101 112 127 
254 1002 458 123 88 67 
221 487 529 107 126 151 
256 664 585 71 86 105 
279 101 469 82 65 46 
267 180 513 95 34 53 
294 588 536 104 136 167 
329 656 546 119 131 147 
210 320 426 60 78 95 
212 161 493 112 86 56 
293 557 355 132 139 152 
287 835 337 186 113 127 
179 347 461 72 113 143 
331 694 559 154 153 160 
260 113 438 81 66 51 
170 427 491 119 106 96 
208 348 512 139 75 99 
293 620 382 96 99 107 
236 753 588 137 125 117 
340 658 472 87 109 154 
338 672 548 138 141 151 
319 859 430 192 145 116 
185 442 488 57 82 129 
181 534 503 116 124 151 
218 439 518 91 114 142 
293 389 409 142 123 105 
152 547 446 151 166 185 
222 692 654 77 104 144 
279 553 524 144 152 167 
300 195 519 158 104 96 
329 615 517 125 145 179 
316 677 257 99 93 90 
286 373 370 174 137 95 
346 623 427 162 149 143 
209 168 491 132 57 5 
282 335 350 167 165 169 
337 701 475 58 95 126 
206 770 470 147 154 165 
311 369 490 52 87 132 
302 612 528 139 142 153 
250 417 518 145 149 160 
165 514 467 74 93 146 
261 802 346 153 87 107 
330 753 279 220 213 214 
333 415 502 100 124 166 
166 511 468 81 107 150 
226 700 645 162 174 207 
331 215 490 80 35 30 
327 508 432 120 128 140 
338 312 460 83 127 163 
219 642 366 165 103 99 
313 734 248 89 140 224 
196 507 412 97 113 145 
267 22 393 176 147 135 
253 714 632 134 152 185 
232 599 520 118 141 169 
285 644 329 60 82 102 
254 692 637 123 129 172 
288 374 400 116 34 53 
193 286 479 139 53 4 
336 715 294 182 181 188 
271 57 406 98 83 68 
216 650 565 66 70 77 
262 55 410 98 81 63 
320 227 473 104 47 69 
343 403 500 32 81 147 
236 945 509 178 135 113 
309 516 492 75 99 145 
339 708 473 123 134 147 
184 363 467 139 133 133 
240 372 355 141 136 137 
332 741 338 122 143 176 
323 852 451 192 141 111 
208 377 519 99 121 149 
266 68 408 101 85 67 
218 561 356 161 151 146 
209 175 494 132 63 25 
200 263 442 132 133 140 
309 89 449 140 93 83 
289 275 407 121 61 89 
325 534 437 82 99 120 
240 710 352 125 127 135 
265 201 517 102 83 69 
180 629 423 120 128 154 
335 611 403 131 130 134 
171 649 483 172 118 109 
216 681 374 71 65 101 
297 57 416 117 85 70 
209 378 412 77 90 110 
192 667 599 122 132 151 
165 538 469 95 113 156 
189 367 430 97 99 105 
288 70 412 111 91 70 
318 879 465 112 91 78 
165 609 463 85 118 175 
264 1013 447 85 67 49 
312 667 278 82 116 145 
300 561 363 143 145 153 
293 423 386 133 59 2 
214 163 497 113 91 70 
274 90 499 106 88 70 
303 863 469 189 136 101 
297 682 329 116 125 139 
267 815 343 132 109 117 
347 664 528 100 130 159 
196 447 426 92 117 152 
163 551 441 37 62 119 
353 417 482 87 119 157 
197 580 520 116 140 168 
217 775 481 201 153 122 
307 953 425 112 84 64 
305 563 535 156 159 169 
208 434 370 166 161 163 
174 524 478 66 93 148 
262 520 332 145 147 156 
312 521 383 65 93 134 
266 790 335 101 38 42 
271 58 498 118 99 82 
304 529 527 100 129 157 
236 799 398 173 145 119 
193 685 589 136 151 193 
209 299 420 90 94 101 
210 647 380 49 35 50 
277 423 507 108 124 149 
231 784 492 192 143 112 
236 611 333 114 102 92 
174 539 429 82 106 152 
259 67 413 95 79 62 
312 866 426 195 152 121 
349 679 384 77 77 91 
275 216 524 136 58 88 
211 173 496 133 61 10 
290 472 349 134 116 105 
222 275 393 122 117 116 
292 224 434 125 47 65 
179 657 502 88 88 98 
189 350 472 60 95 126 
243 771 577 144 116 91 
285 725 262 127 138 182 
212 168 496 135 63 2 
212 168 497 133 62 3 
267 664 265 127 95 64 
179 465 484 73 92 138 
252 750 609 139 35 74 
297 482 364 58 94 135 
216 289 396 118 126 139 
306 671 579 125 132 144 
212 170 496 135 60 2 
286 311 398 142 144 151 
211 757 370 191 134 143 
292 211 352 118 56 56 
206 756 379 121 81 124 
274 196 365 113 65 82 
204 283 430 100 76 86 
206 560 376 106 123 143 
330 674 310 72 90 113 
293 390 380 140 6 41 
184 564 428 82 105 127 
323 794 317 141 135 188 
329 277 482 144 143 149 
227 533 347 140 149 166 
312 234 490 68 100 127 
209 396 410 60 85 111 
285 635 520 90 86 91 
337 173 503 143 46 16 
339 254 483 122 127 138 
342 240 479 112 20 45 
208 545 387 104 111 123 
284 333 408 122 125 132 
318 549 492 164 162 168 
305 765 549 162 142 126 
330 367 509 86 134 174 
280 95 471 85 67 48 
195 406 499 62 99 129 
218 707 637 145 156 208 
324 828 470 188 139 105 
213 174 499 133 59 13 
195 552 405 162 152 148 
209 608 367 96 83 68 
321 564 432 108 126 145 
177 314 464 109 81 86 
289 847 396 182 173 169 
184 635 421 155 149 151 
288 708 280 108 120 150 
239 440 327 52 77 105 
263 23 482 85 72 59 
347 462 474 145 161 180 
320 794 506 107 89 75 
302 697 323 110 118 147 
304 303 446 124 124 128 
199 513 523 122 132 149 
229 663 608 74 68 66 
209 658 379 160 111 107 
300 706 233 173 117 82 
235 574 339 110 137 175 
256 289 374 90 114 136 
226 294 518 129 121 115 
234 186 521 139 68 35 
205 749 373 140 125 137 
202 731 379 112 139 166 
260 419 346 105 94 84 
318 58 438 139 122 108 
187 359 470 120 118 121 
165 544 469 161 163 173 
205 743 370 161 155 180 
208 304 419 81 86 97 
299 58 429 99 79 58 
164 539 465 83 106 140 
256 620 317 106 97 89 
266 77 438 108 85 70 
287 286 405 79 117 148 
218 162 501 109 98 89 
257 984 401 78 56 35 
271 881 500 163 117 87 
287 841 381 177 157 144 
340 735 435 164 171 186 
329 480 418 76 102 127 
283 879 419 137 105 75 
216 166 499 104 77 48 
187 361 489 129 124 124 
307 716 581 161 34 47 
265 270 514 80 127 162 
288 245 437 54 72 90 
261 660 618 72 110 161 
356 677 499 78 111 137 
204 751 382 146 26 56 
296 51 485 101 94 88 
344 751 463 167 122 49 
309 737 560 43 32 77 
316 431 420 67 94 119 
256 648 342 28 37 64 
358 476 461 149 160 178 
219 165 502 98 86 74 
220 675 519 141 172 204 
246 384 508 54 89 124 
342 450 451 103 120 139 
212 764 425 179 146 106 
219 166 501 101 85 69 
286 665 256 98 87 77 
325 290 497 90 109 128 
287 983 472 105 84 67 
220 160 501 106 96 88 
301 399 490 89 102 134 
262 416 342 111 96 83 
264 638 288 104 93 83 
334 796 455 155 127 99 
304 483 481 167 162 166 
221 160 503 92 83 77 
291 720 594 104 107 140 
295 619 384 89 90 97 
253 809 535 194 149 118 
225 261 390 59 102 138 
291 285 388 72 68 93 
248 586 521 124 139 161 
265 400 519 98 117 146 
342 691 421 161 163 170 
334 316 453 80 103 125 
280 648 557 120 125 135 
301 232 369 129 41 32 
189 683 592 116 131 194 
197 586 518 103 131 171 
305 667 574 99 115 134 
301 728 242 103 139 214 
316 924 470 124 84 72 
204 664 385 64 65 67 
248 679 640 108 129 159 
338 135 495 121 96 80 
223 961 492 178 132 113 
290 93 475 84 65 45 
341 367 451 86 104 128 
263 909 508 193 149 123 
222 164 502 95 85 76 
265 652 316 111 83 80 
230 339 370 126 110 97 
305 954 423 106 84 65 
340 762 415 128 139 160 
179 642 439 134 124 127 
179 296 455 79 98 117 
321 579 531 86 123 154 
207 322 398 120 46 35 
174 664 523 124 140 193 
289 782 294 110 118 163 
229 522 535 114 129 150 
267 236 366 127 87 108 
326 802 491 85 126 159 
210 942 457 108 88 72 
321 656 337 61 103 138 
343 625 434 74 126 165 
190 667 595 138 148 169 
276 79 449 82 66 52 
223 167 509 84 80 78 
195 440 512 125 137 155 
166 455 477 39 44 61 
289 57 440 77 67 59 
258 711 343 34 59 125 
311 574 418 101 94 89 
356 482 455 106 123 143 
176 672 420 87 75 76 
275 570 525 105 134 162 
311 683 316 121 131 148 
225 293 513 103 116 132 
177 549 430 108 128 155 
226 355 367 105 112 122 
202 521 523 93 112 150 
217 418 357 59 87 117 
179 505 425 96 117 142 
327 788 332 172 183 200 
334 683 556 172 168 173 
211 489 373 155 155 166 
295 223 366 102 42 47 
308 969 465 119 90 62 
323 668 292 75 106 137 
218 171 500 126 67 21 
341 428 436 140 143 152 
306 616 415 51 108 149 
358 495 456 94 119 166 
213 608 364 81 77 74 
207 514 401 105 114 127 
265 416 337 118 107 100 
175 663 534 128 150 184 
162 557 452 61 75 133 
211 935 458 117 96 75 
217 173 500 130 59 9 
282 425 503 109 121 150 
216 174 500 132 62 11 
259 518 527 118 129 149 
327 251 511 93 119 142 
279 958 496 148 128 113 
217 174 501 129 61 11 
282 195 358 113 48 53 
258 433 322 87 112 143 
223 752 522 179 140 93 
227 791 471 195 143 115 
213 654 375 159 100 95 
331 743 271 117 128 182 
311 395 488 59 88 137 
219 173 503 122 59 17 
231 784 491 192 143 112 
249 862 475 172 100 41 
332 573 483 127 146 168 
341 537 453 130 151 176 
179 647 548 163 120 98 
316 950 452 74 63 55 
295 265 391 99 69 93 
275 398 369 159 128 92 
248 796 529 179 135 103 
293 332 431 90 65 65 
204 413 399 68 92 136 
196 274 398 132 136 146 
263 628 513 95 101 112 
220 170 501 109 69 38 
339 735 407 166 168 178 
237 597 345 64 77 92 
220 171 503 109 71 37 
285 349 404 103 113 126 
284 717 252 124 84 96 
294 237 418 105 108 116 
206 438 519 128 139 156 
309 159 397 100 86 74 
306 655 299 75 100 123 
275 127 526 117 116 119 
261 612 524 134 146 164 
256 628 542 80 100 120 
307 256 459 93 38 50 
174 664 524 133 154 198 
208 192 469 62 30 41 
343 444 483 118 130 171 
268 397 333 141 130 123 
286 869 471 141 98 67 
289 316 371 97 106 118 
333 353 509 98 124 159 
241 536 327 118 133 169 
271 456 517 145 148 158 
199 691 609 121 141 178 
241 785 520 184 130 98 
233 758 352 172 6 39 
201 336 509 86 108 132 
342 479 477 149 158 184 
256 392 332 90 103 121 
287 186 524 116 90 95 
263 496 530 94 107 147 
205 253 417 133 132 136 
214 700 590 130 159 189 
245 495 321 165 165 173 
281 230 518 161 75 8 
353 657 382 169 171 182 
223 168 505 97 89 83 
232 479 528 76 105 144 
223 726 607 163 48 69 
340 480 484 83 105 167 
254 629 525 64 85 110 
311 476 398 140 139 143 
213 704 634 148 164 199 
216 524 369 132 137 149 
330 671 315 37 73 116 
284 182 330 53 51 100 
219 682 560 154 178 207 
328 132 490 157 120 84 
199 572 387 97 113 135 
222 170 507 85 79 76 
291 903 479 137 88 69 
308 623 410 62 103 144 
201 363 413 161 82 106 
296 453 489 146 149 158 
236 703 357 118 122 130 
288 375 398 118 18 49 
240 792 377 133 84 80 
221 170 509 90 85 82 
221 171 508 86 82 80 
163 525 460 93 115 156 
264 164 340 87 42 24 
310 423 418 126 114 101 
208 495 397 166 159 159 
251 823 462 178 124 105 
221 170 510 99 89 84 
349 544 448 121 139 172 
332 826 383 172 150 134 
181 380 505 178 149 117 
208 406 414 66 85 110 
267 159 513 130 93 71 
217 521 524 146 143 148 
172 469 472 89 107 135 
212 767 496 136 124 120 
294 261 508 119 135 155 
222 170 508 84 79 76 
296 192 455 84 44 47 
293 151 449 84 74 64 
283 688 284 137 93 80 
285 1001 455 126 100 82 
349 652 437 104 143 177 
328 773 343 87 89 94 
330 184 497 36 46 73 
343 602 437 172 172 181 
221 172 507 89 82 77 
332 714 353 138 145 174 
309 812 519 199 142 106 
207 447 519 87 114 148 
258 170 362 103 70 42 
222 784 474 197 145 114 
227 786 389 94 92 95 
320 442 420 68 92 115 
204 519 523 105 122 154 
337 539 474 107 122 154 
298 530 361 104 123 145 
250 792 367 148 98 105 
323 736 538 75 46 101 
205 234 387 88 49 64 
339 742 385 114 134 162 
280 681 340 73 109 139 
287 705 277 104 117 142 
244 526 532 105 117 139 
252 639 334 148 121 111 
244 661 628 113 123 137 
196 516 414 85 99 136 
296 58 476 103 85 66 
220 175 508 103 85 72 
288 493 346 87 109 137 
272 450 513 96 115 145 
296 396 375 179 149 112 
292 390 408 146 128 111 
264 655 311 153 103 89 
204 691 624 123 143 174 
219 656 526 41 56 72 
196 389 420 67 107 151 
209 177 495 123 78 64 
262 24 485 88 75 62 
190 667 528 149 159 176 
177 556 433 54 92 132 
186 381 504 173 150 127 
246 305 375 88 84 84 
328 832 440 187 164 144 
305 640 532 122 123 129 
303 189 466 84 29 35 
302 30 427 96 82 67 
195 279 449 109 109 114 
296 221 367 104 45 53 
167 446 462 28 67 100 
208 751 370 167 41 71 
209 180 495 99 98 102 
199 259 383 156 152 155 
282 808 316 187 37 66 
347 406 491 157 163 175 
187 579 410 142 146 157 
248 985 422 92 71 47 
334 790 371 146 32 42 
297 216 420 117 94 109 
269 544 522 143 149 161 
316 242 499 112 110 113 
271 678 347 36 51 105 
341 730 519 174 58 57 
278 347 343 129 144 161 
288 135 418 100 83 65 
193 303 403 144 146 154 
306 478 387 145 144 149 
209 185 495 94 42 57 
188 263 460 116 101 98 
346 678 391 186 188 199 
234 911 504 174 124 108 
306 481 385 86 108 131 
264 344 356 120 111 106 
331 256 480 63 47 71 
318 291 455 134 118 104 
217 777 415 196 160 118 
200 741 383 159 68 67 
211 176 497 133 65 22 
309 677 297 89 100 139 
338 681 360 123 131 178 
293 662 573 83 102 123 
289 684 598 43 62 95 
317 227 502 91 77 74 
185 261 477 136 23 71 
281 537 524 121 135 154 
276 661 305 121 91 97 
169 619 464 111 137 174 
180 580 434 83 98 117 
263 654 578 62 85 117 
305 75 486 142 104 84 
194 300 477 124 111 97 
176 604 479 96 132 170 
171 436 457 63 86 115 
210 183 496 89 52 65 
312 884 440 158 115 89 
256 97 429 101 83 64 
306 701 315 97 111 146 
206 643 545 78 73 71 
197 348 429 74 77 83 
305 132 475 95 63 41 
319 796 509 131 129 133 
223 500 346 130 137 158 
285 880 416 131 104 80 
174 434 479 71 66 63 
175 509 489 125 137 155 
268 858 460 100 69 45 
212 179 498 119 80 71 
194 403 423 81 109 143 
281 60 444 83 72 62 
213 179 498 122 74 59 
215 489 357 143 146 158 
223 787 424 155 143 136 
332 793 469 201 162 116 
282 660 341 67 86 144 
211 664 530 133 168 204 
254 772 340 99 124 152 
311 675 578 150 151 159 
302 816 527 205 140 106 
342 634 429 76 130 171 
281 757 584 139 136 140 
298 844 354 177 130 103 
298 591 379 142 134 131 
315 225 518 126 136 151 
291 100 417 101 83 63 
227 251 390 62 108 146 
335 468 488 152 162 180 
297 821 527 203 138 106 
242 905 409 118 93 66 
297 221 513 161 83 8 
349 577 426 96 135 169 
235 552 336 107 131 160 
213 182 498 100 99 103 
213 703 489 99 24 55 
357 438 474 49 88 160 
221 715 634 164 180 213 
325 240 481 76 51 76 
304 659 282 71 84 97 
293 726 299 68 80 106 
255 321 358 88 103 121 
262 495 328 146 150 160 
253 824 416 188 130 108 
214 183 498 97 92 94 
295 768 277 83 100 182 
204 227 430 64 101 130 
302 704 296 86 103 142 
215 180 500 120 72 54 
236 509 537 164 163 168 
256 684 634 125 147 172 
267 517 523 116 125 145 
298 849 481 192 140 113 
295 160 387 119 103 92 
175 562 478 121 135 154 
243 428 516 67 90 114 
189 282 452 109 112 118 
303 85 430 121 98 76 
295 880 412 152 111 75 
243 618 316 111 101 92 
245 681 645 150 160 177 
258 920 508 141 103 89 
274 674 294 140 93 79 
192 521 418 112 124 142 
325 53 432 123 113 107 
203 639 555 83 76 72 
279 669 298 122 86 81 
183 326 446 77 98 119 
272 151 517 103 104 110 
159 487 467 81 105 136 
330 833 407 166 143 125 
336 527 476 110 127 151 
217 458 524 106 124 148 
262 670 355 121 134 151 
221 654 585 76 70 67 
298 458 377 135 118 101 
342 213 493 79 45 77 
317 553 509 86 126 157 
344 512 447 70 98 132 
207 245 490 43 44 64 
272 842 464 158 113 89 
344 347 466 147 96 120 
180 648 439 140 90 90 
363 679 504 92 145 186 
272 804 329 163 41 71 
193 254 458 36 32 35 
183 636 416 162 157 160 
212 184 498 101 55 65 
249 798 530 178 134 103 
279 816 324 177 58 77 
303 825 326 215 50 66 
294 265 507 105 130 155 
313 651 345 90 117 144 
202 725 382 124 145 168 
212 187 498 123 34 27 
237 670 627 67 72 82 
337 230 478 133 32 29 
260 663 293 177 123 102 
264 853 427 155 113 82 
269 162 342 105 54 0 
220 432 517 61 93 137 
204 308 513 133 138 149 
208 667 378 76 121 154 
216 361 519 95 113 139 
279 938 499 113 86 66 
262 230 365 133 56 86 
248 361 352 118 116 119 
233 358 362 108 113 123 
316 890 450 119 87 70 
260 637 334 126 115 108 
256 112 497 90 78 67 
184 532 507 106 121 146 
260 30 464 71 59 49 
204 347 397 118 54 75 
195 588 386 144 143 149 
306 955 475 98 81 64 
282 196 347 111 45 35 
280 711 262 165 115 96 
299 815 315 205 206 221 
339 301 466 98 142 177 
214 188 498 123 37 21 
229 795 470 198 147 119 
242 631 558 69 98 131 
269 308 359 70 81 99 
291 366 385 170 142 113 
353 506 448 90 120 158 
269 1012 438 116 94 71 
221 704 641 59 100 182 
337 805 398 66 57 65 
261 543 333 126 138 156 
320 236 479 99 91 100 
337 786 461 154 132 113 
280 74 409 118 98 76 
344 913 477 174 145 122 
327 656 368 63 111 156 
270 765 589 167 135 109 
325 419 495 93 119 156 
340 660 349 73 125 170 
262 281 514 106 71 86 
206 642 567 85 77 72 
293 138 463 83 73 64 
342 646 509 93 113 134 
311 523 491 106 125 159 
249 996 411 145 109 81 
330 716 246 140 152 182 
219 176 503 120 57 22 
229 451 522 85 112 146 
315 561 423 79 85 93 
263 23 471 102 90 82 
296 390 368 147 20 54 
188 663 417 34 63 86 
219 178 503 119 59 28 
286 359 404 88 104 121 
285 839 360 178 154 134 
334 751 308 130 151 179 
210 937 473 163 125 97 
278 637 300 85 78 73 
239 631 319 174 122 105 
306 680 324 125 131 149 
281 681 339 81 112 140 
231 726 543 96 85 80 
171 385 443 150 151 159 
290 111 505 95 87 81 
285 217 343 116 73 104 
175 601 430 122 123 134 
224 528 352 135 144 159 
297 420 366 199 168 136 
333 546 439 127 140 161 
201 302 499 69 91 111 
219 719 603 122 135 165 
224 347 516 109 101 123 
262 770 591 165 126 97 
269 184 373 110 60 74 
176 668 423 83 74 89 
260 732 617 157 169 188 
267 11 398 141 124 110 
180 690 423 170 93 33 
199 325 488 104 41 49 
334 671 472 165 164 172 
323 294 492 101 100 103 
269 255 369 104 127 154 
214 941 494 174 132 108 
285 336 398 102 119 138 
219 176 504 117 57 23 
232 658 569 56 75 94 
182 609 490 86 115 153 
243 311 514 170 122 71 
258 642 561 42 63 105 
188 316 507 111 131 153 
328 57 445 113 107 103 
290 955 414 103 79 51 
251 990 481 89 69 61 
296 304 374 143 149 161 
257 860 445 140 105 79 
210 284 395 136 141 154 
287 911 394 69 55 41 
219 178 508 106 64 37 
271 900 403 72 59 48 
257 897 418 107 84 57 
318 327 506 121 132 149 
171 401 495 163 75 10 
280 599 357 44 80 110 
173 571 433 162 165 175 
270 516 342 143 145 153 
219 178 510 105 69 34 
250 306 512 98 120 143 
232 258 380 119 112 111 
208 770 475 197 166 144 
265 631 553 88 109 130 
300 703 233 163 111 78 
260 196 512 28 42 72 
267 963 413 112 77 45 
359 694 517 175 187 206 
251 789 566 106 94 99 
247 956 506 198 153 130 
336 291 475 114 86 83 
320 835 477 198 145 112 
300 258 389 48 100 135 
240 737 619 151 132 144 
167 442 464 44 78 112 
172 378 443 109 121 141 
201 663 514 94 129 161 
271 147 517 106 91 96 
185 699 409 85 60 71 
273 823 339 148 124 106 
197 566 395 81 101 126 
245 333 360 133 129 131 
220 176 505 112 64 34 
275 655 593 39 62 114 
282 1010 425 129 101 76 
341 693 389 57 76 119 
200 481 520 161 156 159 
224 731 523 117 107 109 
244 788 527 177 128 99 
289 655 330 86 100 164 
292 859 473 174 122 96 
222 217 499 65 44 56 
332 683 467 124 53 83 
311 163 495 69 27 34 
189 652 418 92 84 104 
185 697 409 63 73 85 
321 205 492 76 41 43 
317 391 490 50 82 135 
175 410 462 133 108 113 
254 864 464 124 83 45 
350 644 408 150 139 161 
227 484 328 146 148 160 
314 53 423 155 130 114 
290 205 365 83 50 51 
321 277 460 132 55 10 
234 776 366 149 89 137 
211 769 406 173 159 150 
277 433 507 114 125 149 
224 898 453 132 102 72 
194 330 444 109 95 85 
220 180 506 112 60 25 
233 968 495 119 93 81 
207 650 385 35 23 24 
223 974 453 84 64 58 
347 409 455 63 97 156 
154 555 443 84 118 156 
315 230 478 115 103 100 
221 183 504 112 55 25 
265 766 592 167 145 126 
327 179 481 103 29 21 
306 39 415 97 87 77 
194 502 415 97 114 139 
196 592 514 124 140 168 
262 114 506 103 94 88 
224 537 351 114 118 130 
186 739 470 170 156 148 
341 159 500 93 49 50 
226 651 367 152 100 96 
335 745 309 58 97 168 
258 654 553 47 67 90 
294 69 450 83 68 50 
169 451 450 52 87 129 
288 726 593 85 91 142 
348 601 448 127 138 153 
229 891 493 176 125 111 
237 527 536 156 156 164 
291 416 387 149 117 74 
288 154 526 71 110 141 
248 533 527 58 80 133 
219 185 501 97 82 82 
331 640 503 127 136 150 
249 705 349 112 120 133 
249 374 349 83 99 117 
354 726 485 88 86 104 
284 881 416 131 104 80 
228 960 428 77 62 53 
281 200 350 126 58 44 
340 658 351 87 130 176 
169 478 436 88 109 147 
203 269 423 97 112 129 
271 427 359 140 66 4 
295 278 504 81 131 168 
292 419 387 137 58 2 
204 698 603 148 178 211 
170 423 444 66 99 137 
282 690 604 85 109 149 
287 1009 438 132 104 74 
258 529 327 123 137 164 
302 653 383 103 125 153 
262 277 514 70 115 149 
350 565 464 159 166 180 
275 448 356 121 103 85 
219 188 501 111 39 26 
253 826 456 180 122 104 
219 188 502 112 40 28 
266 575 522 117 130 155 
229 656 567 58 76 95 
327 827 450 169 137 102 
316 653 552 88 110 130 
321 831 358 83 43 99 
177 552 432 62 94 133 
219 191 502 114 37 28 
220 184 502 99 72 62 
223 272 391 105 103 109 
339 683 356 140 159 196 
188 368 438 90 79 67 
339 194 484 79 52 65 
334 821 404 162 140 122 
182 381 505 182 153 124 
209 467 384 98 111 143 
343 180 491 70 42 60 
291 259 352 213 93 33 
217 946 440 79 65 54 
257 282 374 130 125 125 
202 743 411 88 26 58 
279 707 268 155 106 89 
294 194 342 100 47 48 
246 447 522 97 116 140 
181 386 441 70 94 125 
328 277 512 153 153 160 
290 734 305 68 82 100 
277 58 499 113 95 79 
285 247 512 118 128 142 
338 752 429 161 168 177 
229 686 645 134 150 173 
281 640 291 108 98 90 
258 162 359 120 64 0 
196 220 490 75 43 63 
293 381 380 151 33 68 
234 869 486 146 112 88 
210 406 519 59 92 137 
218 185 509 120 61 29 
275 957 498 99 75 62 
212 955 462 131 103 84 
265 638 340 42 47 54 
271 982 484 110 92 75 
330 657 345 84 118 151 
212 953 476 186 140 119 
311 661 284 45 84 118 
188 674 414 107 115 126 
295 303 374 133 141 154 
293 378 494 87 105 143 
337 733 374 154 160 175 
315 167 381 147 118 100 
343 174 496 136 41 20 
335 682 302 58 69 115 
235 665 613 61 70 81 
241 534 327 141 154 180 
192 660 589 113 91 70 
290 93 415 105 90 75 
217 189 510 112 62 42 
316 332 444 87 116 142 
287 841 379 169 145 125 
345 670 370 156 160 171 
267 213 523 98 64 74 
335 662 340 75 106 134 
304 182 488 89 41 36 
311 762 271 167 173 235 
313 669 311 107 126 150 
336 618 503 123 147 176 
336 800 381 162 18 39 
341 464 440 83 106 147 
215 697 638 96 113 176 
250 639 334 140 119 102 
230 385 358 81 104 126 
280 415 504 92 111 145 
317 896 470 124 98 78 
303 955 482 101 81 70 
199 267 446 123 124 131 
189 654 418 70 120 155 
333 819 377 58 56 60 
354 662 515 107 113 141 
212 772 478 195 154 124 
339 588 479 100 137 168 
259 750 607 180 45 59 
171 417 449 82 107 137 
205 404 388 73 109 144 
340 387 503 104 126 151 
342 362 480 71 104 136 
258 354 501 133 140 152 
190 345 473 63 92 125 
220 187 504 98 66 53 
294 437 385 123 108 92 
221 186 504 100 57 44 
334 747 321 117 151 189 
203 647 580 97 83 71 
271 16 438 114 103 96 
220 187 507 110 60 36 
214 690 376 141 138 142 
333 755 300 122 139 178 
279 432 361 140 56 5 
309 299 502 151 150 155 
355 418 470 77 108 147 
292 145 459 87 77 67 
208 767 484 154 162 174 
275 59 442 92 81 71 
198 367 504 102 68 62 
251 713 346 59 87 128 
249 623 517 108 98 109 
297 82 460 88 69 45 
293 751 266 151 157 172 
164 595 443 149 166 197 
232 216 517 95 75 97 
320 636 398 93 116 144 
324 921 481 135 102 82 
240 668 637 57 77 107 
283 315 416 107 115 127 
308 633 517 51 75 98 
266 92 498 98 82 67 
177 658 518 74 87 119 
199 288 445 92 109 126 
318 216 472 96 41 38 
202 465 520 88 102 130 
202 309 437 124 116 120 
264 468 335 94 112 132 
229 753 535 135 115 98 
191 596 511 149 149 157 
257 622 343 72 69 68 
285 103 499 83 72 62 
199 272 443 132 128 129 
346 739 468 144 25 40 
331 769 319 139 146 174 
324 632 526 61 79 97 
176 318 451 71 97 120 
294 685 239 106 87 65 
312 181 508 94 57 50 
230 797 421 107 92 88 
226 702 570 66 82 142 
293 731 306 95 102 113 
286 677 248 112 90 64 
199 309 479 102 93 84 
227 633 538 71 86 101 
236 403 511 47 82 132 
281 835 371 206 166 121 
294 424 375 173 137 93 
322 713 563 165 98 114 
249 807 386 185 152 120 
291 754 273 162 159 171 
215 314 508 96 57 49 
305 390 425 109 100 93 
284 283 509 118 139 162 
293 472 493 87 109 137 
283 778 570 177 148 121 
258 996 468 73 54 40 
341 734 402 113 135 163 
314 246 465 30 62 100 
236 786 501 189 134 105 
264 656 584 95 108 125 
285 306 413 141 138 141 
271 375 343 154 79 22 
301 651 297 77 92 108 
232 723 566 169 147 126 
219 288 388 85 100 116 
300 785 543 155 145 141 
216 662 370 94 114 148 
305 506 515 91 116 143 
205 692 587 148 177 209 
263 658 275 134 100 68 
257 86 428 106 86 66 
324 528 415 140 148 161 
296 775 553 194 151 95 
196 318 396 105 126 151 
286 317 355 87 111 138 
345 667 408 85 141 184 
266 248 521 149 148 153 
274 787 326 101 121 143 
250 643 303 163 114 91 
200 623 383 84 73 61 
250 400 335 77 91 108 
164 543 439 102 117 144 
241 759 345 121 145 169 
313 352 438 132 133 140 
279 689 336 103 117 134 
330 444 429 59 88 115 
343 577 438 170 173 185 
217 687 500 170 101 99 
325 518 423 95 114 136 
260 201 514 44 66 87 
216 579 524 128 142 166 
335 286 462 113 122 135 
212 658 376 126 81 81 
302 81 457 109 80 48 
331 507 477 107 123 142 
310 651 550 92 111 129 
356 648 394 176 179 189 
330 554 437 78 113 145 
215 261 502 48 62 75 
328 382 505 128 149 173 
276 79 409 117 97 75 
270 631 317 72 67 64 
180 467 491 74 101 136 
246 521 532 113 115 139 
315 286 511 138 146 161 
218 169 519 100 92 86 
179 659 562 104 123 151 
212 727 364 101 115 131 
348 691 338 146 168 196 
309 425 416 114 104 96 
256 388 333 91 90 106 
353 606 456 131 150 173 
236 986 459 92 73 53 
205 693 382 122 127 137 
290 735 306 83 90 101 
335 659 496 66 90 125 
208 332 428 83 85 89 
208 248 395 121 120 124 
286 621 511 64 105 136 
257 716 343 45 67 113 
358 667 513 77 131 172 
265 69 461 91 71 49 
209 322 390 88 80 87 
209 225 384 92 76 67 
179 362 501 112 127 145 
330 728 536 134 30 62 
345 481 470 94 117 168 
342 736 399 131 155 183 
194 748 450 152 126 98 
220 518 356 148 151 162 
309 509 492 106 117 156 
220 247 391 141 110 112 
