ply
format ascii 1.0
comment Created by CloudCompare v2.11.1 (Anoia)
comment Created 2/28/22 9:37 PM
obj_info Generated by CloudCompare!
element vertex 2016
property float x
property float y
property float z
property uchar red
property uchar green
property uchar blue
end_header
285 586 525 155 158 168 
269 211 525 105 48 65 
199 459 520 144 148 159 
219 935 441 73 59 49 
193 722 436 131 110 97 
340 717 284 80 94 162 
234 957 423 102 70 54 
260 481 539 81 106 150 
212 664 527 128 168 206 
285 588 356 32 67 98 
271 349 342 116 124 136 
330 654 487 70 96 142 
357 597 444 156 161 174 
322 169 508 73 31 49 
342 719 394 155 167 184 
322 556 521 91 113 133 
240 811 459 182 132 109 
293 418 383 162 136 109 
198 695 386 154 171 194 
358 621 443 111 67 76 
275 550 519 117 127 160 
349 387 455 66 103 134 
249 981 427 60 44 32 
236 740 349 114 133 156 
304 847 391 175 173 179 
205 671 559 143 172 203 
277 15 437 105 95 88 
214 508 378 112 127 155 
346 658 477 150 153 164 
337 710 261 65 96 151 
329 799 345 165 177 194 
307 145 479 94 85 77 
232 562 530 119 128 155 
276 328 360 115 117 124 
309 575 415 76 80 86 
259 74 495 116 95 77 
333 759 291 132 135 188 
244 167 515 103 88 81 
304 608 412 73 79 92 
299 380 425 136 117 99 
271 849 459 155 111 84 
272 201 522 81 56 55 
224 526 351 131 143 161 
330 768 295 91 116 184 
155 555 448 71 99 146 
330 504 430 82 94 135 
336 816 403 163 150 145 
306 832 504 209 152 120 
292 754 566 155 136 124 
248 799 546 193 142 114 
206 303 434 70 67 85 
217 246 493 47 32 44 
333 745 327 73 106 154 
233 34 477 116 89 69 
253 700 350 108 119 135 
339 777 426 175 132 64 
175 625 504 103 91 81 
212 263 385 78 121 156 
221 933 504 177 138 116 
296 646 303 70 75 81 
340 769 455 168 157 152 
202 359 504 123 43 59 
332 662 494 63 90 134 
328 826 451 172 153 139 
261 486 324 96 118 154 
196 670 509 116 148 180 
194 500 415 102 116 141 
299 388 421 139 120 101 
295 427 395 114 63 17 
234 36 475 112 87 63 
217 518 372 113 129 153 
336 811 392 49 53 66 
282 604 363 73 91 108 
175 479 485 125 133 149 
302 521 367 67 94 136 
345 500 472 121 134 151 
226 637 539 56 72 88 
303 70 494 133 90 59 
173 653 486 154 100 91 
267 405 360 131 106 79 
204 228 442 73 43 44 
257 251 371 174 162 158 
270 105 464 73 58 42 
301 967 433 109 82 66 
324 240 499 102 107 115 
193 309 405 102 122 145 
222 677 369 97 111 134 
277 954 501 109 88 76 
355 489 470 133 151 176 
344 429 489 91 120 160 
285 395 369 138 27 50 
302 449 484 160 159 166 
299 763 556 150 136 127 
310 823 329 225 48 74 
264 373 364 115 96 92 
295 844 367 207 167 125 
222 517 527 86 101 146 
181 361 502 162 144 128 
299 358 487 96 115 142 
305 619 413 67 113 150 
188 736 478 56 55 59 
342 183 490 86 45 31 
234 40 466 111 87 64 
250 770 346 164 44 56 
343 468 445 133 141 156 
200 641 527 56 52 52 
235 41 466 112 88 64 
315 567 424 110 102 98 
299 862 474 180 127 93 
182 519 429 105 117 138 
208 420 366 99 117 146 
329 712 242 98 134 179 
265 8 428 93 82 75 
201 335 397 101 62 72 
176 358 449 154 150 152 
185 572 517 125 137 157 
308 489 393 132 136 145 
196 524 414 95 107 128 
326 641 397 47 81 110 
278 703 609 145 154 169 
242 998 446 189 162 138 
178 573 504 104 124 154 
219 243 404 83 63 75 
181 694 415 202 173 145 
297 703 596 131 154 178 
229 745 540 145 134 129 
233 971 433 98 77 62 
293 620 386 92 95 103 
234 42 470 110 87 62 
271 823 379 139 101 61 
183 424 472 59 57 67 
227 618 340 162 118 103 
174 381 441 116 123 141 
342 141 502 140 60 3 
225 944 504 185 143 122 
296 825 521 206 147 114 
265 923 408 53 43 33 
271 440 355 120 107 98 
285 185 388 90 70 76 
293 167 323 153 59 57 
226 730 355 106 124 144 
354 661 440 91 146 188 
186 349 428 116 86 55 
306 238 407 148 59 76 
183 373 472 112 111 115 
217 783 469 199 144 117 
354 666 463 155 162 176 
235 46 468 109 84 63 
278 612 364 70 79 88 
296 657 565 92 106 122 
212 209 517 140 110 83 
235 46 470 110 86 62 
327 253 512 103 129 154 
174 351 442 149 147 153 
264 420 324 88 112 148 
213 294 389 105 110 121 
317 452 421 60 85 111 
290 701 246 144 101 71 
307 927 421 107 81 60 
242 460 322 100 120 145 
168 433 458 53 75 104 
236 43 464 107 84 59 
335 363 446 136 138 145 
316 148 484 107 93 77 
292 421 389 134 60 2 
242 812 430 191 139 117 
239 572 527 114 128 157 
195 542 409 135 129 129 
188 606 506 160 157 162 
209 647 560 75 72 72 
237 45 465 105 83 58 
356 667 508 83 86 98 
236 45 466 110 87 64 
208 751 371 167 31 55 
217 707 502 133 43 47 
308 938 424 74 54 41 
339 393 448 56 84 121 
283 130 530 133 45 73 
183 555 433 27 79 153 
334 803 446 158 131 105 
335 287 463 107 121 137 
223 675 633 83 72 64 
282 619 519 74 102 129 
274 800 561 193 136 101 
296 470 510 129 133 143 
195 559 523 113 125 144 
271 626 512 87 75 86 
223 272 381 125 123 127 
199 579 385 123 133 149 
171 642 530 160 118 100 
267 728 611 181 33 57 
193 218 481 63 49 79 
304 442 409 97 63 73 
339 619 486 134 150 171 
246 752 607 207 173 134 
262 1012 444 124 96 67 
331 271 501 88 117 144 
291 274 408 127 48 81 
222 716 635 122 152 202 
334 162 510 93 40 44 
300 802 307 209 218 237 
298 340 437 100 110 123 
293 426 393 125 63 1 
202 681 628 125 138 172 
235 43 474 113 90 64 
258 8 420 119 103 93 
302 799 535 175 127 90 
289 132 435 100 81 59 
213 248 501 64 42 53 
273 403 517 133 141 158 
356 373 473 92 120 147 
225 957 434 78 62 52 
325 369 493 57 106 150 
223 680 536 123 160 195 
358 615 416 127 163 199 
336 813 419 131 119 111 
185 544 430 76 102 136 
320 525 405 135 137 145 
258 620 338 72 67 64 
334 168 508 134 36 27 
235 43 476 111 87 62 
336 784 446 119 108 102 
337 667 494 70 103 133 
265 245 368 162 148 144 
311 633 517 44 73 97 
268 397 342 135 85 55 
299 520 364 78 108 141 
195 633 531 79 73 70 
296 56 416 110 89 68 
245 652 617 107 122 140 
231 717 550 159 111 54 
205 360 375 168 123 65 
340 735 380 108 126 171 
251 789 568 64 105 136 
220 535 361 86 106 133 
235 46 472 112 88 61 
237 366 359 136 133 136 
339 627 527 166 165 173 
201 247 443 67 93 113 
235 46 474 112 89 63 
271 534 520 127 137 161 
218 497 353 103 121 165 
194 508 521 157 156 163 
336 655 538 152 151 157 
257 789 573 184 144 143 
264 542 340 82 107 136 
235 45 477 112 89 63 
325 793 323 148 162 195 
324 190 505 75 73 86 
204 375 517 123 136 156 
163 507 440 120 126 140 
341 305 479 133 12 55 
335 739 456 131 34 47 
310 797 525 183 155 130 
313 830 343 213 101 60 
269 465 345 95 107 122 
355 513 465 113 134 162 
210 474 371 140 142 153 
340 782 393 164 44 54 
296 223 460 104 37 51 
244 655 586 67 84 106 
194 758 474 207 188 176 
307 428 486 95 117 143 
213 499 371 165 163 169 
258 803 558 197 142 113 
241 658 563 79 87 100 
347 719 414 142 157 176 
214 541 373 107 120 139 
266 579 520 99 117 160 
301 214 349 154 53 46 
152 530 450 134 150 171 
257 143 357 196 82 53 
317 554 427 104 106 111 
261 213 521 102 26 49 
275 33 403 130 96 72 
318 760 529 170 151 136 
203 406 379 91 111 143 
236 51 467 105 84 60 
289 116 432 108 87 65 
358 475 473 122 150 185 
249 467 529 150 152 160 
262 627 340 61 58 56 
291 111 448 89 63 45 
277 679 290 149 98 81 
337 625 518 131 140 154 
288 103 452 88 71 53 
238 50 465 101 79 57 
207 490 399 138 142 154 
268 474 340 91 112 135 
357 386 478 100 126 155 
255 948 510 181 140 113 
267 646 281 102 89 76 
213 630 368 122 60 63 
340 300 481 137 40 67 
283 854 421 168 126 99 
191 264 450 77 77 80 
288 137 418 99 81 62 
346 673 400 184 180 186 
203 494 405 162 157 159 
219 596 363 93 108 127 
306 441 412 108 101 104 
191 675 608 132 149 185 
201 272 479 122 91 70 
246 809 483 194 139 115 
290 396 495 72 100 139 
334 780 482 194 158 119 
215 496 364 103 124 163 
271 49 497 79 63 48 
260 17 480 77 66 53 
231 966 497 132 101 89 
312 572 404 99 109 123 
205 481 526 123 130 144 
256 964 504 145 111 89 
249 819 427 189 132 110 
334 659 370 67 111 163 
279 345 353 184 161 140 
284 277 412 69 105 134 
284 1010 443 158 124 101 
289 644 388 70 90 114 
293 420 382 160 133 103 
296 296 447 95 104 115 
247 793 375 159 132 117 
308 907 421 75 60 48 
316 471 476 152 149 153 
291 259 375 85 80 90 
296 414 404 122 62 0 
301 762 556 118 108 100 
202 578 379 162 161 169 
171 523 475 66 95 143 
207 250 437 122 118 119 
322 532 490 103 134 166 
351 704 426 177 178 187 
205 388 521 80 109 141 
200 297 390 102 138 175 
311 390 487 55 88 137 
295 689 595 56 84 135 
286 1001 457 134 111 92 
264 56 499 122 102 82 
265 140 394 109 94 80 
340 153 494 114 81 50 
286 393 369 137 16 44 
307 340 443 103 117 134 
284 640 393 83 98 115 
184 666 520 60 96 134 
265 301 373 112 118 132 
189 499 426 160 162 175 
312 230 396 147 46 81 
306 941 493 102 83 70 
208 648 385 45 39 42 
307 331 444 78 108 135 
259 293 368 84 76 84 
202 663 538 143 164 190 
266 797 566 143 136 132 
308 969 454 125 97 70 
321 665 304 37 81 130 
269 784 333 176 131 144 
350 601 415 67 80 96 
324 655 358 69 110 149 
183 648 516 116 77 68 
322 703 568 151 167 188 
238 697 358 113 116 127 
282 10 419 64 57 51 
302 923 489 119 85 66 
242 753 604 159 123 94 
172 526 428 122 133 153 
225 265 385 48 80 105 
300 990 445 125 100 74 
289 588 365 67 74 84 
285 290 366 105 119 135 
304 218 509 129 136 150 
236 48 478 112 89 64 
232 724 562 132 113 110 
258 380 341 128 111 98 
289 809 545 188 126 94 
236 50 476 111 90 66 
230 536 343 89 105 124 
280 310 352 87 120 150 
216 267 413 108 49 19 
297 50 427 98 75 58 
192 430 422 104 117 137 
227 699 557 110 153 187 
310 696 309 111 122 142 
254 645 590 89 104 126 
288 643 355 61 69 79 
321 577 533 90 130 163 
275 994 464 104 77 58 
236 52 474 109 87 63 
262 63 497 123 100 77 
298 976 439 104 79 61 
296 685 290 67 94 128 
340 706 458 149 153 164 
240 675 641 104 129 156 
347 687 338 148 169 206 
176 400 461 125 105 84 
284 641 335 47 66 83 
303 615 527 134 136 144 
327 530 439 102 116 132 
315 256 467 113 80 86 
351 725 432 146 164 186 
293 230 425 63 85 107 
296 455 364 128 113 100 
306 256 392 66 118 155 
336 543 465 73 100 147 
183 499 507 142 145 155 
329 734 356 129 145 175 
218 781 473 197 144 116 
244 607 345 103 95 90 
264 629 343 72 65 59 
236 55 476 110 87 62 
282 83 455 79 59 41 
266 793 571 180 179 185 
240 521 331 136 147 168 
209 474 376 163 158 161 
282 14 402 142 128 120 
203 644 541 78 74 73 
260 923 409 55 46 39 
318 655 342 70 103 133 
269 681 348 62 79 115 
202 351 385 147 88 106 
257 661 567 74 88 104 
269 813 345 143 111 109 
291 413 387 148 123 95 
212 284 422 106 106 110 
225 628 522 68 78 91 
344 760 398 154 165 183 
333 575 434 128 139 155 
291 572 525 156 159 169 
173 665 451 99 82 82 
314 757 270 233 227 237 
209 664 528 142 174 207 
237 57 469 109 87 64 
339 372 449 139 141 149 
161 587 462 74 103 156 
300 543 363 68 97 123 
237 56 471 110 89 65 
249 817 474 175 121 100 
237 57 471 111 89 65 
214 683 569 118 157 193 
237 59 469 110 88 64 
301 657 279 95 86 78 
149 516 448 125 142 168 
301 886 427 155 117 89 
282 148 336 115 100 89 
203 280 442 96 104 115 
164 493 441 84 103 124 
286 929 497 105 83 65 
321 822 490 197 143 111 
156 488 461 103 120 144 
210 751 370 164 40 70 
182 514 508 159 158 165 
292 843 380 207 186 173 
282 614 523 140 137 142 
348 618 426 173 177 190 
287 215 442 115 53 56 
177 505 497 120 129 144 
294 87 492 110 81 66 
269 157 347 91 73 42 
319 545 430 91 101 114 
274 477 349 72 96 121 
231 531 537 133 139 156 
295 183 389 106 65 66 
295 449 363 124 98 68 
337 635 385 86 111 140 
180 409 430 57 92 119 
239 60 468 108 86 63 
223 680 531 145 166 193 
247 892 507 172 130 110 
219 953 495 199 149 125 
279 465 519 149 146 149 
228 969 493 98 79 67 
328 449 427 54 88 122 
202 370 511 142 146 156 
207 691 585 157 172 195 
307 254 395 42 105 143 
225 695 526 146 49 77 
295 669 301 80 100 129 
259 68 460 104 76 45 
306 867 419 156 115 84 
331 531 442 133 144 159 
169 490 470 112 127 152 
277 747 593 99 90 94 
312 278 460 138 62 0 
236 57 472 111 89 64 
190 627 395 147 102 99 
243 548 529 107 131 158 
219 358 519 134 137 146 
256 617 521 109 133 166 
167 615 454 66 103 147 
322 535 435 119 121 128 
297 136 505 30 61 95 
341 631 492 113 142 172 
344 705 479 128 142 160 
191 742 486 141 120 105 
236 58 474 112 90 65 
285 927 498 99 72 58 
359 594 421 161 172 189 
301 392 489 63 93 135 
249 622 564 66 95 119 
288 693 284 89 105 137 
275 9 428 71 61 51 
217 292 496 49 59 69 
262 639 344 54 61 70 
280 938 408 64 50 35 
279 66 408 110 91 72 
342 649 366 90 117 152 
167 591 437 109 129 158 
308 480 483 117 134 156 
237 57 478 112 89 64 
231 577 528 162 164 173 
350 711 420 169 170 179 
285 830 509 192 143 117 
297 584 531 145 153 166 
192 484 423 99 113 131 
337 631 388 75 107 142 
154 458 462 50 88 116 
237 414 335 69 92 113 
205 406 405 61 86 121 
216 370 520 89 107 142 
355 514 464 150 158 176 
331 502 427 141 147 158 
327 670 309 93 103 115 
254 523 531 93 111 140 
335 381 443 117 107 104 
355 609 439 126 135 149 
186 354 464 103 23 35 
327 535 440 83 104 127 
289 919 492 149 107 84 
270 816 353 131 124 133 
237 62 473 112 90 66 
238 656 580 67 84 104 
344 636 482 177 173 177 
261 835 442 156 98 83 
282 44 491 85 74 63 
278 625 511 59 91 121 
240 644 533 45 63 80 
337 630 529 164 164 173 
267 207 521 93 64 63 
294 420 364 188 159 129 
338 279 465 89 108 127 
237 60 477 111 88 63 
321 607 535 127 145 167 
304 646 548 71 97 121 
336 703 261 68 98 144 
255 755 603 163 115 98 
293 650 277 109 98 88 
247 568 341 126 137 151 
225 281 373 104 113 126 
216 452 346 104 118 147 
336 187 502 33 58 104 
347 732 503 188 75 47 
237 62 478 110 88 64 
211 444 521 109 124 150 
293 270 406 94 97 107 
274 378 340 130 124 133 
238 62 478 110 89 65 
258 884 508 169 131 104 
335 779 479 159 138 121 
346 211 488 83 41 56 
337 731 282 142 150 174 
349 668 346 69 95 117 
273 503 522 90 110 139 
234 981 483 99 82 70 
283 122 416 90 77 65 
243 768 352 44 37 130 
290 355 423 121 115 112 
289 602 372 30 40 51 
337 723 328 42 76 154 
275 1004 462 157 127 103 
288 148 524 136 111 93 
241 35 459 116 85 55 
194 406 502 77 113 143 
242 32 457 123 88 63 
273 107 463 76 60 44 
306 327 445 73 104 132 
320 363 442 127 134 144 
278 107 410 121 97 69 
303 170 522 105 92 110 
268 243 524 88 119 149 
261 72 436 102 76 63 
298 303 387 166 167 175 
304 621 411 60 100 138 
166 507 468 145 153 166 
220 723 519 83 100 121 
316 609 534 157 158 167 
336 660 368 75 113 167 
167 418 466 96 86 76 
266 257 370 105 119 139 
266 772 587 86 81 79 
221 656 374 54 60 69 
187 648 423 121 55 78 
314 548 396 77 93 120 
330 681 476 154 153 159 
279 215 379 104 61 61 
334 709 305 96 124 172 
296 97 455 93 63 52 
205 383 373 86 110 135 
286 195 342 126 55 57 
261 645 289 117 93 66 
204 548 393 111 117 126 
226 326 523 144 43 86 
332 557 505 87 127 158 
337 709 321 36 81 138 
312 698 234 151 108 77 
268 154 369 99 92 85 
319 626 410 128 140 157 
183 489 424 55 82 135 
304 134 484 97 74 55 
271 334 351 137 136 139 
343 258 483 148 149 157 
244 33 456 122 88 62 
290 203 388 90 70 68 
330 767 335 153 165 182 
327 609 517 111 140 174 
184 339 489 95 94 96 
185 372 421 134 138 148 
153 458 465 86 112 139 
233 797 411 182 166 156 
361 581 427 120 147 174 
296 359 381 195 165 136 
288 572 356 112 119 131 
325 681 565 66 65 72 
247 33 456 122 88 60 
293 244 368 105 39 58 
235 943 511 179 135 113 
262 25 492 104 88 72 
260 455 535 143 149 162 
289 743 324 93 106 123 
204 647 538 71 70 73 
292 45 432 98 75 60 
185 371 422 140 143 153 
313 593 539 96 142 179 
278 206 377 89 68 68 
177 311 454 92 72 83 
314 681 299 75 96 131 
245 937 407 79 64 53 
213 401 521 68 96 140 
322 736 539 78 49 102 
278 985 409 93 69 47 
190 607 507 151 148 152 
187 719 456 68 80 92 
201 345 393 128 53 78 
320 222 485 98 49 65 
351 644 409 178 167 170 
339 678 326 78 105 134 
307 715 582 175 48 62 
291 97 477 87 68 47 
342 707 390 132 154 181 
298 794 300 172 175 225 
242 877 451 116 87 45 
304 681 328 102 111 139 
198 594 384 115 144 175 
308 577 409 69 82 95 
273 70 408 105 88 71 
211 604 372 62 64 67 
274 598 353 50 67 90 
182 348 504 96 122 150 
344 681 411 173 171 176 
247 257 370 159 153 154 
297 649 397 80 106 147 
228 188 523 135 77 45 
235 662 361 121 131 165 
231 230 512 127 35 67 
305 260 462 91 70 76 
298 724 304 84 91 114 
166 531 470 132 144 162 
345 692 333 164 180 210 
271 520 521 126 139 158 
231 685 366 143 143 150 
325 815 480 175 128 94 
310 456 415 52 88 118 
303 394 489 57 88 136 
327 653 491 70 95 137 
264 421 324 94 117 150 
271 676 270 151 106 77 
285 91 456 85 61 48 
264 951 410 82 62 48 
307 91 450 138 92 82 
160 590 444 82 111 177 
302 36 433 98 82 66 
270 489 345 87 107 129 
231 196 521 115 51 61 
283 844 408 195 143 119 
241 47 462 107 82 53 
195 272 504 98 34 51 
317 466 418 112 116 124 
278 343 354 158 151 150 
239 723 629 188 198 217 
267 150 347 114 80 60 
183 700 416 150 126 116 
289 313 356 103 106 125 
357 379 475 72 105 142 
224 700 522 53 48 120 
280 731 598 177 33 48 
287 40 404 112 92 72 
204 424 412 50 77 104 
220 784 436 123 130 141 
178 654 526 42 57 90 
307 183 428 150 79 1 
294 287 363 160 160 166 
183 623 501 45 46 48 
194 640 567 97 85 73 
314 906 472 115 89 72 
181 729 468 113 89 87 
246 41 458 113 83 55 
305 712 314 60 66 95 
153 531 451 146 155 169 
301 658 563 105 110 120 
317 814 328 137 154 187 
323 818 486 188 135 103 
247 42 459 113 84 56 
350 616 459 174 171 176 
281 304 420 137 133 135 
214 569 370 171 160 158 
248 763 345 165 74 69 
274 284 370 112 112 114 
180 295 446 78 90 103 
203 385 400 73 97 133 
292 109 519 108 97 88 
194 720 399 92 118 143 
260 927 407 52 43 38 
248 797 516 195 143 110 
310 941 475 81 64 55 
318 829 349 199 13 63 
204 673 622 83 71 61 
304 413 488 115 130 153 
348 451 485 162 173 190 
318 579 534 99 140 174 
316 276 508 87 71 81 
245 47 461 108 80 48 
246 44 460 111 81 53 
253 625 550 86 107 127 
242 989 477 87 69 54 
349 470 457 113 130 153 
299 725 309 109 117 130 
315 553 399 87 105 124 
273 349 355 141 120 96 
199 233 449 77 40 35 
341 543 440 97 128 158 
170 562 432 55 84 137 
301 183 470 81 39 29 
357 380 469 61 102 143 
192 668 510 139 165 192 
293 799 546 176 123 85 
276 631 309 83 77 73 
249 32 456 118 82 58 
221 898 487 177 134 111 
235 364 510 75 93 139 
299 407 411 118 54 4 
287 108 524 118 102 88 
319 190 399 97 109 125 
298 271 500 75 121 157 
210 774 470 198 150 119 
208 686 383 75 84 95 
276 206 526 101 43 69 
238 586 525 115 137 164 
263 57 498 123 103 84 
205 670 557 119 156 191 
285 830 335 213 175 134 
251 35 456 109 75 52 
207 482 394 159 157 163 
183 437 427 85 95 114 
285 225 441 117 60 77 
174 563 482 137 142 154 
270 893 427 93 72 46 
340 152 510 132 106 105 
300 355 434 111 114 121 
237 760 353 168 23 67 
271 455 526 150 153 163 
204 503 405 158 154 156 
149 498 456 85 110 162 
251 36 456 108 76 53 
358 586 422 145 158 175 
211 650 548 77 78 84 
185 684 466 183 159 135 
329 743 347 93 129 168 
237 725 350 132 144 161 
225 531 347 150 151 162 
187 344 485 96 89 86 
179 330 455 71 109 140 
243 791 376 134 116 104 
355 572 453 125 143 168 
307 71 486 127 85 55 
214 245 394 109 64 77 
177 555 499 107 120 150 
253 34 456 102 77 52 
354 687 526 111 147 184 
288 356 417 75 87 102 
174 406 434 94 115 138 
255 32 456 88 66 52 
241 751 605 138 73 87 
255 645 301 161 112 89 
235 522 337 153 156 166 
321 666 308 77 103 130 
347 439 488 113 144 175 
254 35 457 96 73 51 
294 674 337 149 153 161 
236 625 549 65 95 126 
286 632 507 42 76 100 
212 329 497 97 78 71 
269 301 371 106 114 126 
244 588 346 47 50 56 
253 860 496 140 96 68 
209 599 377 83 102 121 
210 308 428 62 79 94 
287 656 340 71 87 148 
343 708 393 74 130 171 
230 980 476 98 83 71 
352 593 454 139 155 175 
334 774 488 197 165 132 
279 306 359 84 108 129 
189 263 471 139 7 70 
300 449 393 108 31 56 
296 642 540 48 64 79 
255 37 458 90 69 48 
276 109 517 111 100 92 
184 593 407 62 89 115 
222 971 454 98 81 65 
233 585 346 89 106 128 
203 413 520 72 105 142 
255 38 458 96 73 48 
256 704 630 110 135 161 
182 314 442 84 106 127 
279 988 475 86 66 54 
187 664 517 80 118 150 
163 565 467 143 153 170 
340 785 400 189 28 54 
332 407 489 158 165 178 
230 221 515 110 38 65 
221 522 361 159 156 163 
166 501 433 76 100 129 
238 767 556 108 77 70 
249 43 459 115 85 57 
219 724 610 173 67 87 
300 119 503 102 81 72 
333 629 500 155 166 185 
317 265 465 156 134 110 
187 661 419 39 63 82 
333 397 438 117 93 105 
347 374 499 59 98 145 
186 314 440 75 87 104 
298 703 239 166 114 84 
305 840 353 139 133 133 
305 974 449 120 89 62 
324 525 506 103 117 149 
295 707 286 120 132 153 
288 736 286 165 160 161 
251 195 506 42 40 57 
249 44 459 114 85 56 
330 774 305 119 144 197 
317 548 424 101 110 123 
236 986 472 118 96 75 
265 957 505 126 91 74 
192 340 403 178 134 71 
238 627 516 72 78 88 
161 531 451 76 94 143 
358 453 483 128 148 182 
297 690 594 39 52 88 
251 44 457 110 77 55 
352 720 503 64 54 128 
242 874 453 119 87 44 
310 651 345 66 98 126 
359 591 428 173 179 194 
250 47 457 114 83 62 
282 145 452 87 76 67 
270 132 520 111 86 87 
291 534 522 128 143 164 
250 47 458 115 84 63 
276 449 512 65 90 143 
252 41 457 106 74 51 
321 824 348 195 147 93 
165 470 464 48 81 137 
261 732 615 95 90 131 
240 759 592 126 92 81 
252 43 457 107 73 51 
295 250 368 122 47 69 
284 500 520 96 118 155 
292 833 504 199 150 120 
234 434 520 94 117 147 
255 40 457 102 75 48 
299 717 302 119 121 129 
190 274 471 131 83 52 
270 670 352 90 99 137 
164 433 462 47 72 93 
267 420 339 114 101 88 
209 265 381 154 141 139 
253 806 383 181 154 128 
239 447 325 100 115 134 
223 728 357 108 126 145 
334 264 482 112 105 111 
186 581 412 144 145 154 
202 707 380 151 168 191 
331 797 471 165 152 144 
290 149 457 93 82 73 
302 563 527 155 160 171 
336 532 466 97 122 150 
231 800 465 191 140 113 
284 836 354 132 120 114 
298 673 251 98 87 77 
265 306 379 112 115 124 
255 46 457 109 76 50 
297 868 480 166 117 85 
334 763 443 99 36 70 
266 696 620 116 127 156 
313 170 389 153 92 57 
229 626 527 77 90 104 
231 660 607 62 73 89 
360 439 483 7 77 142 
338 723 273 193 190 196 
241 654 525 24 41 65 
332 322 454 99 118 136 
269 628 306 109 100 92 
269 371 368 105 74 69 
268 637 529 61 77 94 
190 520 421 95 114 138 
169 392 490 176 149 120 
213 539 382 65 83 109 
310 927 459 75 60 48 
274 392 517 93 114 146 
244 629 312 177 127 105 
210 475 375 158 154 158 
266 285 513 103 65 86 
300 597 393 58 67 76 
291 392 387 159 133 104 
324 190 482 43 43 46 
303 125 508 109 54 10 
291 120 444 116 88 67 
188 392 419 65 104 156 
345 657 479 161 167 179 
246 943 408 95 74 60 
332 635 393 82 104 138 
272 153 378 104 94 89 
281 295 416 88 53 53 
204 379 404 74 89 116 
229 592 347 67 73 87 
193 727 479 106 102 103 
296 709 243 152 105 75 
212 510 391 133 140 160 
270 821 504 179 131 103 
350 646 429 84 121 150 
204 532 401 120 121 126 
283 288 412 69 108 138 
237 265 522 112 121 134 
258 796 360 146 129 114 
249 687 640 104 136 165 
230 737 579 103 95 106 
257 771 590 49 32 50 
245 49 461 108 81 52 
326 413 432 69 92 116 
296 959 494 106 90 73 
220 416 350 54 84 118 
204 327 497 77 73 73 
246 988 485 121 101 80 
246 48 460 109 80 53 
332 826 428 153 140 132 
239 985 457 85 65 54 
273 377 514 80 110 140 
305 660 565 99 108 121 
246 50 460 108 81 53 
267 28 479 80 70 61 
233 357 512 129 134 148 
194 196 478 93 44 37 
288 892 481 154 109 80 
266 504 335 134 139 151 
235 624 538 66 90 115 
187 693 445 170 146 138 
301 308 447 121 119 122 
285 257 424 127 68 71 
208 768 482 179 161 147 
350 485 476 86 115 165 
353 723 491 141 140 154 
354 428 491 73 107 169 
283 156 319 200 73 19 
314 425 484 81 106 144 
265 258 520 149 144 146 
309 955 474 80 64 50 
208 244 416 108 27 72 
222 627 352 153 110 92 
309 657 323 77 105 132 
305 45 438 90 79 69 
193 754 480 187 141 97 
336 742 287 186 179 179 
191 280 509 72 108 135 
282 323 378 96 105 117 
205 765 484 108 95 92 
258 975 408 92 73 52 
320 525 514 156 156 164 
344 669 372 109 128 157 
267 426 336 117 108 105 
271 846 423 181 135 109 
273 145 342 117 79 66 
290 500 518 105 123 146 
241 58 463 105 81 53 
321 660 322 63 97 124 
295 68 498 126 93 68 
193 711 428 123 95 74 
325 667 313 72 98 122 
289 420 496 107 123 144 
304 500 515 140 147 162 
243 57 463 106 80 50 
324 523 497 100 126 160 
264 624 312 101 92 86 
216 392 358 90 111 132 
272 659 352 107 124 163 
230 489 328 122 135 169 
243 59 462 108 83 54 
232 338 365 77 94 112 
237 907 418 81 64 48 
201 747 402 163 56 53 
242 768 582 169 153 142 
237 441 327 79 100 123 
289 77 494 126 103 81 
336 716 299 144 146 170 
205 518 404 67 93 118 
176 491 491 109 120 143 
333 441 483 89 112 165 
188 430 495 108 121 144 
168 451 469 116 111 112 
341 238 488 97 61 77 
356 400 493 71 100 152 
240 669 638 79 105 139 
228 770 369 161 106 65 
334 692 317 71 127 166 
332 825 427 140 127 117 
283 591 356 53 85 112 
275 641 286 105 94 84 
245 58 461 108 82 50 
163 518 465 75 99 145 
271 34 490 98 84 70 
267 36 408 109 85 60 
343 578 429 137 154 176 
232 734 559 142 146 155 
233 283 371 77 112 143 
165 406 486 166 73 0 
231 730 551 100 120 149 
224 505 348 110 121 149 
281 300 421 125 126 132 
207 578 377 161 149 157 
345 467 455 133 140 154 
337 742 298 120 137 174 
299 74 426 117 97 80 
212 547 377 98 115 135 
292 967 422 118 91 67 
295 648 339 59 81 102 
205 724 492 167 146 127 
306 65 477 96 84 73 
353 373 484 72 106 146 
249 982 421 84 60 43 
268 354 370 102 33 44 
220 314 521 123 82 88 
290 713 251 177 121 94 
255 606 521 109 136 164 
338 790 422 64 60 61 
300 649 311 54 83 108 
339 659 367 75 117 171 
245 63 462 108 82 52 
335 605 477 89 137 175 
286 355 400 113 27 54 
230 655 569 68 82 99 
219 716 363 118 131 146 
244 808 401 195 172 153 
303 60 480 124 113 104 
192 337 479 69 101 127 
256 234 526 144 141 144 
274 369 346 175 145 111 
220 265 393 65 105 136 
317 720 564 178 37 60 
361 558 439 108 137 175 
246 63 462 109 83 51 
336 692 354 183 199 218 
295 981 444 117 81 56 
207 242 485 40 34 40 
268 427 528 165 166 175 
180 451 483 87 104 138 
312 896 448 91 65 55 
228 654 579 67 82 99 
292 509 352 177 171 173 
204 752 387 169 23 39 
272 642 284 103 92 82 
257 92 432 98 79 59 
324 326 507 171 124 65 
274 316 501 113 128 148 
251 48 457 114 81 59 
306 692 299 86 104 130 
329 507 441 115 124 138 
259 222 362 133 62 47 
257 514 531 145 145 152 
248 626 572 108 125 145 
188 297 508 151 151 158 
223 693 518 125 79 96 
297 927 410 64 53 43 
192 398 420 57 96 144 
356 594 429 158 166 180 
279 425 364 142 102 48 
284 956 415 138 110 81 
350 707 523 162 176 195 
243 405 337 76 92 111 
307 248 400 118 99 107 
248 55 459 110 82 52 
255 858 433 142 107 76 
254 403 331 100 110 123 
216 704 500 138 50 55 
177 662 468 96 82 82 
293 733 264 128 131 169 
329 424 485 91 123 162 
251 53 457 116 84 52 
255 815 392 178 150 130 
283 137 446 67 53 37 
287 711 601 150 164 184 
293 671 299 57 70 101 
286 46 486 76 67 59 
298 713 327 103 109 137 
211 690 380 62 97 124 
218 393 357 88 109 131 
253 48 457 113 79 53 
342 456 430 108 129 153 
211 931 466 142 110 80 
212 716 611 153 182 213 
215 650 375 148 103 89 
196 664 526 130 152 178 
262 221 525 128 125 126 
156 445 472 77 101 138 
203 295 511 79 121 153 
182 375 499 126 33 54 
351 344 475 123 142 163 
206 489 527 102 119 145 
332 275 485 148 146 150 
342 720 382 115 137 172 
284 952 414 128 99 67 
284 240 383 68 60 79 
308 477 481 108 120 153 
228 699 550 149 110 114 
345 691 403 178 178 186 
236 769 363 208 105 108 
231 251 499 40 49 58 
206 664 383 91 119 144 
311 848 479 203 149 115 
308 584 414 89 86 85 
302 946 493 92 74 61 
200 258 394 133 135 142 
289 161 333 151 56 2 
246 582 345 67 79 93 
346 745 474 164 66 59 
255 53 457 114 83 56 
271 666 266 132 97 64 
269 665 607 85 117 148 
293 381 492 65 90 130 
339 744 461 141 96 87 
254 55 458 112 83 55 
297 689 240 124 94 64 
350 408 495 168 170 180 
226 402 351 90 102 115 
193 298 396 152 154 161 
329 812 461 131 137 147 
282 544 349 90 115 145 
307 542 375 82 107 138 
257 870 431 142 109 78 
261 580 342 77 86 97 
177 605 418 82 107 141 
320 864 461 186 137 107 
227 910 505 193 143 126 
193 459 424 96 117 145 
348 734 415 180 175 179 
336 780 445 143 126 114 
316 155 483 127 61 1 
303 975 447 121 92 71 
337 501 471 76 105 136 
238 644 358 178 116 109 
278 830 363 186 160 136 
337 768 451 68 61 99 
213 957 472 157 119 98 
263 1007 430 112 83 62 
289 73 497 127 101 82 
248 61 459 115 87 49 
304 729 247 75 115 208 
345 705 413 155 157 167 
192 330 486 66 95 118 
207 606 373 96 80 62 
270 653 327 79 128 165 
185 508 512 135 139 149 
208 257 428 129 127 131 
225 920 502 143 115 91 
309 934 424 99 76 61 
182 561 430 68 91 126 
206 329 379 146 113 70 
250 62 458 113 86 47 
172 596 435 100 121 145 
324 556 436 133 146 163 
336 707 319 74 119 154 
251 63 458 111 83 47 
184 325 459 89 92 116 
348 678 351 123 140 199 
267 446 329 88 109 130 
274 12 399 147 130 116 
301 592 392 82 89 99 
252 56 458 110 81 53 
321 786 301 143 154 206 
277 739 597 183 86 55 
348 353 493 131 139 150 
195 730 402 113 51 70 
357 615 442 153 153 159 
284 208 522 111 70 91 
186 631 543 93 83 74 
254 56 458 110 82 52 
289 292 498 69 117 153 
318 291 459 128 115 103 
312 454 417 80 101 125 
215 449 349 87 112 142 
213 201 517 130 64 71 
181 697 451 158 62 25 
317 759 531 157 140 127 
303 153 500 42 60 84 
289 644 354 63 71 81 
203 417 387 111 130 152 
190 529 520 115 129 148 
302 660 567 112 119 130 
305 462 481 146 148 157 
178 384 470 77 93 110 
217 604 366 48 58 67 
271 131 406 103 87 70 
215 774 401 114 102 94 
311 224 470 81 34 33 
262 827 401 180 174 176 
201 279 405 102 87 90 
358 692 513 137 135 153 
254 62 459 108 78 42 
223 438 521 80 107 146 
247 488 322 173 175 187 
277 867 474 124 86 57 
297 208 512 125 23 65 
286 358 407 92 55 45 
213 201 495 81 29 39 
308 672 258 109 97 87 
241 53 464 102 78 51 
222 308 519 119 24 45 
240 55 464 101 77 51 
154 504 446 92 114 140 
259 53 431 103 83 63 
309 681 582 144 149 163 
350 550 438 137 153 174 
214 781 455 196 142 118 
255 818 486 182 131 109 
302 926 413 56 43 38 
310 141 504 62 51 64 
265 26 399 166 148 147 
175 577 485 121 135 161 
181 639 431 158 155 160 
295 449 378 127 109 91 
258 641 570 98 103 116 
287 929 497 103 81 63 
260 654 586 68 87 112 
258 991 405 126 88 58 
271 10 408 137 120 105 
349 615 426 153 160 175 
226 565 530 158 159 169 
265 985 407 132 102 71 
311 473 411 104 113 127 
287 47 433 101 84 66 
278 310 364 88 96 112 
271 335 360 89 100 114 
280 165 332 145 31 36 
267 638 559 99 117 138 
197 660 599 111 89 66 
241 63 464 103 79 51 
286 256 445 90 62 67 
302 612 410 72 95 119 
309 296 455 102 97 98 
204 385 374 67 98 127 
288 663 582 145 146 152 
152 537 442 84 111 140 
194 271 509 118 15 52 
298 60 428 106 84 61 
226 791 434 167 125 97 
209 293 397 113 125 143 
180 309 443 90 108 126 
213 431 355 143 144 152 
285 217 435 109 70 80 
343 715 528 181 31 54 
233 33 482 123 92 72 
262 215 522 87 75 83 
293 283 400 108 44 74 
318 547 419 91 106 125 
254 758 602 88 109 131 
233 34 482 121 92 70 
177 554 500 127 136 152 
319 597 426 68 108 142 
184 335 504 102 128 154 
295 862 415 157 125 94 
327 764 284 215 213 221 
305 939 422 103 77 57 
248 1004 449 136 109 81 
192 712 430 155 121 84 
286 732 592 200 171 138 
222 629 523 60 73 87 
184 270 464 108 118 132 
274 145 333 167 85 45 
316 907 449 75 59 46 
207 225 435 57 89 114 
233 33 487 126 95 73 
217 267 415 86 65 42 
331 779 329 126 132 172 
281 557 520 103 124 163 
206 680 389 81 81 85 
262 802 359 63 101 135 
314 348 444 147 146 151 
214 676 632 105 86 67 
178 666 527 73 106 194 
177 707 458 115 98 81 
295 134 473 81 68 53 
175 665 526 137 154 202 
274 165 513 120 60 63 
338 617 484 180 177 182 
328 179 485 101 33 26 
295 923 490 106 75 54 
295 714 595 157 15 50 
261 557 336 138 143 155 
312 242 468 22 68 104 
215 710 498 144 65 74 
289 625 512 65 96 122 
323 708 237 187 131 102 
335 746 291 95 117 164 
286 163 335 145 57 3 
321 809 332 191 57 78 
189 703 405 65 100 128 
306 587 536 87 135 171 
293 348 429 116 117 122 
215 569 369 166 156 153 
296 265 501 117 89 99 
305 977 456 111 81 59 
356 378 478 57 99 143 
239 376 356 101 106 117 
291 574 359 91 98 110 
313 507 487 102 121 154 
307 634 407 50 101 137 
295 232 459 48 35 51 
339 577 431 137 149 168 
252 742 343 118 138 162 
353 411 450 127 139 157 
273 435 515 119 130 153 
208 257 399 85 100 117 
188 346 426 108 78 56 
317 653 350 66 101 131 
303 662 269 108 96 85 
305 178 474 109 30 24 
286 532 351 155 155 163 
150 521 450 121 138 169 
209 261 515 135 119 124 
227 740 535 121 124 141 
262 196 512 47 67 88 
217 251 408 122 104 84 
278 783 572 190 146 96 
212 697 491 82 81 155 
280 311 498 155 148 149 
302 886 428 159 121 88 
268 865 474 125 91 65 
261 663 573 69 85 105 
293 695 242 150 106 77 
182 496 424 141 145 158 
262 637 338 109 103 99 
197 485 520 161 156 158 
184 381 424 75 97 128 
334 550 440 87 119 150 
173 486 481 75 98 140 
291 747 573 179 158 141 
269 409 330 149 133 125 
271 146 340 134 75 39 
221 675 525 127 166 203 
219 787 451 193 142 114 
220 698 505 59 52 112 
235 35 491 122 95 75 
207 578 524 181 176 180 
272 827 521 186 136 109 
231 201 520 108 76 71 
345 181 501 77 39 69 
228 910 444 101 80 57 
318 335 448 108 128 149 
265 312 369 109 118 132 
321 241 472 37 59 106 
291 414 393 140 106 78 
226 745 531 48 41 43 
310 771 537 139 117 98 
351 535 442 97 129 159 
277 142 453 71 59 49 
210 653 542 75 83 94 
317 883 448 132 94 71 
268 55 439 90 74 60 
235 37 488 119 95 71 
176 671 437 178 106 58 
291 998 455 133 102 75 
292 899 415 95 70 55 
332 499 426 81 108 143 
277 952 502 96 74 62 
196 265 389 145 144 150 
312 894 446 101 71 57 
295 77 421 121 100 82 
236 35 492 119 90 72 
322 607 536 129 149 174 
236 34 494 119 87 71 
316 379 488 100 127 158 
272 392 518 80 104 140 
334 179 505 86 41 57 
337 140 497 137 89 18 
315 340 446 96 69 65 
279 914 403 57 46 34 
274 21 394 169 146 132 
219 245 400 99 43 63 
236 38 489 119 95 71 
336 784 447 115 107 104 
286 541 521 139 148 164 
334 768 319 153 164 180 
172 550 430 107 137 169 
274 290 509 93 70 91 
321 496 414 83 103 129 
330 430 484 146 160 179 
358 613 418 118 161 200 
237 39 491 120 95 71 
183 491 423 69 95 139 
217 398 355 82 99 118 
189 340 408 174 132 78 
257 60 414 98 80 61 
259 142 358 186 83 53 
289 281 365 117 129 144 
209 198 441 122 27 59 
153 553 441 110 136 164 
310 167 428 126 113 102 
282 461 514 130 137 149 
237 38 493 123 96 73 
267 171 354 108 68 59 
292 625 388 66 69 76 
238 37 494 131 104 83 
199 449 520 149 152 162 
253 809 523 181 137 105 
217 600 367 63 89 112 
241 702 640 108 124 183 
218 910 457 151 114 87 
343 632 479 167 168 176 
279 195 525 123 71 68 
271 169 512 120 60 65 
239 38 495 134 109 88 
174 371 441 115 133 155 
258 630 523 53 72 93 
196 397 419 58 102 139 
342 441 435 83 106 129 
313 524 389 151 151 157 
281 303 377 81 71 58 
193 664 513 83 118 149 
209 751 370 158 37 65 
331 627 513 99 122 146 
339 687 354 116 137 199 
293 147 431 93 77 59 
288 320 382 93 99 106 
282 298 430 126 126 131 
322 321 507 166 118 58 
246 476 321 92 112 144 
235 42 483 112 90 66 
231 494 329 70 118 158 
288 591 364 38 44 61 
282 837 489 173 125 100 
222 651 519 16 36 60 
235 41 485 111 89 65 
235 40 486 114 91 67 
279 888 499 171 128 95 
273 367 510 63 99 133 
253 637 599 108 126 148 
189 703 466 132 71 43 
343 754 484 217 186 157 
309 606 415 74 108 136 
322 644 398 31 81 150 
270 624 362 66 77 90 
289 830 512 204 155 125 
267 192 352 70 60 121 
236 40 486 113 90 67 
282 287 366 106 122 140 
330 466 475 133 140 153 
314 503 404 107 117 130 
257 12 402 150 127 109 
308 214 510 147 144 148 
236 43 484 110 89 66 
299 344 436 102 111 122 
236 42 486 111 89 66 
246 790 372 142 121 112 
268 427 333 111 96 114 
352 502 452 84 111 143 
259 239 527 111 125 143 
337 188 503 37 62 108 
261 399 348 134 68 3 
260 385 337 116 101 87 
251 491 323 163 163 175 
246 608 520 117 142 170 
247 888 435 142 111 82 
275 850 468 143 103 77 
322 629 408 116 132 152 
282 664 345 61 67 127 
177 671 496 101 122 159 
199 608 386 175 118 112 
170 445 470 83 77 72 
237 314 370 128 127 128 
214 206 494 80 42 58 
205 288 410 71 92 111 
167 588 437 81 104 142 
181 673 588 71 98 163 
338 705 367 138 150 169 
292 603 379 69 76 83 
235 283 525 96 121 146 
189 724 474 128 55 18 
237 44 487 109 87 64 
186 490 510 81 103 137 
260 652 565 43 62 87 
279 160 331 148 97 88 
213 328 498 99 97 99 
188 284 467 120 100 71 
296 843 357 187 162 141 
290 161 447 104 94 86 
299 665 577 92 113 136 
227 786 394 183 139 114 
349 691 491 75 106 132 
215 771 422 188 140 86 
212 478 528 166 160 162 
337 704 365 128 141 161 
314 753 538 46 40 53 
270 272 371 103 79 88 
339 652 531 138 141 149 
325 238 501 105 106 113 
253 443 528 76 107 142 
260 452 535 149 154 165 
231 734 548 58 45 58 
310 223 470 80 34 33 
342 572 461 95 124 157 
357 550 449 115 132 166 
182 258 458 135 122 116 
278 822 540 200 135 110 
173 459 470 67 85 119 
161 442 461 65 92 119 
212 540 526 110 123 142 
283 150 521 124 112 115 
254 626 566 98 118 138 
264 185 510 82 41 54 
285 265 439 99 19 46 
224 704 644 120 144 207 
355 425 452 148 156 170 
264 811 371 181 163 151 
351 728 489 109 71 83 
339 737 382 79 113 171 
238 40 493 125 99 75 
311 426 423 125 112 103 
239 40 493 127 103 79 
295 897 475 155 116 87 
267 764 589 189 129 78 
243 642 541 56 70 85 
239 42 492 123 98 75 
211 322 429 70 80 90 
230 619 336 153 113 97 
199 742 407 154 124 136 
181 727 464 117 97 97 
223 950 434 98 82 68 
149 509 454 152 163 180 
329 511 423 96 116 147 
173 407 447 118 127 141 
163 473 462 61 84 117 
256 673 359 107 120 139 
223 765 522 128 98 94 
270 628 313 84 77 72 
271 991 411 134 101 67 
289 198 339 123 17 41 
288 644 397 78 99 127 
288 285 406 62 99 130 
331 792 349 160 170 185 
211 490 377 148 148 156 
239 47 489 114 93 71 
310 817 514 201 142 108 
213 288 502 47 70 90 
280 317 496 151 147 150 
306 563 527 140 153 171 
222 676 637 90 78 67 
335 637 495 119 137 162 
293 565 525 154 158 168 
328 816 464 110 136 161 
331 726 255 160 167 193 
290 728 266 139 140 178 
323 431 483 116 135 157 
292 31 402 118 98 78 
289 13 425 56 49 44 
201 402 417 41 80 126 
328 811 353 160 64 77 
306 971 450 131 101 70 
237 34 498 133 103 90 
203 668 509 106 148 184 
234 691 363 139 135 138 
203 645 522 42 52 66 
217 459 344 134 142 162 
230 639 353 177 127 110 
220 694 573 132 163 194 
314 549 397 94 107 130 
198 482 405 105 121 144 
197 676 569 97 93 158 
335 662 548 119 134 153 
198 260 383 155 153 158 
296 388 419 139 121 103 
239 35 498 131 101 89 
353 385 459 45 91 127 
181 577 427 105 116 132 
325 641 531 77 61 63 
244 344 361 114 118 127 
234 543 340 104 119 137 
360 409 472 29 75 150 
303 633 406 53 90 119 
170 385 492 175 150 125 
263 834 466 155 102 85 
308 650 358 65 92 117 
265 530 340 117 129 146 
339 791 392 161 66 67 
233 418 336 64 86 110 
278 727 333 68 89 129 
191 270 448 112 112 117 
297 819 321 231 47 45 
251 807 499 190 136 105 
324 557 520 83 127 162 
238 261 521 126 128 136 
355 567 450 136 151 173 
342 771 406 88 69 69 
290 234 453 83 49 55 
328 252 512 87 119 147 
313 409 486 123 136 154 
307 204 390 60 72 95 
299 342 438 88 104 122 
232 558 340 141 142 150 
348 642 375 66 84 104 
172 492 474 84 101 143 
203 353 383 147 99 107 
273 78 495 113 93 74 
291 842 491 178 131 104 
211 775 471 201 149 120 
257 628 562 88 111 134 
240 421 330 53 79 105 
334 698 263 57 93 141 
186 355 419 149 106 50 
275 283 510 98 128 157 
256 15 487 79 66 54 
313 491 496 100 120 145 
290 587 364 90 94 101 
238 49 486 115 93 69 
281 319 349 115 129 147 
244 264 526 94 119 143 
170 565 432 116 132 155 
353 658 511 133 137 147 
301 999 429 145 110 78 
325 229 483 93 58 75 
172 544 477 114 120 146 
289 272 372 99 88 87 
201 698 604 124 161 198 
175 573 488 111 123 157 
217 752 514 187 142 81 
213 693 582 141 170 201 
286 87 493 120 98 76 
225 628 525 59 77 94 
360 399 483 64 99 145 
261 252 524 149 147 152 
204 763 443 140 131 128 
208 354 518 137 48 81 
203 723 379 128 152 177 
355 689 447 184 182 189 
297 384 374 142 41 58 
258 63 497 127 105 84 
314 771 527 182 152 123 
242 165 519 100 89 80 
295 627 402 57 72 85 
189 502 423 59 82 103 
319 869 457 184 138 104 
281 281 425 62 89 113 
237 54 484 114 92 67 
311 861 420 176 134 101 
245 669 635 123 141 162 
297 425 371 186 158 129 
293 303 384 93 110 127 
238 52 487 114 93 69 
339 357 503 109 128 170 
241 859 485 127 88 55 
169 428 476 72 51 33 
319 153 485 120 62 6 
337 733 282 163 166 180 
248 906 408 143 117 92 
353 652 519 168 171 182 
312 124 505 138 109 86 
360 540 443 113 137 165 
214 442 352 111 126 147 
311 209 472 94 36 30 
185 333 490 62 91 114 
324 430 428 90 104 120 
277 688 339 66 103 131 
161 462 454 105 117 132 
347 688 420 153 137 136 
331 631 509 89 111 133 
292 95 489 105 84 64 
357 701 501 155 175 199 
200 735 424 135 59 60 
233 625 537 60 85 107 
230 469 527 88 116 149 
361 460 475 101 133 185 
334 676 297 90 113 138 
224 359 361 114 114 119 
208 316 496 65 67 72 
320 173 411 114 102 92 
308 699 305 109 121 143 
227 521 528 141 141 149 
263 57 461 89 70 50 
246 748 345 118 135 153 
257 137 350 171 109 92 
341 727 388 91 120 171 
241 812 457 183 132 110 
324 154 506 74 42 55 
277 143 338 128 87 67 
170 665 431 137 86 38 
313 247 469 46 70 106 
224 681 532 168 140 161 
237 58 482 110 88 65 
345 717 412 127 149 175 
298 155 429 86 75 64 
265 329 374 90 100 113 
304 945 422 81 63 48 
305 37 418 96 87 79 
195 199 484 94 38 30 
271 709 339 85 67 123 
240 426 518 94 111 143 
175 404 460 139 15 73 
200 657 597 110 90 69 
284 571 352 78 112 142 
319 195 477 53 53 62 
183 384 488 91 63 52 
224 468 333 100 117 139 
213 509 383 159 162 172 
282 744 329 114 126 145 
282 596 357 68 99 126 
195 497 412 76 103 140 
303 154 500 44 64 86 
236 981 443 111 86 62 
288 217 351 114 70 95 
170 412 466 91 79 67 
253 822 469 175 122 103 
170 517 429 54 82 138 
296 116 506 91 82 75 
216 963 480 111 88 76 
285 274 366 129 114 99 
239 456 324 153 151 154 
204 635 517 56 52 50 
225 946 431 97 79 65 
317 673 265 92 90 91 
297 517 519 102 123 154 
331 608 528 103 132 161 
284 207 522 129 23 67 
241 501 323 148 155 177 
267 648 333 60 90 114 
259 956 410 78 55 28 
257 90 430 102 83 62 
301 466 494 132 142 158 
217 529 372 103 117 141 
221 704 513 146 28 55 
161 514 440 110 126 145 
298 266 400 128 0 47 
278 435 506 116 127 148 
258 862 431 144 109 76 
239 60 485 117 95 73 
177 656 561 63 96 146 
279 124 529 137 74 37 
223 528 529 88 104 134 
239 62 484 115 93 70 
260 143 353 150 92 24 
168 475 439 74 99 135 
331 826 429 146 132 122 
174 391 472 92 91 96 
293 750 568 184 137 92 
175 659 439 74 58 62 
273 507 522 124 132 146 
243 788 518 195 142 109 
188 472 509 109 126 150 
265 21 441 95 87 83 
287 769 299 111 121 166 
172 589 434 159 162 172 
172 647 500 163 111 101 
275 11 404 142 126 114 
302 291 495 151 149 152 
231 645 359 176 105 102 
233 744 558 160 134 126 
257 683 354 93 105 123 
271 174 343 156 50 44 
260 720 621 166 167 177 
293 95 421 113 92 70 
249 549 527 111 133 159 
195 441 515 101 118 145 
266 274 516 79 126 162 
174 641 447 146 96 90 
182 385 485 84 48 42 
286 256 423 128 77 67 
185 380 424 80 100 128 
309 704 584 157 168 183 
264 365 356 140 116 91 
193 632 538 87 80 75 
240 791 380 103 90 85 
297 310 444 87 39 40 
268 639 534 77 91 109 
356 667 453 127 57 81 
243 660 531 42 62 80 
241 319 517 179 131 78 
334 688 480 107 77 84 
196 289 390 91 80 93 
223 695 564 163 32 67 
267 789 338 131 30 56 
298 537 521 108 132 159 
306 429 416 123 114 109 
226 971 444 92 77 67 
293 238 422 105 96 112 
276 143 519 124 92 99 
188 429 495 98 112 138 
243 44 495 120 96 79 
255 1010 446 125 94 65 
243 45 495 118 94 78 
169 485 431 85 106 147 
335 785 440 152 114 82 
168 623 462 141 147 167 
233 912 421 106 82 62 
201 424 402 51 75 122 
341 779 395 168 9 40 
170 474 468 103 122 150 
334 762 499 155 142 136 
329 491 418 60 91 123 
258 678 626 105 132 168 
304 874 467 163 118 84 
316 144 506 66 49 52 
344 464 445 140 149 163 
360 401 482 49 91 146 
350 646 468 89 117 142 
203 720 486 50 52 82 
297 56 424 111 85 59 
240 35 498 129 100 88 
354 631 458 166 166 172 
170 447 450 54 79 118 
316 510 510 98 114 147 
300 962 425 118 89 73 
193 281 504 83 40 53 
307 922 488 135 105 84 
270 372 349 149 123 94 
161 592 448 107 130 171 
256 645 554 26 61 92 
234 622 331 164 119 103 
281 63 448 82 70 60 
200 372 508 118 127 142 
334 727 311 70 106 161 
242 32 502 131 103 90 
242 33 502 130 101 89 
273 322 364 102 116 132 
262 827 400 174 173 178 
310 150 515 42 51 64 
309 569 530 161 156 160 
344 294 473 84 127 160 
332 586 520 176 175 181 
345 551 438 126 148 173 
261 1009 459 129 100 73 
361 550 445 164 173 189 
354 433 449 178 179 187 
303 590 396 68 79 90 
190 665 524 128 142 161 
241 37 497 127 101 85 
240 36 498 129 101 88 
252 674 360 109 117 139 
295 673 588 138 141 150 
206 444 387 166 162 165 
287 186 337 112 44 86 
210 253 517 143 110 113 
240 941 513 182 142 118 
249 983 418 107 86 62 
270 256 378 99 72 81 
343 687 487 105 122 141 
308 932 422 106 78 55 
334 732 364 48 63 88 
352 594 438 109 129 153 
271 433 522 157 161 172 
288 141 442 93 72 48 
325 255 497 120 123 131 
305 862 480 190 137 104 
219 316 518 130 27 55 
208 505 399 69 94 137 
354 514 449 98 125 159 
263 283 514 90 98 114 
334 789 365 154 166 182 
247 676 637 84 111 149 
172 626 507 121 100 80 
232 763 361 113 90 112 
294 830 511 206 154 123 
280 647 542 49 73 96 
327 227 509 144 142 146 
163 433 463 50 75 96 
220 552 358 116 133 156 
342 611 405 92 114 138 
286 892 489 164 123 92 
189 713 413 159 109 67 
285 147 523 123 109 106 
320 532 476 101 122 161 
317 603 537 128 151 176 
256 15 464 89 78 69 
176 576 434 76 97 126 
268 441 336 114 123 137 
252 859 494 133 91 63 
173 510 488 108 120 150 
186 680 592 134 156 206 
166 516 468 84 109 154 
200 264 398 99 115 133 
310 519 381 45 85 125 
327 509 435 91 110 136 
338 750 375 127 133 170 
229 770 530 147 135 136 
243 766 350 92 130 156 
317 509 406 117 120 128 
264 148 350 154 71 11 
183 646 409 175 170 174 
243 626 563 70 98 131 
285 396 498 72 96 141 
175 392 435 113 121 136 
278 534 347 103 116 134 
199 587 518 107 130 162 
273 729 334 96 112 134 
277 86 411 124 103 81 
199 316 480 134 136 144 
283 817 326 170 97 98 
317 546 400 80 94 111 
306 956 429 129 99 74 
290 724 253 74 110 169 
300 250 504 137 140 149 
339 361 450 140 141 148 
247 777 578 144 101 77 
271 88 443 100 80 63 
342 343 501 111 120 135 
262 57 498 124 103 83 
198 379 500 107 112 124 
256 638 341 115 90 86 
313 945 468 83 68 57 
336 691 357 118 127 185 
266 88 462 80 65 48 
189 702 466 123 68 44 
307 60 491 136 131 127 
192 445 507 138 143 154 
309 49 425 134 117 104 
199 479 522 124 132 146 
246 994 432 98 76 57 
301 960 491 104 85 70 
227 293 372 137 136 139 
172 479 472 81 94 133 
348 617 429 153 160 173 
310 694 304 76 95 142 
328 569 491 136 156 178 
295 444 375 121 104 90 
261 38 461 74 64 54 
316 498 497 101 123 147 
246 41 499 128 102 89 
214 294 494 42 55 66 
341 640 376 40 67 106 
313 172 480 114 51 44 
292 402 404 137 124 114 
306 585 399 109 108 113 
247 42 499 128 102 89 
298 428 489 126 135 149 
281 953 413 118 88 63 
266 338 499 166 161 163 
258 668 359 76 99 142 
290 832 507 201 152 125 
269 434 529 135 146 161 
271 614 360 56 68 81 
255 917 408 71 58 46 
320 305 455 117 128 143 
245 46 496 115 86 73 
241 925 405 84 63 46 
310 651 359 66 97 125 
171 449 437 72 98 140 
284 638 388 65 85 104 
288 149 456 92 81 73 
187 362 468 151 146 147 
318 639 532 75 63 70 
322 433 426 88 101 117 
231 387 354 66 92 115 
245 362 507 98 113 145 
180 683 464 103 98 108 
287 654 568 83 102 122 
280 181 382 66 51 54 
336 256 483 76 65 80 
213 928 458 138 108 80 
282 269 427 98 53 74 
330 672 482 131 140 156 
298 185 520 143 120 119 
287 149 320 163 79 42 
358 575 436 82 130 178 
286 653 330 126 133 183 
333 712 304 134 153 182 
328 718 245 98 128 185 
296 555 360 43 77 122 
282 834 364 212 194 185 
331 782 350 35 68 117 
303 334 442 69 49 53 
192 305 440 81 91 103 
317 375 439 82 106 129 
257 629 566 96 118 141 
294 784 296 108 118 166 
249 37 501 121 100 81 
294 977 473 86 70 55 
176 356 496 113 126 143 
273 836 479 158 109 88 
292 110 489 81 66 51 
203 351 380 137 72 92 
284 144 329 122 93 74 
260 792 572 87 97 110 
276 362 338 158 114 102 
304 158 526 114 75 80 
300 465 496 162 159 164 
223 572 529 137 150 171 
289 151 448 88 79 70 
343 469 441 109 128 160 
273 269 370 123 137 154 
273 636 353 61 58 57 
184 666 531 128 156 197 
239 307 373 129 126 127 
