ply
format ascii 1.0
comment Created by CloudCompare v2.11.1 (Anoia)
comment Created 2/28/22 9:37 PM
obj_info Generated by CloudCompare!
element vertex 2006
property float x
property float y
property float z
property uchar red
property uchar green
property uchar blue
end_header
282 233 387 74 50 66 
200 362 485 134 98 51 
205 386 521 93 116 148 
253 294 519 161 158 163 
285 171 456 124 63 1 
177 653 515 91 92 104 
174 478 482 93 113 145 
340 276 467 99 117 135 
324 733 542 110 126 148 
311 511 390 155 151 152 
260 23 463 108 97 91 
269 464 333 126 136 151 
213 926 465 148 115 85 
303 882 470 160 117 84 
338 694 268 101 126 158 
342 764 434 168 21 40 
307 281 493 106 124 145 
203 549 395 98 108 121 
267 362 508 73 108 140 
289 824 525 203 145 113 
279 825 534 199 137 111 
286 364 496 90 110 139 
190 661 539 105 121 175 
339 705 464 155 152 161 
283 30 399 145 105 85 
348 718 511 164 115 127 
354 383 463 64 102 134 
218 297 367 104 118 134 
258 264 369 114 134 157 
189 700 428 158 118 67 
201 571 387 99 115 135 
272 365 375 131 110 89 
174 659 474 141 96 93 
272 36 479 80 71 63 
283 918 408 62 50 40 
207 233 370 139 71 84 
276 256 516 157 154 160 
214 769 494 168 131 98 
303 390 492 76 101 140 
159 457 464 37 65 111 
274 524 349 74 101 135 
200 275 383 174 174 181 
217 942 449 82 66 56 
174 521 496 169 166 168 
267 654 281 130 97 66 
204 236 372 158 35 61 
276 528 350 110 127 148 
309 200 404 61 85 106 
304 660 327 146 151 163 
342 589 455 143 156 175 
277 477 536 93 107 145 
249 643 357 95 101 116 
211 204 516 138 104 84 
322 766 519 149 125 101 
290 192 394 68 88 107 
279 923 409 62 50 41 
207 236 372 156 31 64 
260 176 352 149 35 10 
311 153 525 96 87 102 
190 318 429 84 92 103 
225 653 374 52 57 62 
335 745 281 103 123 183 
271 401 522 121 134 151 
346 678 535 170 170 178 
219 713 637 133 160 202 
238 975 500 95 78 65 
232 280 519 77 108 135 
357 583 450 170 172 182 
322 307 497 148 95 15 
340 763 462 108 90 71 
271 184 515 82 72 82 
329 814 355 184 82 90 
196 384 485 128 127 132 
252 785 365 104 128 149 
201 388 371 78 114 144 
205 493 403 147 147 155 
201 395 374 53 96 134 
174 551 502 133 142 157 
288 787 309 162 168 183 
261 116 408 107 87 65 
311 455 488 109 122 149 
280 112 473 77 61 43 
213 589 526 107 130 162 
203 369 505 124 99 93 
257 820 401 170 161 158 
226 488 337 37 78 125 
199 244 375 78 118 147 
201 734 426 151 141 145 
313 663 282 47 72 97 
302 75 492 140 96 79 
277 367 338 172 124 99 
275 102 450 75 58 41 
330 209 508 114 63 82 
207 201 451 64 45 35 
258 644 565 95 101 111 
249 994 426 94 71 62 
198 241 377 103 71 81 
250 234 521 135 132 135 
256 1009 445 140 114 88 
246 815 423 192 136 112 
237 399 517 89 113 150 
276 902 412 77 63 50 
335 527 443 117 133 153 
250 784 366 72 41 39 
328 457 474 94 118 141 
239 286 367 93 129 160 
174 601 483 97 127 164 
305 163 409 112 97 85 
313 837 362 158 150 148 
202 240 514 89 103 120 
239 982 449 137 107 72 
256 640 561 29 53 100 
247 657 559 72 83 97 
178 373 442 147 144 147 
292 720 333 48 82 121 
197 243 381 93 63 80 
219 258 498 31 37 45 
189 279 506 72 109 139 
343 681 297 90 111 134 
197 243 383 91 55 53 
330 796 343 141 144 152 
285 354 405 114 13 46 
270 669 279 158 111 83 
259 32 497 55 48 42 
326 182 487 103 41 26 
294 700 336 82 100 136 
251 640 326 170 111 95 
238 786 543 164 126 99 
174 668 421 81 69 86 
338 453 435 87 112 138 
288 393 391 147 125 102 
199 735 394 86 74 104 
194 277 398 90 113 135 
199 244 377 79 121 152 
290 514 353 118 131 152 
219 765 376 200 137 53 
204 698 633 135 156 195 
198 244 379 86 106 126 
198 245 378 79 102 121 
203 394 517 102 125 153 
288 442 363 142 63 3 
215 201 520 138 81 78 
329 509 467 98 120 149 
291 415 497 104 121 146 
194 575 397 121 124 134 
263 25 492 101 86 70 
271 37 493 102 87 73 
214 263 388 76 119 153 
263 36 441 96 80 63 
219 785 441 147 108 84 
322 246 509 117 127 145 
192 318 501 135 137 145 
335 636 497 135 150 172 
317 867 442 190 148 119 
197 245 382 108 98 96 
303 699 589 96 120 142 
296 57 415 105 86 66 
323 606 421 80 113 141 
275 436 359 125 105 84 
242 734 621 114 116 159 
197 246 381 103 90 90 
330 834 402 173 149 126 
237 488 327 124 134 155 
210 337 492 136 97 54 
229 555 535 121 125 154 
242 220 504 86 31 50 
269 804 346 151 105 72 
222 363 523 137 140 150 
315 671 570 68 99 141 
339 788 385 170 11 46 
315 741 261 174 189 227 
257 556 336 162 161 170 
202 667 508 85 140 182 
229 629 347 167 110 100 
289 106 485 96 77 55 
260 988 484 102 75 59 
314 461 480 160 164 176 
193 279 389 111 130 151 
243 655 529 25 36 58 
201 490 406 108 123 145 
189 730 454 88 83 83 
244 816 452 185 132 111 
347 554 437 98 126 156 
334 702 354 145 158 185 
198 250 378 108 71 81 
299 827 334 139 91 122 
304 752 269 136 150 222 
249 735 618 185 40 60 
299 101 441 109 87 65 
282 412 369 168 139 107 
308 630 515 50 71 95 
340 396 450 46 75 109 
351 664 459 169 164 167 
286 210 521 132 19 65 
203 276 437 93 98 106 
255 426 323 77 99 123 
277 680 264 152 104 77 
209 515 399 82 104 130 
290 619 522 108 88 89 
257 51 460 106 78 52 
293 697 247 151 107 79 
295 150 336 111 95 76 
241 241 511 116 107 106 
196 251 383 134 134 140 
221 896 487 174 131 105 
201 547 525 95 113 133 
262 855 432 147 110 76 
314 486 414 104 113 125 
361 692 432 173 172 178 
353 655 511 134 139 148 
325 790 494 150 119 97 
276 423 364 136 66 10 
270 324 502 134 142 156 
262 828 483 169 120 98 
200 413 401 79 100 133 
291 553 356 81 95 110 
228 462 330 111 124 145 
197 226 474 93 31 34 
191 379 476 83 49 51 
295 1001 452 142 111 84 
214 957 468 139 109 91 
301 342 441 94 106 120 
212 715 623 162 184 212 
281 776 324 123 135 150 
278 407 522 57 87 146 
297 648 295 79 73 68 
314 648 552 47 54 63 
246 650 356 135 129 131 
235 510 335 112 124 152 
195 340 401 126 71 85 
215 504 531 129 141 166 
313 673 324 108 121 147 
291 326 488 109 129 154 
182 570 427 81 103 126 
295 891 423 135 102 78 
197 254 380 144 138 139 
228 194 521 116 37 59 
184 352 471 122 116 114 
249 874 507 158 123 103 
251 611 335 108 99 93 
302 121 513 120 64 37 
300 714 249 174 118 91 
188 320 429 80 87 98 
246 779 576 46 44 69 
272 100 445 91 70 51 
327 581 527 119 76 84 
219 441 525 59 93 142 
218 956 452 94 77 65 
297 640 404 65 109 142 
233 742 353 113 132 153 
200 243 375 81 109 131 
345 367 457 101 114 131 
276 1011 445 92 69 45 
332 502 433 76 93 137 
240 571 347 146 146 153 
299 723 304 102 108 119 
331 245 497 78 72 83 
274 110 521 112 103 95 
202 242 373 128 80 95 
251 903 429 116 89 56 
358 474 463 77 111 139 
339 444 438 86 111 138 
276 775 577 145 122 101 
330 188 487 55 43 42 
332 680 482 152 152 159 
234 683 362 86 104 131 
229 879 464 143 110 81 
224 696 537 75 75 113 
193 324 469 100 57 55 
291 643 368 60 66 75 
288 983 413 112 83 58 
324 249 472 115 46 64 
326 516 436 137 138 145 
323 922 477 125 86 75 
261 569 342 152 153 160 
201 246 375 90 128 159 
289 707 599 154 71 93 
301 651 344 65 89 111 
301 234 365 46 79 104 
256 829 444 178 111 94 
276 362 338 165 111 80 
186 305 435 74 88 105 
329 603 420 74 111 143 
283 252 367 159 79 61 
274 821 374 170 148 130 
234 754 560 108 100 93 
200 356 376 149 96 109 
331 704 554 161 178 200 
267 407 358 127 99 64 
286 309 492 157 153 158 
189 648 581 113 92 71 
213 929 461 138 109 81 
295 446 374 116 101 87 
200 418 414 30 61 110 
151 521 441 121 134 152 
204 670 559 138 170 202 
351 359 468 127 138 154 
253 528 329 105 127 176 
278 751 332 109 125 144 
166 528 470 94 108 135 
354 665 454 82 102 121 
153 557 443 86 105 147 
205 264 512 149 111 107 
279 126 411 84 74 64 
207 243 373 141 94 106 
287 109 490 84 70 56 
260 913 407 99 75 57 
244 802 395 188 144 84 
193 205 458 48 45 54 
209 741 369 160 42 74 
205 245 374 93 130 158 
274 571 350 58 62 68 
274 372 374 133 108 83 
205 246 374 88 131 166 
323 155 512 47 41 59 
305 366 436 145 126 108 
266 628 509 65 53 56 
229 752 539 185 149 115 
328 486 470 135 138 152 
190 309 398 149 150 158 
356 614 446 166 170 182 
236 584 349 78 90 111 
302 590 396 91 94 102 
334 785 358 156 161 173 
242 568 346 177 165 160 
352 670 393 134 136 144 
256 56 425 100 80 60 
185 363 416 112 129 150 
330 799 349 171 170 175 
278 203 369 97 76 81 
199 598 518 157 155 161 
335 379 486 105 124 162 
301 713 246 168 117 86 
219 692 370 70 100 140 
331 689 249 87 78 73 
268 430 354 118 105 93 
166 579 437 85 104 157 
197 675 626 161 166 178 
255 1009 444 149 123 99 
260 706 624 124 121 150 
325 391 485 138 147 164 
305 708 585 151 22 49 
297 115 528 128 63 2 
303 970 444 112 84 62 
260 76 435 109 86 72 
213 231 486 96 27 51 
306 433 418 109 95 80 
291 420 367 169 137 100 
297 67 443 88 70 48 
347 341 497 127 128 159 
328 701 240 181 126 101 
200 583 521 104 118 157 
265 639 564 106 126 147 
188 508 427 103 117 155 
291 554 357 102 111 123 
223 698 366 158 161 172 
181 621 500 42 40 41 
177 670 575 109 131 176 
200 341 479 44 40 43 
302 531 369 73 97 122 
321 564 431 114 125 140 
152 493 446 92 117 146 
194 657 597 112 91 68 
201 249 376 83 114 141 
167 630 487 69 68 69 
280 263 444 93 49 66 
356 436 481 53 87 155 
201 250 376 95 117 140 
189 665 528 131 144 166 
255 822 414 184 129 110 
332 619 515 112 130 150 
260 649 317 162 109 93 
324 850 460 194 143 113 
244 964 422 72 49 31 
292 301 405 58 94 120 
322 916 489 157 130 104 
285 467 529 115 133 156 
197 343 475 53 51 51 
251 788 572 95 109 125 
332 253 483 71 86 108 
204 746 426 124 102 110 
331 560 513 94 134 167 
349 754 407 178 178 185 
203 253 376 93 143 182 
340 594 512 102 138 172 
189 269 459 106 119 136 
276 52 467 62 54 45 
289 116 444 112 82 63 
268 127 446 57 46 34 
312 573 420 95 91 89 
361 552 451 106 126 165 
274 635 360 67 64 62 
206 251 376 82 126 163 
238 712 354 133 139 149 
222 899 505 169 128 106 
356 616 447 170 173 182 
274 464 536 150 153 164 
268 827 493 186 132 109 
209 349 514 137 50 85 
319 729 251 87 140 221 
239 975 435 96 74 60 
211 348 518 119 81 99 
191 327 462 93 66 85 
272 533 522 86 105 143 
317 482 416 101 113 127 
293 80 421 123 101 80 
299 285 405 60 101 133 
269 439 351 107 28 52 
216 450 526 71 103 143 
258 423 324 87 102 125 
321 493 472 104 116 151 
218 291 494 113 116 124 
288 306 491 157 153 158 
293 909 404 77 58 43 
248 392 514 98 114 139 
334 746 452 113 121 148 
277 212 360 58 68 89 
340 709 268 76 109 164 
335 767 362 91 114 152 
294 151 422 89 77 66 
284 265 447 91 33 48 
264 132 401 109 92 75 
259 605 521 143 154 172 
214 677 559 147 174 204 
271 670 296 162 110 90 
209 224 367 24 68 132 
204 448 387 94 116 147 
209 225 367 31 73 134 
292 438 386 118 101 82 
305 205 475 95 51 53 
306 932 482 118 87 78 
270 523 347 102 115 134 
235 318 525 177 127 64 
169 660 492 101 118 143 
314 127 511 129 77 41 
324 811 340 184 126 131 
311 472 416 94 107 125 
181 677 439 179 100 60 
240 986 468 139 105 69 
315 280 500 94 121 147 
308 523 378 150 152 161 
332 752 341 57 85 152 
339 584 457 136 152 173 
260 780 346 161 10 13 
352 667 398 179 176 182 
357 688 505 87 145 188 
323 816 343 192 46 67 
171 526 479 36 58 121 
262 48 410 101 81 58 
220 250 500 51 59 69 
198 298 389 115 141 175 
281 248 448 82 72 80 
248 626 526 69 94 116 
347 245 478 109 75 77 
343 772 391 155 98 98 
262 77 496 110 91 73 
336 583 482 106 126 149 
210 228 368 30 67 128 
325 530 478 71 97 146 
176 615 481 139 152 170 
325 844 436 200 152 119 
210 438 526 91 115 148 
272 508 347 110 121 140 
192 655 594 114 92 68 
298 98 439 117 96 75 
323 801 497 180 167 160 
222 783 409 166 127 95 
206 496 529 154 153 159 
220 289 494 111 113 119 
333 799 362 160 36 46 
180 331 433 110 110 114 
270 82 409 111 89 64 
292 391 413 142 123 105 
259 752 344 119 135 153 
313 656 331 63 95 123 
242 889 446 105 80 46 
290 240 458 47 65 79 
239 622 535 74 89 106 
346 685 405 145 156 174 
213 403 525 55 87 136 
172 502 488 82 108 146 
274 948 508 103 79 61 
218 572 529 118 133 154 
306 770 285 222 212 226 
214 224 370 43 60 119 
206 438 369 98 114 143 
299 89 487 121 87 75 
237 487 328 120 132 153 
308 162 434 93 83 73 
335 781 360 124 150 176 
310 676 327 109 119 141 
219 320 367 106 115 126 
294 137 475 83 68 52 
272 329 500 97 116 146 
255 857 447 153 114 90 
286 236 436 60 72 88 
245 423 326 44 79 117 
295 846 400 103 138 169 
305 652 350 71 92 113 
320 128 515 129 89 62 
352 673 352 66 118 177 
346 764 400 154 168 188 
218 946 446 83 68 60 
283 842 483 159 114 90 
295 439 375 154 68 3 
243 811 420 194 144 118 
264 537 525 111 119 138 
347 480 470 88 111 148 
337 194 487 40 41 51 
242 619 320 132 103 81 
304 202 436 130 85 75 
296 115 515 105 96 88 
276 1010 433 125 97 63 
316 471 490 104 121 153 
288 742 582 71 90 124 
267 623 325 80 73 68 
267 623 319 82 76 72 
303 648 380 82 107 137 
279 119 527 137 63 3 
199 378 495 124 125 133 
266 276 369 120 128 140 
201 417 413 37 64 113 
214 231 373 115 47 83 
253 782 359 159 113 84 
264 29 405 184 157 148 
176 600 490 106 127 158 
310 273 498 86 71 87 
197 283 385 129 145 165 
174 557 430 64 101 147 
312 412 486 151 151 159 
208 226 382 79 55 53 
271 430 336 97 76 104 
211 499 531 171 165 167 
286 636 398 96 102 112 
274 213 527 131 41 76 
356 726 432 142 162 186 
206 766 485 145 160 179 
276 658 587 103 120 143 
182 736 470 129 130 141 
211 225 382 88 66 65 
284 610 371 59 73 88 
216 700 586 180 189 205 
204 632 382 78 46 44 
213 680 645 96 78 58 
352 649 455 94 143 181 
317 59 453 94 82 73 
288 396 399 135 120 108 
362 686 442 176 179 190 
263 971 500 108 85 70 
314 759 276 112 118 218 
297 848 486 190 139 111 
233 929 416 90 73 61 
170 590 434 157 164 179 
287 825 334 189 159 128 
296 732 327 74 94 127 
316 325 454 81 115 145 
225 779 387 184 148 123 
213 226 383 95 71 64 
240 579 529 155 158 169 
293 89 425 108 90 71 
258 797 369 125 105 109 
196 312 474 126 129 137 
222 965 489 118 93 79 
351 655 383 74 82 104 
270 341 359 111 115 123 
332 829 398 179 155 136 
233 597 352 65 92 116 
327 499 417 20 65 114 
274 449 531 110 128 152 
222 643 368 154 105 91 
271 68 446 79 66 53 
313 524 392 152 150 154 
176 589 499 123 140 163 
356 623 414 144 163 186 
324 856 458 202 152 124 
204 579 523 144 145 158 
203 568 379 103 128 155 
246 916 406 106 83 56 
286 588 519 124 146 171 
336 635 508 89 111 134 
337 628 529 164 165 172 
282 195 378 96 90 95 
199 634 391 70 54 43 
355 608 422 116 41 49 
205 246 479 42 61 98 
230 316 367 141 136 135 
298 722 585 123 59 100 
352 716 498 214 120 126 
194 269 388 148 150 158 
173 653 546 112 126 145 
285 636 395 89 99 112 
334 675 479 157 158 168 
339 317 458 89 117 143 
274 313 386 112 114 122 
293 92 425 107 89 71 
335 618 407 129 139 154 
223 924 506 152 120 98 
275 650 338 102 117 149 
199 438 408 57 83 117 
167 642 504 173 123 110 
311 664 323 45 86 142 
211 236 373 150 15 54 
296 796 542 168 123 89 
354 661 394 157 162 175 
323 499 492 125 138 158 
362 563 445 94 119 148 
295 56 433 96 75 58 
261 418 324 96 110 130 
305 681 245 97 85 73 
263 218 356 140 43 43 
338 436 475 108 133 160 
226 318 526 138 88 114 
310 677 577 115 131 155 
280 812 549 192 129 100 
342 703 480 122 139 158 
212 233 373 139 48 46 
182 338 449 78 118 150 
355 640 391 168 174 188 
254 397 514 130 136 148 
282 18 437 110 100 94 
287 928 500 96 75 54 
271 344 351 134 130 131 
215 770 494 172 133 103 
218 274 383 118 111 110 
245 505 532 145 147 156 
343 400 485 109 127 163 
303 75 480 130 95 77 
261 173 353 146 33 17 
204 313 381 99 63 61 
279 556 351 75 96 119 
179 665 421 85 52 91 
270 887 507 170 125 94 
218 925 449 74 61 50 
273 66 463 80 65 50 
281 382 507 85 101 141 
218 252 508 70 103 130 
350 594 451 124 145 170 
245 596 351 65 75 86 
301 393 425 111 58 26 
242 812 463 181 129 107 
287 572 358 57 68 83 
276 265 369 148 114 99 
271 836 404 175 165 161 
189 488 427 82 105 144 
248 643 544 35 47 65 
326 523 416 51 92 131 
221 451 526 75 104 149 
246 991 441 140 114 87 
175 396 457 92 81 71 
214 237 375 128 58 76 
201 585 520 116 132 159 
259 630 559 114 129 147 
260 663 577 60 79 103 
204 345 370 151 118 76 
206 306 427 57 73 88 
323 149 493 134 73 35 
182 614 401 123 103 110 
262 943 410 61 50 44 
226 377 519 64 98 136 
202 373 504 119 131 147 
259 856 448 132 89 70 
238 699 641 148 166 194 
199 401 384 109 125 150 
343 405 483 154 163 179 
214 238 377 118 85 94 
352 635 451 85 127 168 
215 238 377 114 89 98 
314 185 482 100 29 35 
237 771 570 175 132 119 
188 579 407 126 130 140 
318 552 517 118 73 77 
280 108 521 109 97 87 
208 251 438 90 79 67 
305 161 435 85 72 62 
348 674 407 182 179 186 
213 677 505 73 138 183 
213 708 597 107 117 143 
344 596 418 94 121 145 
334 721 308 64 101 169 
227 936 510 182 141 120 
255 829 444 180 115 97 
335 320 499 174 137 82 
198 606 518 151 146 149 
213 435 526 84 113 151 
262 322 363 86 116 143 
303 533 371 69 99 126 
206 424 364 122 136 157 
317 683 573 99 117 150 
202 544 399 125 125 129 
177 692 454 149 80 52 
225 290 510 111 119 132 
270 399 364 133 112 89 
261 143 377 105 92 83 
239 742 350 127 146 167 
308 648 402 108 129 151 
282 53 472 69 59 48 
253 814 489 187 134 110 
242 881 509 132 93 80 
289 170 340 71 81 97 
278 220 363 96 69 81 
282 325 493 135 139 149 
337 491 434 146 153 168 
217 229 374 101 55 81 
356 645 403 175 174 181 
172 440 431 80 103 140 
245 469 322 68 104 139 
285 677 344 77 116 147 
281 305 424 116 115 119 
264 794 570 114 153 187 
306 825 332 208 48 55 
232 961 502 178 135 114 
286 47 492 81 72 62 
211 208 505 84 74 74 
303 991 447 144 119 93 
308 391 433 104 114 126 
299 541 363 83 110 138 
343 677 374 131 147 172 
281 254 390 116 73 64 
296 270 368 104 115 130 
275 793 333 122 125 130 
219 230 375 100 50 76 
343 744 489 145 52 47 
358 517 466 69 95 149 
266 92 498 96 81 67 
333 452 436 61 90 129 
332 684 477 125 61 90 
213 506 387 100 109 146 
329 530 465 107 129 158 
272 176 365 112 62 57 
220 226 374 95 46 76 
244 892 440 104 79 46 
189 586 516 111 137 174 
221 226 374 94 32 64 
205 588 381 84 113 139 
310 324 487 137 152 173 
276 856 429 160 123 95 
307 514 381 132 138 150 
334 712 545 177 33 49 
232 277 517 54 88 119 
234 201 512 73 53 63 
285 656 344 64 83 151 
223 912 449 101 79 59 
299 990 424 147 116 82 
291 19 403 136 122 112 
272 38 439 98 84 71 
225 920 505 153 123 97 
241 635 344 165 106 94 
302 264 495 64 107 140 
301 122 515 117 55 27 
257 839 437 173 126 102 
312 223 505 145 144 150 
222 227 376 113 54 61 
344 586 424 138 152 172 
228 635 542 50 70 89 
280 924 409 59 48 38 
302 702 241 170 118 88 
181 661 538 66 105 166 
336 701 349 129 153 199 
187 708 451 143 131 128 
314 830 345 212 148 34 
178 576 512 102 115 156 
268 121 466 75 61 47 
344 701 465 115 67 98 
318 744 263 108 127 223 
210 649 381 120 85 62 
292 660 310 107 121 155 
220 458 337 130 138 154 
361 646 444 92 81 99 
318 195 418 116 57 58 
175 674 471 85 113 140 
298 251 361 149 154 169 
346 177 502 117 45 31 
355 644 407 169 172 183 
220 649 555 48 61 74 
263 894 431 104 79 47 
235 324 523 178 135 73 
225 790 437 179 137 110 
252 885 435 133 104 73 
356 512 451 84 114 143 
281 122 414 92 78 64 
216 232 374 122 48 61 
274 817 346 113 117 124 
285 529 517 101 131 161 
319 187 513 91 97 119 
268 428 355 113 99 85 
180 541 433 91 107 133 
302 200 343 129 40 57 
218 232 375 123 47 67 
271 839 468 161 115 91 
267 811 370 169 151 137 
206 760 495 144 130 133 
216 235 376 139 3 50 
192 708 470 130 63 46 
210 647 382 90 63 48 
149 504 451 160 168 183 
354 451 480 133 154 180 
238 458 324 104 120 145 
301 810 530 202 138 105 
238 625 552 63 102 133 
305 60 496 140 135 133 
188 507 518 135 139 151 
159 425 464 130 114 100 
225 736 531 100 87 81 
283 194 381 88 90 100 
289 143 335 126 103 86 
328 825 364 142 59 78 
210 765 498 106 80 61 
285 220 518 170 143 109 
269 98 441 91 71 50 
233 163 517 111 100 91 
314 926 476 123 87 76 
356 642 394 176 178 188 
289 279 411 108 86 86 
285 805 550 184 125 91 
314 901 454 90 66 52 
282 221 383 100 49 66 
194 285 436 83 91 101 
341 171 511 146 36 27 
254 998 416 170 138 114 
355 658 510 122 123 131 
319 521 406 122 128 139 
307 298 491 150 149 156 
327 280 466 133 121 113 
284 740 332 103 120 142 
287 391 499 56 85 132 
302 390 493 79 102 141 
264 55 499 121 99 79 
257 61 430 100 80 60 
172 457 467 95 46 75 
259 973 415 104 82 60 
295 127 488 90 74 58 
319 551 410 65 98 141 
328 232 478 55 43 65 
231 934 513 182 139 117 
172 645 506 155 105 92 
200 257 439 108 104 104 
301 681 335 117 125 141 
302 457 400 102 111 124 
267 946 511 141 110 87 
212 434 526 78 107 149 
267 28 480 80 70 60 
290 654 336 22 38 129 
167 626 458 134 92 80 
301 660 572 132 134 141 
220 233 379 147 39 53 
343 705 281 176 175 181 
293 537 516 117 141 169 
340 653 536 105 128 153 
208 663 523 129 165 200 
299 824 518 204 145 111 
175 654 558 82 93 114 
281 693 605 71 118 153 
275 674 604 56 83 130 
324 250 509 115 136 159 
344 759 393 132 145 164 
328 151 493 153 69 8 
271 30 404 138 96 85 
266 330 502 125 132 151 
346 687 303 91 120 165 
304 466 400 120 123 131 
328 781 492 170 123 78 
248 623 575 87 107 127 
282 296 435 118 119 124 
249 417 326 97 109 124 
293 120 489 88 70 47 
178 672 589 59 90 159 
328 810 352 179 37 56 
279 120 528 140 63 3 
319 774 290 115 132 223 
271 247 365 169 152 149 
294 648 281 109 98 89 
247 353 508 140 143 152 
273 901 417 70 57 46 
221 237 381 105 106 116 
306 463 507 161 159 165 
207 621 510 45 59 73 
226 914 505 180 139 116 
347 695 383 93 134 172 
258 630 570 87 112 139 
263 439 529 92 116 148 
341 582 493 92 141 180 
298 75 453 94 71 37 
292 719 592 179 39 57 
235 309 369 113 118 127 
316 334 452 89 113 136 
272 835 481 158 109 87 
190 328 475 66 94 118 
274 509 348 71 102 134 
181 693 415 214 183 149 
270 406 339 119 106 95 
325 130 513 147 126 110 
293 606 383 52 66 79 
223 687 544 117 158 193 
278 157 376 107 97 90 
322 703 238 185 123 97 
313 907 478 93 75 64 
324 529 420 120 132 147 
247 999 455 109 65 46 
328 142 516 104 107 113 
268 1008 437 139 110 85 
327 824 458 145 123 102 
226 652 517 26 43 62 
357 627 406 129 152 177 
190 307 396 139 144 156 
224 504 532 37 72 139 
280 386 515 101 115 145 
290 811 544 196 131 98 
286 652 273 104 94 85 
192 313 429 77 89 103 
210 241 374 158 34 79 
194 568 525 145 153 167 
159 434 459 69 96 122 
210 209 516 136 106 87 
265 746 342 120 139 160 
224 590 356 75 75 86 
257 660 609 104 130 156 
210 447 526 71 100 144 
241 227 504 88 44 65 
203 389 516 77 100 143 
244 780 369 52 24 32 
292 434 383 140 64 3 
198 288 405 74 109 140 
185 301 493 129 126 127 
331 533 486 104 132 162 
232 943 512 181 139 116 
365 369 480 72 108 140 
291 94 421 110 90 69 
214 221 519 102 102 118 
176 374 440 125 132 145 
175 400 439 88 100 129 
289 396 371 132 18 46 
351 748 416 168 177 192 
223 695 531 160 83 86 
312 659 312 41 79 127 
164 486 461 64 96 146 
330 475 471 118 125 142 
325 662 327 75 99 122 
274 275 513 87 131 166 
251 905 418 123 99 71 
334 826 412 184 148 108 
326 536 438 123 127 136 
341 347 452 144 144 150 
286 16 400 144 129 118 
332 780 336 141 156 180 
336 607 477 110 143 174 
223 725 360 117 128 142 
212 198 492 85 32 39 
346 623 393 70 119 159 
288 308 351 94 134 173 
283 636 373 53 64 76 
212 240 377 148 40 80 
310 172 437 115 103 94 
321 744 537 165 126 87 
250 964 418 103 65 38 
201 388 409 70 90 118 
285 186 459 50 64 82 
292 739 314 50 69 93 
195 328 493 100 95 94 
204 685 637 198 201 212 
301 28 426 103 92 82 
164 542 433 103 120 150 
341 698 273 74 107 149 
173 502 491 165 162 165 
285 652 332 118 135 177 
332 786 344 164 168 185 
171 439 448 69 81 102 
185 500 427 121 129 150 
334 698 472 75 123 160 
286 425 367 167 139 107 
192 460 516 84 107 136 
225 430 523 73 102 142 
309 487 401 63 88 113 
225 724 533 51 60 91 
218 365 357 122 123 128 
293 687 290 89 91 113 
190 336 414 146 108 60 
308 293 492 142 144 153 
202 483 404 103 119 145 
227 426 336 85 103 124 
267 543 522 112 118 144 
300 613 404 85 81 94 
321 809 329 188 198 215 
260 100 437 90 68 50 
176 650 557 149 111 87 
213 496 531 175 167 167 
307 751 551 132 125 124 
355 446 443 162 168 182 
287 128 428 103 84 63 
269 631 364 49 53 61 
293 17 424 84 71 58 
248 572 529 180 170 167 
178 386 447 109 117 129 
205 345 368 151 131 111 
238 777 557 156 141 132 
170 414 471 85 49 21 
199 295 409 71 106 135 
289 614 382 29 40 51 
214 245 381 91 101 127 
324 54 442 131 119 110 
175 436 427 73 95 129 
288 821 532 200 137 105 
231 875 467 138 107 77 
173 447 466 94 82 73 
202 693 632 91 108 162 
320 916 463 86 68 57 
196 676 623 163 168 181 
286 407 369 183 149 111 
294 577 363 109 118 131 
276 334 497 113 123 141 
291 199 344 119 33 34 
316 822 338 104 87 114 
279 17 396 163 143 128 
315 620 415 70 105 139 
155 531 448 93 109 137 
324 802 327 194 202 218 
333 811 441 160 133 105 
304 325 486 114 127 151 
174 411 447 93 107 129 
188 419 490 70 93 124 
270 457 341 104 117 133 
213 305 421 63 68 78 
244 259 363 164 157 158 
181 477 421 138 143 156 
238 798 493 198 144 118 
312 501 401 85 101 119 
215 491 361 152 154 167 
344 709 392 121 140 183 
294 724 588 158 60 83 
211 248 379 76 123 160 
317 393 438 128 119 116 
210 250 378 90 132 168 
259 52 431 105 85 66 
220 897 488 177 134 111 
355 701 496 162 174 193 
186 508 516 155 152 157 
213 680 647 97 77 60 
310 203 509 129 13 59 
235 970 500 106 85 74 
172 668 574 131 148 199 
208 253 379 89 135 173 
198 402 413 48 83 123 
235 280 524 95 118 141 
266 166 346 133 41 25 
215 689 375 161 156 159 
341 676 370 124 133 172 
212 472 361 160 161 171 
220 724 521 80 98 119 
293 418 368 171 143 116 
347 718 406 107 121 141 
248 718 349 137 146 159 
339 69 447 148 133 123 
209 255 381 88 132 169 
357 374 469 50 93 123 
210 253 380 83 129 167 
313 383 438 101 92 93 
207 448 374 89 107 147 
195 694 393 158 175 196 
344 702 288 141 152 174 
163 640 498 195 139 129 
199 432 404 77 98 124 
285 283 446 116 113 116 
345 325 459 108 123 143 
338 504 449 129 134 145 
308 326 451 80 111 138 
246 796 515 196 146 112 
232 627 540 63 90 119 
205 543 525 123 130 144 
269 277 369 133 137 146 
182 503 510 106 116 142 
338 693 318 93 129 177 
277 205 351 54 58 112 
320 781 299 162 184 223 
307 465 507 115 133 152 
256 646 550 37 58 86 
241 388 344 68 86 104 
175 663 553 74 106 147 
264 1004 424 99 67 39 
342 471 427 148 155 167 
321 900 474 110 84 64 
337 810 418 194 177 165 
335 771 327 134 138 172 
213 251 383 78 115 145 
290 265 503 129 122 129 
292 620 522 100 86 92 
294 19 426 88 73 58 
285 138 438 99 80 57 
237 780 551 168 162 162 
213 306 431 59 76 92 
286 248 365 170 129 111 
244 430 520 72 105 142 
312 914 426 98 74 59 
332 665 331 68 94 119 
326 675 562 156 156 163 
314 410 433 128 119 117 
260 203 352 61 61 83 
354 640 412 146 148 157 
334 766 355 64 98 161 
272 411 333 141 129 121 
176 515 502 170 163 165 
180 681 465 56 59 70 
213 253 383 76 118 152 
180 582 427 139 134 135 
250 992 473 94 73 55 
262 706 621 121 139 159 
305 687 586 93 110 156 
275 794 332 109 78 102 
275 1011 445 109 88 66 
202 742 499 153 137 126 
238 482 529 168 163 167 
224 255 494 36 48 58 
170 642 542 159 118 99 
217 240 381 150 34 71 
360 519 454 173 178 191 
210 276 437 85 93 104 
331 790 473 196 170 148 
361 442 479 86 117 172 
177 630 541 109 93 78 
237 379 351 99 107 118 
330 529 441 96 114 137 
270 643 334 42 66 93 
180 484 500 91 112 143 
257 1002 419 174 136 109 
346 530 463 60 91 143 
280 978 488 101 85 71 
275 176 348 106 59 53 
285 241 393 6 55 80 
249 639 555 35 50 70 
199 396 412 60 92 122 
188 468 508 128 136 149 
278 958 501 132 108 92 
262 57 498 124 103 84 
281 931 409 57 45 33 
216 244 382 111 82 94 
278 709 338 97 116 144 
216 245 383 107 80 104 
184 552 429 56 86 122 
184 423 477 68 85 121 
302 459 398 52 78 103 
332 669 317 74 95 117 
279 185 347 117 74 71 
262 362 508 68 105 137 
215 271 495 38 36 39 
303 649 360 63 81 99 
347 298 492 129 34 56 
201 661 535 131 163 196 
300 382 492 56 87 131 
343 295 500 117 92 103 
213 780 463 201 147 118 
325 351 449 127 129 135 
278 633 325 65 61 58 
315 374 442 87 112 139 
206 732 375 84 135 174 
280 595 358 66 90 112 
198 307 425 69 79 90 
200 754 493 180 155 133 
295 245 462 39 63 83 
337 688 473 64 125 167 
354 390 461 65 99 132 
284 987 411 131 102 72 
281 153 388 103 93 85 
317 320 491 106 77 44 
209 238 502 96 31 45 
181 369 467 116 111 110 
274 406 367 148 123 96 
289 181 336 56 46 95 
325 524 427 48 77 130 
317 475 477 110 128 156 
314 868 437 192 150 118 
274 697 344 57 76 123 
182 562 429 94 109 129 
342 730 385 148 155 175 
221 912 454 134 102 75 
248 803 527 178 136 104 
339 731 372 103 117 146 
173 520 425 74 96 132 
303 195 342 111 39 58 
254 855 443 164 124 96 
277 443 525 125 134 149 
224 196 357 134 66 53 
295 489 360 143 151 167 
282 121 470 79 65 50 
297 631 406 53 69 88 
288 784 557 154 139 129 
352 689 418 149 152 162 
223 581 360 103 103 108 
295 407 383 163 137 110 
349 384 457 77 111 141 
225 198 359 116 48 46 
323 769 516 187 146 95 
320 926 489 117 88 73 
301 503 371 117 132 153 
346 708 482 134 145 161 
228 192 358 61 70 107 
228 740 355 130 146 165 
332 829 421 140 133 130 
248 820 447 185 129 109 
275 63 445 82 71 61 
169 624 517 110 92 75 
238 391 345 87 98 112 
293 377 494 45 79 127 
218 224 501 109 51 43 
224 199 360 123 36 46 
313 537 390 78 101 140 
233 423 331 76 101 128 
269 806 557 201 143 111 
274 965 500 115 91 74 
292 998 458 134 104 76 
274 19 395 174 149 134 
286 176 337 59 53 87 
273 84 411 116 93 68 
179 589 423 110 121 137 
212 476 361 162 161 169 
307 421 487 114 129 148 
227 198 361 125 67 61 
268 390 365 131 111 91 
258 141 380 113 93 82 
279 528 350 103 121 145 
266 522 342 155 152 157 
358 687 450 183 180 186 
253 988 485 85 63 55 
224 307 369 111 124 140 
286 206 351 95 59 97 
290 77 416 119 97 74 
307 488 397 124 127 136 
236 794 496 196 143 114 
287 648 554 112 116 125 
281 689 260 134 96 64 
231 193 361 49 60 101 
271 622 365 69 79 89 
344 484 469 66 94 139 
315 410 433 123 115 113 
227 383 518 53 100 139 
177 453 425 109 123 140 
211 372 525 106 123 147 
324 393 484 110 130 158 
270 653 349 82 103 158 
271 149 361 94 89 86 
289 837 377 203 168 132 
231 195 363 45 50 101 
277 298 506 145 142 146 
218 448 342 161 158 162 
265 986 484 115 85 66 
182 731 474 107 86 76 
302 441 411 128 118 113 
170 657 508 79 97 116 
303 411 490 103 123 146 
309 485 403 45 73 97 
241 301 370 80 104 126 
253 657 549 62 76 93 
272 818 355 158 153 153 
272 265 383 120 101 111 
199 307 501 108 107 112 
323 786 502 139 132 131 
293 298 360 88 130 166 
227 896 453 127 98 68 
309 678 298 94 111 139 
297 844 385 219 193 173 
244 794 384 182 164 152 
190 461 510 151 152 161 
192 589 393 124 122 125 
306 38 425 95 88 82 
301 673 253 99 87 76 
286 376 497 74 99 137 
284 13 406 131 117 106 
219 951 498 199 149 126 
172 652 466 135 93 85 
272 720 338 93 109 129 
288 642 544 48 77 99 
281 672 598 41 68 115 
231 198 365 106 62 75 
229 656 603 69 82 98 
231 199 365 108 47 46 
279 824 535 200 136 111 
202 270 474 120 29 71 
271 844 465 162 115 91 
341 377 449 113 123 137 
225 200 361 128 50 48 
234 271 518 69 94 118 
176 622 521 95 86 79 
182 663 546 92 120 180 
289 400 390 146 123 98 
184 431 471 50 67 105 
160 437 456 44 78 114 
345 300 484 125 31 53 
225 203 362 128 62 46 
289 277 395 76 85 102 
317 487 482 116 136 163 
275 968 498 113 89 74 
290 734 304 82 95 111 
245 606 342 110 99 90 
238 249 509 126 116 117 
227 201 362 128 55 50 
246 865 466 143 92 33 
315 591 421 74 105 132 
193 334 489 70 77 87 
301 932 498 128 99 74 
195 664 553 129 158 190 
227 557 344 130 141 161 
290 641 325 61 84 103 
220 479 531 94 117 149 
176 587 497 130 145 167 
255 966 418 135 102 63 
225 473 333 110 134 180 
173 475 478 92 114 146 
332 64 436 153 134 121 
330 558 477 117 138 161 
281 878 490 149 107 75 
296 384 422 137 119 102 
252 824 450 184 126 108 
333 233 498 88 97 116 
364 424 460 99 129 163 
234 483 330 104 123 152 
306 409 427 126 117 112 
245 793 382 129 108 96 
231 732 558 137 142 151 
256 523 329 142 150 169 
295 842 360 185 165 155 
307 785 530 160 141 127 
209 645 574 67 69 77 
339 577 489 92 145 186 
230 297 368 140 131 126 
299 982 453 115 88 64 
247 1005 440 160 129 110 
354 650 517 141 149 162 
297 241 360 140 55 75 
160 554 461 65 97 140 
279 560 520 113 131 155 
293 178 333 50 70 124 
311 871 467 117 74 48 
215 209 489 78 51 78 
261 823 400 190 151 138 
286 384 374 144 114 75 
271 796 341 100 41 71 
274 386 370 117 40 47 
345 223 494 145 43 24 
272 86 497 102 86 71 
188 536 427 123 131 147 
221 301 503 105 115 130 
314 345 449 140 143 152 
165 434 470 82 71 71 
267 847 429 170 126 99 
311 53 437 132 113 96 
342 573 456 127 144 166 
228 732 575 41 30 70 
278 921 505 170 123 95 
221 669 368 163 161 167 
306 783 532 158 141 130 
304 261 464 89 68 70 
189 645 577 113 93 72 
181 473 499 125 133 148 
288 127 421 111 89 65 
280 900 414 78 62 48 
254 345 361 139 134 133 
262 808 378 180 146 122 
290 1006 430 207 170 137 
224 710 640 165 182 217 
204 343 369 151 121 88 
345 663 357 47 111 192 
269 48 497 80 65 50 
253 920 514 64 40 41 
300 354 435 95 106 119 
228 360 519 145 143 149 
357 618 410 101 141 175 
299 535 517 101 129 160 
247 805 395 134 101 97 
250 439 322 98 116 137 
236 972 434 96 73 58 
307 650 375 78 107 138 
230 204 367 122 53 67 
304 230 425 130 83 87 
265 644 286 113 93 71 
184 510 513 163 158 161 
164 484 460 55 87 142 
264 405 351 129 62 4 
324 475 473 155 155 161 
349 669 365 161 185 220 
306 789 531 146 135 130 
327 501 468 76 99 138 
325 330 455 90 118 143 
280 135 410 78 69 62 
249 965 506 139 111 95 
285 432 512 85 109 135 
232 195 365 48 58 101 
274 641 550 73 96 117 
242 811 469 179 128 105 
334 746 276 105 129 188 
238 622 536 65 80 101 
177 505 423 73 105 140 
289 995 419 129 91 65 
197 727 430 144 100 91 
240 265 363 169 161 160 
315 806 318 208 213 228 
265 131 517 113 117 124 
234 193 366 53 61 107 
329 584 430 132 139 152 
331 318 497 177 149 123 
208 694 638 82 106 175 
179 636 410 140 147 160 
303 651 393 90 118 150 
317 284 500 141 145 155 
195 295 507 110 47 66 
363 637 443 89 148 191 
235 194 367 57 67 107 
270 815 368 110 106 103 
201 405 518 83 110 144 
225 709 573 134 98 115 
205 281 479 112 116 125 
308 214 507 148 145 149 
260 878 433 135 101 68 
226 735 609 69 58 131 
311 63 492 85 76 68 
169 647 497 173 122 110 
232 199 365 104 56 62 
183 510 428 70 89 134 
297 408 411 124 68 1 
235 762 360 196 103 129 
209 645 571 72 72 76 
199 404 385 84 108 145 
290 108 511 98 88 81 
188 282 502 88 35 43 
262 25 442 97 88 83 
297 427 403 102 89 77 
340 790 396 175 64 61 
224 717 581 167 132 156 
217 663 370 142 149 167 
189 335 424 114 98 83 
335 714 253 138 153 187 
276 207 352 53 68 113 
248 577 347 125 125 130 
328 160 491 114 108 102 
304 608 531 144 147 155 
237 193 367 54 65 107 
320 637 407 98 116 138 
333 773 313 157 177 204 
259 520 534 123 123 150 
228 794 435 183 137 110 
205 468 395 115 127 151 
194 237 446 116 41 24 
344 210 499 70 62 95 
238 194 367 51 62 100 
206 564 374 120 133 150 
232 201 366 129 48 61 
240 623 554 87 110 133 
261 124 513 126 68 6 
349 650 459 80 137 179 
282 298 355 88 88 100 
291 311 353 100 120 142 
292 697 285 92 107 140 
314 960 463 118 97 78 
308 214 425 114 84 111 
340 764 436 180 30 57 
215 573 369 129 127 131 
235 200 367 96 58 93 
312 722 245 108 78 100 
347 756 426 89 98 152 
229 207 368 127 44 83 
280 130 411 79 69 60 
289 176 466 100 82 72 
250 208 508 74 66 80 
165 647 481 169 118 108 
293 453 362 121 108 96 
246 560 531 127 143 163 
212 751 370 174 22 57 
282 45 481 75 68 61 
210 667 545 143 174 205 
300 364 491 54 95 134 
248 724 348 132 149 170 
225 731 357 115 131 150 
246 536 334 146 147 162 
171 644 507 161 111 97 
323 768 517 162 136 110 
325 464 474 151 151 158 
297 421 375 175 150 125 
302 519 369 71 102 135 
275 363 508 76 100 132 
251 779 581 178 144 104 
175 502 496 165 158 159 
307 963 441 112 85 64 
238 396 340 80 96 112 
296 288 454 75 87 100 
268 823 389 188 159 131 
311 357 444 132 135 144 
332 759 505 110 108 109 
268 1009 462 97 75 56 
343 686 285 83 112 140 
237 199 369 49 68 116 
260 634 549 69 94 118 
323 832 465 192 143 113 
238 197 369 41 58 113 
355 545 460 92 130 163 
316 764 529 174 148 123 
158 579 440 110 137 172 
293 862 475 169 119 86 
332 544 441 88 120 150 
289 207 389 116 76 45 
307 241 501 154 152 158 
357 440 448 170 173 183 
295 628 513 66 77 92 
330 663 380 71 110 156 
255 800 377 22 29 45 
188 328 428 84 88 95 
190 289 507 112 39 57 
297 587 522 141 149 162 
290 714 596 155 36 47 
257 388 513 95 114 138 
233 204 369 126 50 74 
250 817 415 173 123 96 
224 901 511 200 150 134 
192 687 593 136 156 201 
325 686 244 107 94 83 
302 801 310 214 223 240 
200 672 503 128 160 192 
199 370 409 144 142 146 
191 284 508 78 119 151 
219 703 584 118 110 130 
232 792 403 160 133 113 
275 210 526 104 89 98 
163 578 452 87 105 137 
345 186 505 60 58 101 
229 904 511 180 132 117 
235 205 370 114 51 67 
173 468 471 72 88 126 
200 644 527 43 47 56 
298 306 400 138 140 148 
264 130 517 105 110 119 
213 235 501 103 22 47 
260 606 521 149 156 171 
236 200 368 88 65 106 
253 309 366 96 117 137 
268 776 343 69 63 97 
283 158 342 147 57 4 
265 823 393 166 151 143 
294 594 376 103 106 113 
246 806 494 198 143 116 
316 421 431 105 94 92 
304 862 473 185 134 100 
169 450 445 46 69 103 
274 343 356 173 151 130 
364 633 442 81 138 183 
311 483 506 145 155 171 
305 651 314 57 90 118 
258 650 570 40 64 93 
305 39 418 110 103 97 
197 449 521 155 156 164 
280 128 466 79 70 61 
283 640 288 111 99 88 
302 70 432 109 88 66 
262 914 405 93 76 63 
340 673 544 122 144 170 
280 359 344 194 163 130 
236 204 370 117 60 67 
283 337 410 132 124 122 
237 204 370 118 59 72 
319 751 270 182 196 234 
214 464 354 108 116 151 
196 693 617 124 125 181 
265 946 411 72 55 41 
309 129 508 123 51 3 
170 485 428 82 104 143 
255 644 317 176 120 102 
333 747 514 200 165 131 
194 516 419 162 159 164 
349 687 494 81 107 131 
225 699 363 123 138 156 
255 662 358 104 120 158 
238 207 371 130 47 52 
304 694 241 137 99 67 
162 540 458 108 126 158 
290 214 394 122 70 69 
184 427 473 73 90 117 
267 734 608 179 23 52 
202 515 527 92 110 151 
289 799 551 180 125 92 
185 410 423 76 104 142 
301 442 405 100 90 80 
234 623 337 153 107 90 
212 936 460 100 82 65 
254 197 508 49 70 90 
222 504 350 148 152 166 
349 509 450 108 131 157 
184 679 594 122 144 198 
257 422 519 106 121 139 
349 720 454 141 159 190 
332 744 273 167 170 201 
227 960 436 90 71 57 
302 360 434 109 108 112 
318 194 417 87 52 76 
226 548 344 104 128 154 
229 451 526 119 133 153 
261 819 492 185 137 113 
308 922 424 109 88 70 
268 329 380 94 98 105 
224 212 366 117 51 90 
226 736 356 117 133 154 
283 228 388 100 44 62 
305 348 487 103 117 150 
163 562 451 56 92 157 
284 626 382 63 82 100 
288 372 393 132 89 67 
225 778 386 148 141 165 
332 472 470 126 132 145 
331 261 485 126 122 128 
330 488 470 148 151 160 
311 211 405 72 53 90 
351 682 418 150 147 150 
343 612 499 124 148 177 
356 617 447 157 159 167 
268 480 330 126 140 161 
258 651 577 63 82 107 
214 274 425 117 116 121 
185 481 508 100 114 145 
258 77 432 109 84 68 
256 550 334 168 171 183 
186 334 452 74 116 148 
183 552 432 45 84 149 
295 343 388 145 29 57 
348 639 517 89 118 145 
333 881 463 121 93 70 
350 680 530 134 154 178 
182 679 585 121 142 200 
342 591 508 118 142 169 
192 450 422 129 140 158 
193 330 498 86 95 107 
174 381 466 75 80 89 
284 343 495 76 99 137 
272 35 439 103 88 76 
337 664 495 61 92 134 
306 339 486 108 127 153 
260 774 345 142 116 120 
336 785 438 145 126 112 
196 318 423 79 91 104 
279 113 449 91 74 56 
264 628 508 58 58 67 
231 682 645 116 134 160 
292 726 261 148 170 210 
303 339 486 128 138 157 
224 784 401 110 77 81 
343 713 389 97 121 175 
241 987 469 137 104 75 
335 594 423 88 122 151 
223 359 523 142 143 152 
182 532 431 98 109 138 
300 706 590 106 115 144 
302 696 290 65 82 123 
253 465 322 124 138 174 
279 404 371 162 132 98 
278 118 527 137 65 3 
348 758 424 128 140 167 
224 698 529 169 105 110 
333 466 471 122 130 144 
317 604 421 73 107 136 
340 620 487 113 141 171 
201 413 404 59 82 122 
205 355 367 154 124 88 
290 47 486 76 69 62 
309 835 349 202 168 161 
180 690 450 148 64 43 
287 586 519 126 146 170 
272 438 356 113 101 92 
198 372 390 93 108 132 
269 257 520 155 152 155 
269 452 344 95 105 122 
212 929 464 144 112 83 
312 841 373 230 214 209 
281 247 435 109 86 78 
291 170 522 92 104 118 
184 642 424 152 146 148 
202 404 519 89 113 144 
283 313 411 120 120 126 
270 213 527 125 24 67 
339 621 484 114 141 170 
350 660 362 97 127 160 
320 858 440 187 142 112 
308 291 460 106 105 107 
282 254 448 87 65 57 
216 632 523 57 68 78 
263 651 289 147 104 76 
229 214 372 108 52 74 
345 768 396 162 123 128 
229 215 373 114 37 79 
274 650 347 63 78 119 
298 189 472 77 42 30 
261 543 526 87 103 133 
298 30 434 98 82 65 
230 214 373 117 47 76 
307 623 521 73 83 109 
280 838 486 167 121 95 
220 530 363 129 133 142 
287 639 375 49 63 78 
218 649 547 45 59 73 
314 724 565 168 40 58 
357 712 441 193 190 196 
175 543 502 100 122 157 
319 550 407 68 96 137 
160 554 459 99 118 150 
206 436 370 148 150 159 
218 689 570 148 165 186 
259 382 338 129 110 92 
222 782 418 152 122 94 
194 687 480 98 145 184 
294 83 424 113 94 75 
198 303 411 100 88 98 
301 920 490 114 78 58 
221 292 367 89 110 132 
312 568 404 94 117 141 
339 532 443 122 139 158 
297 771 552 200 168 137 
301 199 341 137 31 53 
212 281 389 125 132 145 
286 618 379 51 69 87 
346 665 354 65 111 162 
197 697 610 84 122 195 
299 64 429 109 87 63 
204 283 477 92 108 125 
241 962 423 68 37 31 
173 694 458 136 100 62 
209 480 385 149 148 155 
334 562 483 157 160 170 
322 585 429 116 114 119 
306 764 279 230 218 234 
356 667 508 91 117 141 
227 591 528 136 144 167 
270 440 341 90 86 110 
299 839 353 116 117 125 
270 313 363 84 121 155 
266 371 368 99 90 90 
263 797 356 79 64 57 
288 390 499 55 87 131 
228 216 374 126 39 71 
342 685 286 104 127 153 
234 793 493 196 143 114 
257 876 433 140 109 76 
293 265 369 133 123 120 
299 248 361 163 125 134 
282 222 452 112 53 60 
257 493 536 90 110 143 
345 512 467 101 122 149 
225 339 362 142 119 98 
327 677 560 121 131 145 
331 663 380 77 114 157 
312 382 438 102 110 124 
300 774 291 136 138 187 
266 197 517 89 79 79 
319 452 477 147 148 156 
225 653 512 28 43 60 
313 444 480 138 142 155 
264 690 618 112 123 149 
179 368 481 96 30 49 
310 805 313 184 208 234 
351 601 449 157 161 173 
306 716 580 177 30 59 
360 686 427 101 110 124 
222 201 500 54 45 55 
271 810 554 195 135 104 
285 633 525 102 105 113 
279 497 351 57 88 122 
212 744 510 148 129 114 
252 782 360 150 112 109 
350 681 389 41 81 155 
346 509 450 116 134 155 
230 217 376 150 44 42 
330 802 348 176 39 73 
351 600 450 160 164 175 
343 607 503 132 154 179 
362 653 443 184 181 185 
301 965 431 121 89 70 
268 139 397 99 87 76 
359 505 455 60 89 118 
279 414 520 105 126 162 
212 338 513 133 70 90 
277 81 463 84 67 49 
257 862 476 121 82 49 
229 659 364 88 107 150 
353 425 445 144 150 162 
332 745 346 66 92 159 
271 107 511 112 102 95 
228 203 519 125 85 76 
286 229 363 112 78 79 
258 479 324 117 132 165 
219 278 492 75 74 76 
224 204 520 139 85 81 
217 668 539 132 166 199 
236 633 345 180 125 111 
205 299 490 51 64 76 
336 273 468 114 127 143 
157 480 458 49 79 120 
338 624 480 161 166 180 
350 754 418 161 173 191 
311 899 434 85 64 54 
170 438 466 101 88 78 
263 247 526 163 158 161 
233 208 371 123 53 71 
251 341 362 133 129 128 
193 200 474 70 39 34 
210 764 397 105 80 64 
225 976 476 84 71 63 
168 412 475 99 51 25 
297 456 514 63 94 133 
291 445 515 59 92 134 
284 821 538 200 134 107 
197 730 397 116 57 80 
297 569 522 130 149 171 
233 211 372 117 47 75 
325 595 524 167 168 177 
338 675 313 77 88 101 
305 444 494 148 150 162 
204 754 398 139 102 81 
265 358 349 123 95 58 
277 437 521 112 122 147 
319 297 498 101 121 143 
335 681 273 85 105 133 
293 602 524 144 149 160 
176 362 472 109 109 112 
233 212 372 118 43 77 
333 522 466 107 132 160 
242 903 426 130 67 24 
196 284 509 74 111 142 
232 214 373 128 47 78 
285 665 346 58 60 127 
197 447 410 60 83 114 
338 748 305 144 156 175 
256 759 345 125 82 96 
233 214 375 127 40 61 
276 632 331 63 60 60 
297 637 404 68 113 148 
278 633 327 66 62 60 
306 570 525 153 138 145 
252 437 520 140 144 154 
208 663 613 103 86 68 
235 212 374 135 47 62 
268 193 516 47 66 86 
292 903 404 91 73 54 
188 681 606 134 143 176 
234 214 375 133 40 54 
323 600 526 166 171 186 
300 669 302 75 97 122 
210 507 395 96 112 141 
203 735 381 138 79 89 
298 796 540 169 125 90 
237 208 371 123 49 61 
290 896 418 99 73 46 
285 85 459 83 54 38 
209 444 360 159 160 168 
315 558 401 52 89 133 
279 45 436 101 85 72 
165 617 460 151 169 192 
297 859 477 185 130 99 
179 610 416 147 149 159 
310 574 413 87 90 97 
173 538 490 123 130 158 
343 345 454 158 158 164 
185 605 399 99 113 130 
195 722 433 131 120 110 
235 913 419 106 87 67 
310 436 483 82 101 145 
206 705 623 162 180 208 
305 501 379 129 140 156 
235 320 524 177 129 65 
245 228 512 71 93 112 
207 711 609 164 187 215 
269 814 550 197 138 113 
166 431 456 38 66 96 
211 473 362 166 166 174 
248 342 362 132 128 128 
227 463 330 133 138 153 
193 280 496 108 101 97 
265 803 358 77 87 97 
236 214 375 144 33 49 
192 693 469 125 97 71 
294 777 552 184 170 163 
171 402 473 105 86 63 
193 683 398 97 112 128 
353 664 507 107 99 108 
246 621 315 106 90 74 
288 699 253 142 100 67 
277 521 349 84 111 142 
208 262 478 89 63 80 
329 669 314 96 109 125 
193 298 463 111 97 85 
290 696 599 42 42 54 
155 539 438 85 108 164 
215 238 429 101 13 41 
320 659 291 65 105 137 
277 471 353 81 102 124 
237 216 375 155 32 30 
301 213 508 144 141 144 
309 656 330 73 102 129 
271 135 404 92 80 68 
214 772 401 120 87 91 
341 679 370 115 129 165 
294 716 284 68 84 128 
339 740 448 168 68 78 
223 713 530 134 59 80 
335 808 430 160 139 120 
238 218 374 154 36 11 
240 238 507 69 88 108 
238 698 357 127 127 134 
213 298 372 119 119 123 
316 903 465 122 91 69 
239 219 374 152 34 12 
237 220 375 152 34 17 
244 193 498 30 25 24 
289 133 474 84 68 50 
343 186 506 42 60 113 
199 737 414 176 72 51 
350 556 457 112 137 164 
188 406 477 71 93 128 
279 252 442 110 65 63 
241 648 536 35 51 74 
256 310 512 125 141 163 
269 798 344 130 52 47 
172 695 462 182 128 46 
326 409 435 99 105 114 
207 704 486 147 66 71 
338 800 395 165 124 114 
225 641 362 170 104 95 
319 882 451 125 87 68 
252 218 515 93 61 75 
291 79 418 124 101 78 
319 810 327 190 204 226 
300 951 424 118 95 71 
309 447 484 154 155 165 
288 222 392 115 41 61 
255 369 351 127 111 98 
343 700 536 159 171 187 
181 634 415 166 161 164 
252 762 346 152 42 42 
214 654 597 80 73 67 
338 622 480 138 156 178 
287 974 415 126 106 88 
290 386 389 126 14 54 
293 738 316 46 65 94 
279 216 524 133 132 137 
278 687 267 150 104 74 
267 353 505 109 122 139 
320 169 415 129 114 104 
221 970 467 89 71 58 
216 328 516 124 120 129 
185 442 421 86 111 139 
197 460 407 62 82 120 
290 199 349 109 44 57 
294 89 478 100 75 57 
234 220 377 159 33 18 
192 712 473 141 60 25 
171 361 488 164 139 114 
338 631 395 68 111 148 
168 559 475 157 159 168 
250 701 634 116 140 166 
243 429 326 64 90 122 
267 972 499 113 91 76 
153 524 450 108 123 149 
314 209 478 91 41 35 
337 788 431 122 120 127 
192 211 471 44 55 86 
275 86 463 84 67 48 
343 228 492 134 36 14 
321 815 494 192 137 106 
200 265 512 142 60 94 
341 430 478 134 151 173 
326 661 384 59 108 155 
169 663 528 142 161 198 
285 909 401 67 50 41 
335 819 389 155 136 126 
268 648 332 47 62 84 
285 221 387 116 52 70 
359 441 453 45 93 147 
288 644 343 32 64 87 
281 843 413 190 140 116 
291 769 300 108 120 161 
240 192 367 51 55 82 
348 707 411 89 113 137 
296 484 364 58 98 158 
291 966 425 135 105 74 
268 875 434 132 100 66 
304 125 523 110 51 15 
325 843 457 196 149 117 
200 238 505 94 78 80 
283 786 319 123 141 163 
170 475 428 88 111 141 
300 156 424 101 92 84 
214 543 370 117 130 147 
215 238 425 101 13 42 
306 963 481 112 90 72 
294 916 407 79 64 54 
318 484 494 172 170 177 
191 695 467 147 121 98 
266 513 336 76 101 146 
325 800 491 162 152 150 
227 710 545 151 27 50 
328 139 518 153 66 5 
207 598 523 161 161 167 
320 226 508 151 149 154 
225 248 384 116 113 114 
168 560 475 146 154 168 
341 691 486 112 128 147 
264 26 491 97 82 66 
170 624 500 97 89 86 
245 615 320 111 100 91 
224 697 559 106 137 162 
231 670 364 112 120 144 
196 237 444 73 21 29 
261 29 467 60 47 41 
310 858 415 202 155 116 
288 230 395 81 50 64 
345 472 471 126 137 153 
227 282 509 120 124 133 
