ply
format ascii 1.0
comment Created by CloudCompare v2.11.1 (Anoia)
comment Created 2/28/22 9:37 PM
obj_info Generated by CloudCompare!
element vertex 2015
property float x
property float y
property float z
property uchar red
property uchar green
property uchar blue
end_header
186 709 410 175 145 117 
281 136 443 70 51 30 
350 456 440 158 171 188 
262 132 510 58 74 92 
259 125 470 76 63 51 
267 329 387 133 116 98 
333 285 476 122 20 45 
196 273 409 98 107 121 
274 674 364 45 69 116 
194 357 462 59 73 90 
308 714 250 158 111 87 
333 589 531 163 162 169 
305 520 531 90 114 148 
182 412 407 76 102 141 
354 677 383 135 157 186 
157 392 447 144 121 99 
232 542 536 59 87 148 
210 261 354 108 102 99 
292 674 296 110 89 86 
317 801 505 193 136 105 
362 687 483 68 130 175 
209 667 528 129 169 206 
249 779 574 143 148 161 
214 342 333 108 118 130 
260 611 528 122 123 130 
318 728 262 153 148 214 
226 457 544 108 127 156 
247 782 372 154 132 104 
306 777 530 131 122 121 
261 51 411 109 88 63 
346 481 484 161 162 170 
225 948 513 194 149 127 
254 10 426 118 104 98 
291 737 280 141 147 170 
201 207 413 34 52 83 
263 36 466 79 68 58 
283 737 317 112 116 124 
231 280 451 88 100 114 
356 680 457 131 154 181 
314 921 512 147 121 96 
328 258 467 75 108 139 
285 720 280 121 135 160 
242 979 475 89 71 58 
238 466 541 139 144 155 
223 225 478 58 30 36 
316 371 458 89 97 123 
267 333 349 133 74 70 
270 342 388 137 118 98 
327 492 511 136 146 163 
234 143 482 94 89 88 
275 148 351 140 65 2 
248 727 358 117 125 137 
254 11 431 117 103 98 
348 702 427 161 167 179 
225 274 353 122 121 123 
255 11 431 116 103 97 
159 383 467 157 137 118 
222 282 349 86 84 87 
176 327 471 135 117 101 
202 484 374 184 176 175 
193 567 534 113 132 158 
237 601 332 132 108 84 
226 535 350 112 127 150 
239 538 341 153 159 181 
269 739 594 82 55 106 
343 498 492 124 140 161 
353 637 446 96 142 179 
218 662 635 60 70 84 
181 379 356 76 111 141 
248 15 433 111 99 93 
361 597 424 94 138 178 
248 15 434 115 102 96 
346 579 426 131 150 172 
340 724 380 108 121 154 
299 159 373 116 129 145 
350 487 470 129 139 156 
321 506 407 106 124 148 
160 578 469 105 129 162 
363 636 491 156 158 167 
351 715 335 36 81 127 
294 900 501 171 126 98 
179 617 413 95 77 96 
162 390 447 123 104 85 
270 239 464 82 63 60 
345 548 428 99 123 152 
169 456 466 93 115 152 
305 491 525 169 168 175 
186 425 370 118 130 159 
170 492 428 85 96 117 
285 702 258 170 117 87 
269 207 350 152 73 69 
207 621 380 122 84 67 
254 692 370 72 90 120 
283 203 477 110 44 52 
262 459 354 116 123 136 
173 662 590 97 115 166 
251 15 437 116 102 95 
225 473 545 164 166 175 
287 182 433 87 55 33 
274 892 516 156 112 84 
280 978 494 92 73 55 
261 365 368 115 44 59 
198 159 449 153 67 2 
307 146 411 115 104 94 
255 11 432 116 102 96 
316 772 301 161 168 222 
254 751 598 162 149 141 
258 265 440 70 95 111 
342 368 445 61 94 134 
256 54 461 85 68 49 
227 452 544 80 110 151 
183 258 457 87 58 57 
183 669 616 97 120 161 
181 501 406 100 121 160 
302 172 379 125 101 85 
219 747 529 160 120 84 
174 347 397 149 61 101 
354 354 447 89 119 168 
285 652 359 78 74 102 
314 762 519 134 97 69 
265 340 349 126 47 50 
259 146 512 97 95 97 
285 659 265 100 85 70 
335 799 399 158 141 131 
263 252 533 138 135 138 
201 495 541 138 143 155 
164 416 446 58 89 121 
265 833 431 176 127 105 
236 343 519 126 42 68 
205 281 346 80 132 176 
307 915 431 62 47 39 
189 696 399 133 152 175 
324 829 457 181 137 102 
230 949 443 104 83 69 
269 617 333 71 66 64 
214 306 485 87 105 125 
312 377 502 82 109 145 
279 120 429 91 74 56 
248 896 447 128 94 54 
336 600 522 89 130 172 
282 510 535 118 139 165 
265 461 357 37 79 113 
346 612 419 75 122 159 
254 14 440 114 100 94 
174 479 503 160 157 160 
299 953 437 130 100 71 
297 869 425 131 104 78 
255 15 441 112 99 92 
269 314 438 75 90 107 
316 445 513 166 163 167 
356 609 507 53 100 145 
268 319 406 140 127 115 
302 844 410 133 113 95 
318 851 446 187 141 113 
310 195 494 101 50 51 
164 642 460 170 119 110 
357 697 355 124 145 169 
259 796 355 165 122 116 
215 202 397 73 69 68 
201 570 534 135 146 163 
245 644 620 72 118 158 
324 453 507 133 141 156 
214 676 553 185 103 126 
241 17 421 115 87 69 
189 669 499 93 131 164 
286 841 413 206 152 128 
223 305 485 112 117 126 
197 383 463 93 90 98 
345 620 507 112 128 156 
170 637 558 131 104 80 
276 890 433 71 55 42 
246 970 511 103 84 67 
332 801 442 145 118 96 
216 244 470 63 54 62 
197 739 402 112 37 52 
303 447 426 118 122 131 
216 256 340 125 129 136 
229 554 534 127 137 159 
272 215 470 85 52 52 
246 656 602 97 105 117 
281 91 504 89 76 63 
264 298 372 133 131 135 
243 136 493 88 97 107 
240 20 416 158 113 94 
297 196 387 115 94 105 
357 536 448 124 136 160 
198 163 469 85 70 62 
328 653 380 77 115 148 
238 962 514 105 86 74 
287 272 531 90 107 135 
337 474 434 124 138 160 
281 907 512 155 115 90 
311 926 503 87 65 60 
354 658 506 102 98 127 
320 259 494 161 160 165 
159 357 451 175 150 126 
332 789 369 161 116 123 
202 724 506 98 84 80 
171 472 434 57 79 117 
154 445 444 53 89 151 
175 408 442 69 77 100 
328 591 420 77 112 140 
241 297 510 124 121 124 
190 673 574 166 183 207 
208 675 386 48 66 114 
181 262 383 135 136 144 
257 755 358 113 125 141 
297 708 300 47 67 98 
220 649 383 71 75 82 
343 435 435 112 133 162 
351 364 439 61 109 150 
189 674 487 100 142 178 
234 796 418 138 120 112 
348 549 425 128 140 156 
197 467 368 168 164 169 
301 186 520 40 80 108 
333 693 273 47 87 149 
159 579 467 81 108 157 
246 22 418 176 150 147 
321 678 262 99 86 74 
243 314 346 144 138 137 
203 485 370 156 157 168 
299 678 577 149 158 172 
274 643 584 81 103 126 
252 946 425 90 68 48 
325 62 469 121 114 109 
244 618 541 77 99 120 
200 375 341 78 108 135 
297 586 394 61 91 121 
196 190 489 108 38 56 
199 700 384 101 114 130 
255 639 314 172 121 101 
265 168 522 101 67 68 
165 508 472 93 116 155 
186 561 532 138 144 157 
230 914 439 100 72 49 
270 440 526 113 121 154 
269 568 355 25 65 104 
334 613 408 109 124 142 
246 22 421 168 146 142 
336 334 462 101 129 162 
237 703 367 111 116 126 
247 23 420 173 151 147 
262 895 440 102 79 47 
276 93 506 82 69 56 
339 750 420 156 167 184 
237 563 352 149 154 171 
293 838 372 147 126 115 
300 711 251 183 124 94 
237 609 331 162 114 97 
207 503 543 100 115 151 
293 719 350 108 124 142 
296 63 477 92 74 54 
337 779 412 173 134 108 
181 272 456 91 97 105 
260 68 442 94 76 61 
278 115 420 89 72 54 
304 152 375 168 79 6 
177 674 414 48 60 140 
347 428 445 130 146 168 
290 94 438 110 90 69 
258 619 307 102 92 83 
178 450 471 70 78 110 
189 707 432 191 145 87 
228 935 440 80 64 58 
289 148 520 110 113 121 
290 396 436 126 78 44 
350 481 438 87 121 165 
349 592 420 140 152 170 
182 435 409 89 110 138 
245 809 433 193 138 114 
228 296 342 85 108 133 
315 408 446 64 87 114 
252 370 332 127 110 96 
228 318 449 107 114 124 
336 749 305 181 184 200 
315 168 499 133 12 16 
195 690 634 130 148 192 
186 615 511 39 67 88 
306 184 516 69 102 129 
266 429 362 118 104 93 
233 772 551 93 116 139 
319 338 457 139 143 152 
223 408 539 60 97 135 
233 617 536 69 92 114 
197 384 488 108 105 107 
331 477 504 165 163 168 
321 921 455 97 76 60 
161 531 461 97 117 151 
169 670 474 98 86 77 
310 556 418 141 135 133 
319 722 258 74 127 209 
240 221 491 83 43 74 
274 14 404 176 146 129 
180 573 426 81 97 116 
258 465 334 117 133 154 
269 620 536 43 48 54 
185 664 538 157 169 188 
228 961 505 88 71 60 
159 600 458 106 139 175 
179 332 461 80 66 61 
316 834 387 139 121 105 
233 224 484 70 34 46 
280 24 402 181 154 140 
265 808 369 111 80 82 
290 318 460 69 75 88 
290 569 379 134 132 136 
175 345 462 105 82 60 
271 855 484 135 100 72 
290 625 556 94 110 128 
357 173 495 39 52 83 
219 165 467 70 63 58 
285 837 489 165 117 91 
252 786 369 133 155 179 
275 750 582 149 134 126 
174 332 356 165 128 77 
345 550 428 80 113 148 
309 892 452 79 60 49 
238 229 486 105 15 47 
309 911 433 71 60 50 
277 776 329 121 138 158 
266 929 420 60 48 37 
262 701 365 38 65 100 
182 419 412 68 91 138 
245 20 428 122 111 109 
268 744 592 137 128 125 
245 311 520 135 121 108 
294 266 522 78 123 157 
308 119 523 116 127 140 
279 199 438 30 54 74 
359 605 419 123 150 179 
246 20 430 107 92 86 
241 250 509 143 137 138 
251 679 371 113 115 129 
343 463 468 157 156 161 
268 302 347 122 141 162 
178 366 434 129 124 124 
252 625 581 63 100 134 
262 659 365 87 100 137 
288 191 419 91 83 90 
313 146 517 61 66 90 
250 622 573 98 119 140 
268 517 355 111 122 138 
351 317 459 170 79 107 
196 605 398 112 84 80 
175 399 441 91 95 105 
309 645 344 35 66 105 
247 24 425 125 108 100 
349 671 395 89 105 135 
263 764 587 161 142 126 
263 54 441 91 74 59 
334 106 506 146 132 120 
352 504 471 94 112 149 
299 662 303 110 112 128 
235 975 486 82 64 56 
313 906 440 92 71 56 
231 650 608 85 96 111 
209 707 598 166 30 54 
329 709 258 127 144 181 
338 537 434 96 123 150 
347 691 405 105 109 126 
322 370 472 85 113 145 
216 283 478 88 82 90 
326 615 516 121 90 108 
250 860 464 107 83 51 
251 23 416 181 155 152 
339 762 426 127 135 161 
308 640 379 103 106 112 
239 882 456 117 90 57 
148 443 452 58 93 148 
259 365 334 137 131 130 
287 890 500 157 117 87 
249 24 419 177 154 147 
177 671 441 171 99 45 
212 761 421 152 128 105 
181 336 440 68 90 110 
270 206 353 160 79 62 
281 367 535 134 146 163 
250 25 419 175 153 149 
234 314 504 129 27 65 
167 419 447 59 75 109 
213 763 423 152 123 99 
213 649 596 64 73 84 
317 287 464 103 109 119 
212 656 617 79 70 63 
257 13 472 83 70 58 
210 217 464 57 39 34 
229 867 501 147 114 89 
209 568 383 88 117 144 
305 361 503 63 105 139 
331 570 527 97 133 163 
257 1000 469 120 89 65 
241 620 595 38 64 86 
323 231 482 107 34 45 
185 461 516 152 150 153 
291 158 430 112 65 43 
179 687 456 157 76 18 
208 317 472 84 87 94 
204 740 376 195 160 160 
169 699 471 164 78 23 
312 620 532 83 67 81 
175 588 509 163 160 164 
308 144 517 63 82 108 
290 191 526 134 101 93 
279 915 399 70 54 43 
293 157 362 138 150 165 
253 24 416 178 154 150 
275 801 333 78 101 132 
186 734 486 144 126 109 
240 403 323 94 117 147 
178 608 504 122 115 121 
283 977 425 103 81 55 
174 612 427 104 125 148 
298 724 339 53 76 130 
266 307 379 103 113 126 
261 962 430 122 86 37 
244 655 601 96 104 117 
231 319 457 95 107 123 
337 784 440 175 119 68 
242 775 371 79 75 89 
163 535 457 139 149 168 
232 678 645 101 132 168 
270 498 356 97 119 144 
311 637 397 42 85 116 
302 990 467 126 97 69 
210 551 378 134 140 153 
255 26 418 156 140 132 
298 388 512 47 82 133 
288 102 446 114 89 69 
215 745 522 151 113 72 
171 488 427 113 117 127 
162 502 445 58 83 133 
187 558 533 100 116 142 
269 60 501 122 103 85 
166 338 451 126 127 132 
253 565 350 64 87 113 
163 467 443 73 101 158 
173 388 381 72 98 132 
319 689 551 119 136 166 
265 24 484 83 71 59 
306 477 408 86 101 118 
312 667 272 96 84 73 
219 721 580 150 129 109 
351 703 502 150 181 212 
219 212 386 71 68 69 
210 358 473 67 83 100 
215 628 548 70 91 112 
341 210 476 129 32 18 
254 28 422 155 134 125 
256 517 335 113 133 174 
317 756 514 142 120 98 
296 433 521 157 159 168 
306 674 344 86 103 141 
200 433 346 153 156 167 
234 249 462 58 90 116 
183 599 408 99 112 129 
309 848 418 218 169 130 
259 576 529 144 157 175 
182 643 415 128 81 92 
164 655 548 104 124 159 
231 146 452 71 57 41 
315 589 531 91 142 181 
356 686 456 119 155 187 
252 796 382 192 173 160 
261 762 589 155 137 124 
293 150 356 165 68 5 
229 623 581 44 69 114 
249 26 425 118 109 108 
301 542 391 86 105 128 
326 506 413 133 143 159 
242 807 461 184 130 110 
193 230 477 94 84 87 
357 623 508 115 134 178 
178 314 402 162 118 64 
285 303 459 75 98 123 
239 238 486 115 101 102 
194 736 443 163 149 139 
340 773 454 155 140 130 
317 944 460 97 74 56 
177 440 427 47 76 121 
313 104 517 123 107 93 
332 179 494 45 41 50 
254 802 386 165 139 116 
287 223 477 52 52 60 
245 874 517 137 108 86 
249 25 428 148 132 125 
187 727 454 80 83 95 
256 210 457 41 68 87 
309 871 448 186 142 108 
224 354 510 118 52 77 
185 287 452 97 99 106 
272 115 515 128 69 5 
194 639 553 76 72 70 
171 349 386 82 104 129 
161 344 464 169 146 125 
292 391 441 133 56 10 
274 795 557 188 125 95 
299 353 457 99 115 133 
208 263 356 107 104 104 
195 278 350 100 114 129 
289 643 297 84 75 68 
279 948 430 110 79 53 
330 417 447 40 77 128 
276 660 303 140 95 79 
228 385 324 51 85 113 
303 910 422 69 54 42 
279 674 261 140 102 67 
260 420 353 110 96 81 
297 831 351 165 135 122 
283 484 366 103 113 128 
335 148 498 142 34 13 
164 597 441 114 138 172 
352 728 450 156 162 173 
255 758 358 81 101 121 
281 750 345 97 108 122 
309 757 530 149 119 84 
283 633 569 128 131 139 
315 494 431 72 102 138 
201 701 605 137 158 181 
293 462 396 94 107 122 
170 490 499 108 119 143 
243 617 550 58 91 118 
256 144 393 109 87 71 
345 749 322 130 159 195 
189 700 425 180 125 44 
298 998 463 123 92 69 
316 653 329 110 131 159 
148 500 446 124 142 166 
274 108 455 74 55 43 
251 997 465 114 77 62 
284 771 562 150 145 146 
346 706 334 70 105 133 
320 767 504 174 149 125 
250 779 355 202 153 114 
296 652 311 90 113 150 
316 497 520 99 115 140 
271 820 357 88 108 132 
152 545 444 96 121 149 
349 487 473 151 152 160 
314 672 560 152 156 166 
212 381 449 97 99 112 
254 30 427 143 131 126 
213 932 485 162 124 96 
353 588 481 112 64 70 
255 31 426 115 102 94 
265 832 450 171 118 102 
203 444 344 134 147 169 
224 593 359 108 98 91 
253 28 429 149 126 126 
199 426 515 50 85 129 
253 29 429 152 135 129 
327 364 457 120 136 158 
356 699 495 168 183 204 
259 592 531 135 146 164 
317 135 521 58 79 108 
313 398 505 98 121 147 
221 721 623 150 128 133 
256 956 428 120 89 48 
272 971 423 102 80 53 
219 648 383 61 71 82 
254 30 428 145 131 124 
344 150 514 55 43 61 
189 289 457 69 73 79 
311 659 313 56 84 129 
219 388 524 66 95 126 
218 652 381 79 80 91 
254 31 431 140 128 122 
274 749 351 103 112 124 
246 16 433 126 118 117 
330 682 277 39 86 139 
174 619 521 90 83 79 
290 777 305 95 104 160 
199 672 495 129 163 196 
328 122 496 146 128 110 
250 705 366 76 91 110 
221 881 481 146 106 78 
246 722 621 163 179 195 
246 19 433 119 103 97 
185 687 430 141 107 65 
258 973 428 112 91 71 
282 29 445 112 95 85 
191 614 398 118 87 74 
236 800 432 191 138 115 
299 991 470 128 97 74 
211 751 511 144 144 146 
342 324 453 165 126 74 
342 736 312 59 90 141 
184 673 575 134 162 202 
287 318 527 159 153 155 
242 642 374 92 96 110 
161 633 466 134 125 142 
179 369 414 75 98 140 
337 610 412 126 129 136 
282 413 410 113 60 5 
246 440 323 105 121 144 
355 586 446 178 175 180 
275 98 478 88 70 49 
289 502 375 78 107 135 
303 141 499 112 99 91 
317 348 454 127 133 145 
187 744 466 192 143 98 
212 427 534 58 88 129 
231 615 579 84 104 123 
207 188 451 32 34 37 
249 19 436 131 117 110 
311 410 508 110 126 146 
288 756 299 181 175 180 
274 530 358 135 142 155 
308 805 324 218 224 238 
282 913 512 121 88 68 
262 113 506 120 72 38 
306 655 294 102 111 129 
327 519 427 111 125 145 
199 703 494 130 88 96 
335 468 426 98 115 147 
295 968 492 91 73 63 
356 677 456 161 167 181 
292 637 315 74 105 164 
234 265 453 66 93 116 
267 190 341 122 46 47 
335 394 449 39 81 125 
233 543 535 104 128 159 
249 614 527 75 95 118 
338 385 458 39 85 145 
267 258 420 93 30 51 
272 359 387 145 128 113 
319 760 508 146 122 98 
166 297 458 85 82 89 
285 521 366 98 122 149 
329 406 495 97 113 130 
294 661 265 98 87 78 
227 336 504 109 75 93 
327 787 334 149 171 205 
301 695 348 134 136 145 
268 294 358 80 109 135 
321 679 257 107 93 80 
187 698 429 139 105 64 
239 498 332 144 154 177 
197 206 463 71 8 30 
255 981 446 99 76 56 
244 186 495 93 32 46 
321 795 331 165 182 211 
325 419 500 122 136 154 
283 63 504 120 99 79 
336 252 485 150 152 160 
207 394 462 76 75 83 
174 400 381 70 94 137 
279 992 480 159 130 102 
164 648 483 155 105 94 
291 569 535 174 173 180 
203 318 467 70 74 81 
253 17 438 122 105 99 
313 208 513 143 122 122 
296 647 301 98 87 81 
157 552 447 62 86 125 
292 679 251 121 93 61 
322 410 501 132 143 158 
292 265 525 77 118 150 
340 569 517 110 139 167 
238 645 633 59 97 139 
313 905 496 114 93 78 
334 435 457 90 116 158 
170 574 505 154 156 166 
203 642 393 125 85 69 
353 709 449 176 176 184 
169 457 466 93 115 150 
216 373 448 125 123 126 
334 792 388 142 41 48 
353 139 499 83 44 31 
269 413 371 132 95 47 
161 312 457 83 98 116 
238 251 452 58 90 116 
287 661 588 171 166 168 
187 743 466 177 134 87 
197 697 604 152 179 209 
290 692 356 89 102 132 
218 896 473 153 116 86 
254 22 439 127 112 107 
241 369 534 59 94 129 
262 365 543 77 119 159 
261 11 411 184 135 118 
234 786 497 197 143 116 
301 774 297 121 132 218 
328 145 502 109 107 106 
331 540 518 169 164 167 
177 477 413 124 128 138 
194 396 489 83 93 107 
354 651 403 75 115 147 
206 313 467 76 78 85 
226 932 444 77 59 54 
306 139 395 113 102 95 
189 710 438 63 68 119 
213 712 527 93 87 90 
306 325 465 95 117 139 
341 449 478 126 139 156 
228 751 550 151 131 116 
259 435 534 85 96 136 
316 920 514 152 121 94 
254 22 440 122 107 102 
186 654 411 77 117 149 
158 336 456 140 141 149 
284 440 393 101 89 79 
255 23 441 118 102 93 
305 128 503 140 65 19 
209 589 528 118 137 162 
288 742 341 91 104 125 
222 954 504 172 129 108 
177 461 400 71 99 144 
252 765 590 217 179 139 
356 160 503 99 47 67 
355 148 503 85 43 68 
228 906 454 94 73 48 
250 24 435 135 111 111 
250 25 434 145 122 121 
234 653 372 73 80 97 
263 20 479 85 72 58 
251 25 435 148 129 126 
273 264 393 70 99 123 
295 840 398 167 158 157 
264 419 535 107 132 163 
240 272 358 109 109 113 
351 531 425 130 145 164 
320 350 489 73 112 145 
190 370 464 109 68 75 
248 728 616 164 133 146 
184 703 454 76 70 88 
165 324 467 113 121 133 
252 27 433 149 130 124 
288 832 353 107 95 106 
338 359 456 83 113 155 
271 516 535 65 93 148 
335 762 374 169 167 177 
253 27 435 147 131 124 
182 735 476 170 151 140 
331 683 317 81 109 139 
342 547 504 169 169 177 
335 793 437 181 169 163 
197 575 386 163 161 167 
178 363 358 137 136 144 
247 577 528 186 177 176 
231 600 341 137 108 87 
227 768 536 140 130 123 
285 916 415 60 48 38 
270 50 410 117 92 61 
154 402 461 138 116 91 
217 615 363 156 104 92 
319 336 481 143 148 159 
293 479 530 119 138 162 
198 360 491 140 115 92 
355 573 456 78 108 167 
202 753 496 156 158 166 
225 420 326 77 104 132 
263 373 370 112 26 53 
319 263 476 137 59 6 
332 740 502 157 144 137 
330 320 460 134 140 155 
232 312 339 102 109 120 
236 801 441 193 139 117 
255 465 533 109 117 146 
218 400 529 51 83 118 
297 872 427 119 99 80 
347 621 507 120 132 159 
274 274 387 68 91 112 
261 462 531 125 134 156 
270 152 355 133 62 7 
307 62 496 136 130 126 
319 769 300 146 154 196 
243 538 342 145 152 171 
277 224 358 76 71 76 
202 596 389 157 102 100 
276 386 414 136 118 99 
279 640 280 104 93 84 
281 683 289 147 97 84 
234 145 480 99 65 56 
253 30 435 147 132 126 
342 199 500 147 31 41 
220 203 391 53 65 77 
339 679 343 69 93 123 
305 47 448 105 93 82 
214 296 344 87 112 134 
250 282 358 100 89 92 
328 175 497 92 35 33 
331 126 499 168 66 3 
280 946 427 109 84 58 
328 775 317 145 175 209 
345 348 455 81 114 149 
216 904 491 154 121 101 
317 635 546 149 151 160 
321 365 460 103 116 139 
255 29 438 137 123 117 
168 586 484 91 120 168 
242 209 497 27 54 101 
270 908 421 68 54 42 
184 479 522 95 112 141 
239 768 365 183 123 49 
243 365 538 74 106 139 
269 379 377 123 22 55 
190 323 421 81 77 76 
255 24 440 128 110 103 
288 647 275 105 94 84 
178 298 470 135 136 144 
327 286 463 87 115 139 
223 954 457 95 78 67 
253 670 617 125 137 161 
270 135 407 110 93 75 
303 475 414 115 125 139 
255 54 414 104 84 62 
268 140 393 115 95 76 
319 918 451 78 60 55 
248 426 324 79 105 140 
295 608 408 64 97 126 
324 699 248 165 121 95 
280 20 402 175 151 136 
335 278 478 126 39 67 
294 839 391 222 205 196 
187 729 455 94 76 60 
267 301 535 149 148 154 
313 191 514 63 100 128 
294 219 483 47 38 49 
248 988 455 136 109 80 
228 137 436 79 68 58 
260 981 499 107 89 73 
248 619 561 100 118 137 
264 40 468 75 63 52 
225 674 373 147 145 149 
350 403 435 102 133 176 
317 683 245 108 89 69 
324 187 497 40 50 76 
254 58 414 101 83 62 
328 878 485 109 89 74 
226 607 347 146 106 87 
259 93 445 95 77 60 
237 800 427 185 136 108 
314 862 452 189 145 113 
300 200 384 88 90 109 
208 712 609 148 152 169 
272 844 477 133 92 67 
257 558 349 121 133 152 
334 471 420 101 121 154 
338 450 459 93 122 157 
306 900 395 87 72 66 
206 674 651 92 70 61 
192 418 508 94 110 127 
186 266 448 111 65 3 
252 63 415 98 81 63 
210 370 453 107 110 118 
316 274 476 116 99 80 
337 731 299 149 152 163 
247 570 354 41 47 58 
243 269 360 117 114 114 
315 754 519 167 145 127 
347 554 425 96 122 148 
332 684 296 86 117 161 
225 322 445 90 87 99 
316 234 507 112 125 142 
180 359 439 127 121 121 
267 820 395 123 101 82 
301 797 315 165 179 227 
270 186 527 127 84 77 
189 277 459 72 68 66 
162 645 481 174 119 108 
221 731 582 100 84 72 
274 989 482 116 87 67 
247 657 365 70 102 148 
304 507 402 86 99 113 
353 586 418 116 144 174 
170 661 580 41 87 155 
197 739 410 129 111 103 
354 623 475 181 178 184 
186 620 512 64 62 63 
349 673 411 178 178 188 
275 235 402 59 63 78 
276 249 383 127 97 105 
299 978 479 116 95 72 
237 933 427 96 73 55 
240 622 344 176 116 103 
264 24 478 80 68 57 
327 399 475 115 126 146 
170 468 437 54 79 116 
252 615 526 76 84 98 
182 597 412 122 127 136 
245 597 347 111 100 91 
326 725 522 73 44 102 
271 1005 466 83 64 42 
234 133 419 81 73 66 
333 700 526 147 165 186 
147 466 450 99 126 161 
254 33 431 107 88 72 
291 385 441 94 112 130 
301 674 349 64 94 136 
228 167 401 80 56 50 
192 379 347 71 106 136 
335 310 461 140 145 158 
350 487 466 116 128 146 
323 741 275 125 147 182 
326 829 403 193 167 145 
294 838 381 220 177 127 
252 639 358 172 172 182 
244 894 447 113 80 27 
217 943 467 94 76 63 
241 379 546 80 107 141 
278 543 361 42 50 61 
209 705 518 151 118 114 
308 920 490 118 85 70 
320 852 457 194 144 116 
286 717 285 79 93 135 
271 339 429 106 104 106 
193 661 619 110 90 68 
255 39 425 106 85 61 
293 90 487 101 79 62 
277 224 411 41 36 38 
162 449 443 58 91 135 
357 666 463 169 171 182 
340 459 457 82 116 153 
275 126 475 81 69 57 
255 683 618 117 134 156 
295 826 505 200 147 114 
237 283 350 97 111 125 
340 586 523 124 146 171 
177 451 487 57 82 124 
334 766 476 38 32 46 
238 755 594 82 72 82 
181 296 453 95 102 111 
210 573 382 68 112 145 
268 294 350 151 148 154 
178 324 469 120 107 94 
183 659 530 147 159 178 
272 487 537 124 137 157 
278 676 598 49 70 113 
305 320 503 111 126 145 
180 350 434 141 134 134 
255 39 431 103 82 59 
328 415 467 78 106 145 
255 41 422 102 82 60 
316 657 345 34 57 74 
271 849 479 120 85 57 
184 700 450 149 132 119 
258 211 522 89 77 85 
272 388 537 95 116 152 
355 516 455 102 127 157 
270 478 534 88 109 140 
257 157 513 121 75 66 
225 333 449 79 100 120 
197 406 506 72 100 125 
233 634 554 31 54 83 
310 589 417 74 105 132 
231 771 532 143 103 74 
255 1000 443 169 140 115 
306 810 328 224 61 80 
187 431 370 69 89 152 
318 497 411 75 100 126 
221 352 458 74 95 117 
230 678 371 104 116 143 
179 605 413 95 119 145 
298 717 256 140 104 94 
267 540 536 116 130 153 
285 753 302 183 176 176 
240 656 586 80 91 106 
327 820 378 106 137 165 
250 879 520 159 127 103 
171 644 568 133 103 74 
191 662 552 145 166 193 
183 283 377 103 104 108 
180 317 437 79 104 127 
254 47 423 103 83 60 
173 428 442 61 74 100 
286 922 420 52 41 29 
287 505 534 130 142 164 
236 630 364 179 115 107 
197 184 450 92 66 63 
179 454 472 64 76 106 
272 424 527 97 117 159 
230 267 483 62 86 107 
277 863 489 151 108 75 
297 962 439 117 97 77 
254 41 427 103 82 59 
226 909 453 92 72 51 
274 268 389 70 97 121 
304 804 523 201 144 108 
301 527 534 117 144 171 
335 106 509 139 126 115 
255 43 424 102 82 60 
275 253 463 77 33 52 
276 252 383 129 126 127 
160 569 469 145 158 175 
253 43 428 105 85 64 
253 43 429 105 85 64 
258 530 344 130 137 151 
300 675 251 99 85 72 
263 604 364 74 80 87 
179 513 524 103 117 142 
289 779 554 165 151 140 
215 920 471 153 118 89 
297 275 474 98 111 127 
356 651 471 172 173 183 
262 386 540 102 119 150 
239 558 535 131 147 169 
228 351 512 82 101 121 
289 874 419 140 101 71 
168 301 468 112 130 150 
170 552 511 132 142 162 
254 43 430 105 85 64 
319 560 532 100 133 161 
236 634 609 87 103 134 
352 712 337 44 74 117 
257 773 583 212 194 184 
239 233 487 102 45 65 
283 642 317 122 88 84 
222 659 633 75 87 104 
253 45 426 103 83 61 
293 358 517 73 95 140 
244 427 324 156 155 163 
321 775 497 169 158 153 
253 762 592 164 144 126 
269 914 411 91 73 59 
189 518 534 108 126 154 
257 13 477 82 70 58 
168 385 462 117 93 66 
268 198 528 115 80 74 
338 614 510 114 136 163 
217 709 369 124 130 143 
333 469 415 99 122 148 
220 566 365 93 95 102 
230 749 589 141 134 137 
213 206 404 74 65 66 
259 520 537 124 125 153 
358 193 499 127 38 37 
277 735 355 92 107 125 
238 645 610 51 84 116 
272 137 454 99 88 79 
307 756 537 127 104 82 
361 710 474 176 191 213 
162 667 467 179 158 140 
342 528 500 185 180 182 
260 643 316 164 113 94 
325 672 544 129 148 172 
195 748 491 192 175 166 
357 528 432 145 160 180 
238 636 624 87 112 140 
308 203 517 111 53 75 
285 98 510 98 89 84 
196 187 451 87 80 89 
257 179 517 99 45 63 
302 623 544 119 123 132 
311 537 400 117 129 145 
187 422 468 105 93 82 
281 613 385 52 67 80 
226 772 382 100 105 111 
263 826 473 157 106 86 
254 33 433 100 83 65 
304 48 453 110 95 81 
326 696 250 129 103 87 
267 811 378 168 144 122 
203 630 386 183 121 108 
337 658 527 121 145 171 
306 141 376 129 116 105 
254 35 432 112 92 71 
327 669 333 53 75 104 
179 672 498 131 164 196 
357 539 453 118 144 173 
214 687 376 138 146 159 
251 229 521 133 130 133 
309 108 509 156 122 91 
237 484 541 163 155 153 
168 659 468 71 73 78 
185 496 403 148 159 185 
254 32 437 104 92 85 
303 317 504 97 117 139 
303 185 388 105 110 123 
163 453 444 95 115 137 
220 886 474 136 96 72 
322 147 518 58 42 63 
181 315 464 60 62 70 
346 670 515 123 41 64 
178 379 359 82 107 143 
309 940 441 75 59 50 
255 35 437 117 94 70 
324 783 484 175 164 161 
166 270 467 136 136 141 
256 127 451 68 53 37 
352 712 449 159 168 185 
225 630 366 166 96 90 
304 994 451 137 104 79 
275 622 548 79 96 114 
314 883 467 95 64 50 
178 455 420 97 107 130 
255 37 435 111 88 64 
302 632 389 86 105 125 
335 287 474 127 20 50 
334 542 516 173 169 171 
332 406 489 166 167 176 
255 38 434 109 87 64 
216 688 545 114 155 189 
254 822 443 175 110 88 
282 827 496 173 126 100 
324 802 474 131 117 106 
259 371 348 115 117 124 
316 827 486 196 142 110 
223 429 326 74 102 137 
264 39 443 103 89 77 
308 783 525 120 122 130 
164 647 478 137 91 83 
326 563 529 110 137 163 
221 711 634 185 195 214 
325 578 534 88 134 170 
259 357 359 92 99 114 
345 684 391 53 60 92 
269 995 428 117 85 57 
258 905 424 97 79 64 
158 630 520 180 131 118 
343 541 429 84 112 142 
361 576 435 81 112 165 
352 673 368 60 86 107 
352 730 476 88 58 97 
309 670 566 117 117 123 
199 182 462 27 30 43 
206 383 477 72 81 91 
311 934 494 82 68 54 
331 127 500 168 67 3 
311 512 409 75 92 116 
265 56 502 121 102 84 
228 791 466 193 144 119 
303 696 297 60 71 116 
351 486 437 120 135 156 
362 710 468 133 158 186 
255 50 417 98 80 61 
332 740 288 150 158 182 
170 306 455 95 107 121 
261 478 535 128 140 157 
256 219 455 54 63 76 
270 666 368 105 112 139 
254 51 419 100 82 62 
225 360 326 106 109 117 
250 602 331 112 102 94 
258 213 339 117 67 85 
283 337 537 96 118 143 
188 713 411 147 122 91 
274 313 545 96 120 144 
232 655 643 78 106 139 
219 393 526 44 83 118 
295 118 521 108 115 125 
295 196 369 150 93 95 
248 419 541 123 133 154 
340 701 383 77 100 148 
333 686 529 129 148 169 
312 794 517 185 133 100 
251 996 465 112 66 43 
195 227 416 113 25 17 
181 328 428 84 88 99 
347 124 511 141 70 28 
207 248 465 58 73 87 
331 748 498 154 129 108 
234 854 501 145 108 88 
293 842 488 186 136 105 
313 679 334 74 90 137 
343 657 377 96 127 155 
232 279 443 98 86 96 
211 478 351 112 125 156 
289 203 528 106 54 71 
234 554 534 113 139 167 
225 952 451 84 68 58 
208 684 516 155 132 141 
296 575 537 139 152 170 
294 624 348 50 78 103 
181 340 442 64 89 109 
299 465 526 115 134 158 
328 167 513 146 55 57 
213 476 349 170 169 174 
347 542 426 68 99 128 
182 640 580 108 89 70 
313 795 516 188 133 104 
321 220 507 127 129 137 
270 663 602 21 56 116 
196 169 459 109 111 118 
216 626 547 57 86 112 
230 317 452 87 101 118 
272 917 410 89 73 60 
235 197 484 76 29 36 
353 736 469 171 29 52 
228 683 645 103 126 182 
183 289 431 115 118 126 
205 334 488 101 112 126 
252 52 423 103 83 62 
182 451 510 130 136 147 
252 53 423 102 83 61 
192 743 492 193 161 129 
277 364 425 95 73 43 
231 296 455 85 78 97 
206 238 463 37 55 69 
157 439 457 81 93 112 
252 54 422 102 82 60 
309 136 502 126 109 93 
210 645 543 50 60 76 
251 53 424 101 82 61 
279 178 476 46 62 76 
251 53 426 100 82 62 
166 619 455 140 101 87 
272 865 505 157 114 83 
222 268 346 170 167 172 
296 436 425 105 119 136 
158 423 459 98 86 77 
260 345 369 146 128 111 
286 620 547 47 63 78 
271 358 542 93 115 155 
307 127 504 138 71 15 
290 47 493 77 70 62 
195 736 408 177 143 115 
261 961 430 125 88 44 
339 743 394 156 167 187 
272 615 355 71 69 70 
256 483 536 89 109 147 
191 285 458 68 68 70 
346 670 365 81 99 117 
253 49 424 102 82 60 
221 782 438 155 129 104 
328 112 521 143 62 3 
304 158 416 150 78 1 
360 717 466 160 181 206 
351 490 435 101 134 172 
182 681 442 178 69 22 
300 436 428 117 124 136 
203 763 458 123 104 89 
280 966 432 85 70 55 
279 226 402 51 72 91 
349 311 462 166 63 98 
322 800 489 85 75 75 
252 50 426 101 82 62 
257 569 353 49 57 69 
358 618 493 103 133 164 
321 364 475 72 103 143 
324 332 472 96 125 153 
192 271 458 71 59 48 
327 675 315 150 157 172 
313 549 534 153 152 158 
172 618 497 68 67 67 
203 742 377 172 135 146 
287 245 369 74 93 120 
314 366 448 117 120 128 
344 684 514 159 171 189 
293 479 389 62 89 113 
331 526 513 104 133 161 
253 50 430 100 81 61 
274 903 518 165 121 94 
273 397 377 148 126 103 
261 1002 475 147 119 90 
286 826 341 194 105 98 
178 679 419 161 133 121 
213 444 337 110 127 158 
339 427 453 73 102 153 
297 139 403 121 108 97 
238 310 452 78 95 113 
301 28 426 107 94 82 
181 309 431 85 97 114 
258 622 542 51 67 87 
322 106 513 129 115 103 
221 776 396 157 129 99 
275 300 451 87 98 111 
333 772 325 123 133 210 
182 263 473 70 110 140 
227 321 336 140 136 137 
181 644 415 131 96 101 
219 365 450 108 111 119 
284 964 435 72 59 49 
252 53 430 100 81 63 
330 781 335 142 162 204 
193 692 388 132 142 157 
299 798 535 199 137 103 
208 715 516 93 115 136 
171 614 479 149 163 181 
273 673 603 58 61 76 
217 902 471 155 117 89 
214 260 469 77 54 56 
218 739 530 157 135 125 
192 718 436 162 134 105 
279 872 503 156 117 83 
357 718 472 162 182 207 
285 759 565 144 121 98 
219 730 535 41 29 47 
297 47 434 97 76 62 
221 242 477 73 42 47 
343 409 455 58 99 153 
261 942 423 64 50 41 
312 956 482 108 84 60 
274 85 415 108 90 72 
314 810 338 76 73 136 
262 239 356 169 161 163 
219 655 523 40 51 67 
286 402 520 88 106 142 
221 950 458 87 69 58 
230 478 544 116 130 149 
301 148 421 105 94 85 
191 405 504 65 100 128 
346 566 503 129 147 167 
345 709 376 183 184 194 
293 574 385 161 153 151 
252 608 528 105 121 140 
239 652 373 86 90 98 
352 508 452 129 141 159 
161 310 464 96 60 69 
209 463 346 179 175 178 
295 838 374 186 163 145 
170 546 516 108 127 151 
336 215 477 77 42 30 
250 63 417 102 84 65 
223 629 557 59 67 95 
289 845 416 206 153 124 
294 414 520 85 111 143 
266 388 371 144 124 103 
214 615 517 94 66 74 
163 661 546 65 126 171 
286 917 510 98 77 57 
275 408 528 67 97 151 
308 448 518 161 163 171 
299 462 417 123 128 138 
283 913 400 69 53 41 
292 405 434 116 105 96 
293 974 485 92 73 60 
253 503 332 162 166 188 
295 876 428 120 96 73 
332 799 377 166 22 52 
199 648 602 94 81 68 
270 619 316 91 82 74 
344 622 507 129 144 171 
250 60 423 104 84 64 
307 644 307 59 100 139 
162 522 439 114 128 163 
198 633 395 187 121 112 
308 706 322 74 92 125 
294 191 524 115 96 104 
220 413 539 58 90 129 
282 695 258 153 108 75 
167 491 472 154 158 168 
211 599 370 169 117 110 
163 562 436 70 88 124 
206 693 646 97 122 191 
317 552 426 145 143 147 
172 336 451 77 92 106 
198 245 390 85 47 53 
311 677 563 173 170 175 
259 577 529 136 148 167 
220 928 515 178 137 115 
269 43 411 118 91 58 
206 700 381 123 135 151 
184 630 537 80 73 69 
207 670 514 124 163 199 
244 900 439 133 82 22 
272 57 446 99 88 80 
161 640 474 167 119 107 
341 505 496 101 126 161 
195 575 392 142 144 153 
271 834 421 194 145 121 
195 599 524 160 155 157 
231 307 446 77 93 110 
258 83 501 96 80 64 
252 57 420 102 82 61 
207 406 454 97 87 95 
242 616 567 79 100 121 
342 648 384 63 99 133 
272 843 432 177 132 104 
176 591 427 142 147 161 
335 606 514 93 118 164 
314 895 475 124 92 76 
190 693 612 113 159 203 
183 513 529 163 162 168 
262 791 565 203 148 116 
157 543 438 95 125 166 
290 166 428 124 63 1 
282 298 540 159 156 160 
317 816 492 196 144 111 
265 291 441 107 105 107 
306 220 518 96 112 130 
338 572 520 103 132 163 
321 483 414 39 80 118 
169 318 468 97 118 139 
279 121 520 103 67 69 
320 367 497 106 126 149 
291 900 422 89 69 52 
349 666 425 81 138 180 
226 477 344 80 104 153 
282 623 330 59 83 104 
197 527 407 159 157 162 
251 56 429 100 81 63 
251 57 428 100 82 64 
264 131 464 80 67 57 
341 761 431 123 29 59 
223 343 501 129 64 87 
177 650 585 129 101 73 
301 63 479 111 96 84 
317 355 498 58 99 137 
265 306 435 120 118 121 
248 317 524 156 115 62 
243 487 332 135 143 173 
293 158 518 113 79 73 
355 718 345 92 132 176 
156 413 462 99 88 78 
222 483 546 65 95 145 
249 62 426 98 80 61 
249 63 426 98 80 60 
300 37 438 102 93 86 
316 901 464 67 53 45 
349 656 424 71 126 171 
303 480 525 176 171 174 
244 617 550 80 102 124 
250 60 426 99 81 62 
257 808 540 194 138 111 
186 315 414 99 101 108 
245 643 569 42 67 95 
333 659 532 165 169 181 
274 664 301 147 99 82 
279 825 380 171 132 81 
246 668 626 109 134 162 
250 812 472 177 123 104 
298 80 487 114 87 69 
315 671 265 102 90 79 
256 48 461 81 66 50 
251 60 429 100 82 64 
192 669 497 107 142 174 
359 218 487 110 38 56 
283 342 447 95 107 122 
197 272 460 57 51 52 
331 298 472 133 79 103 
266 11 440 86 73 63 
347 678 390 100 113 145 
335 191 504 103 45 51 
250 63 429 97 79 60 
271 269 369 81 48 70 
265 213 467 66 53 66 
195 664 401 69 76 93 
335 491 502 176 171 174 
318 830 481 193 143 112 
179 436 420 112 122 136 
174 666 528 140 146 191 
252 57 430 99 80 61 
252 57 431 99 80 62 
214 948 489 180 137 115 
170 483 487 78 96 135 
323 522 521 119 137 158 
298 172 407 76 91 112 
334 704 290 154 157 169 
252 59 431 98 80 62 
238 245 485 90 61 70 
221 453 545 54 89 137 
252 61 431 98 80 62 
263 49 464 78 65 53 
294 190 523 109 93 103 
289 156 458 121 118 116 
255 48 432 104 85 66 
223 900 512 158 114 96 
279 107 420 100 81 60 
275 317 447 75 92 110 
289 644 321 116 128 148 
264 626 332 137 94 82 
246 254 520 112 124 139 
335 421 481 163 162 168 
176 454 491 158 153 154 
181 403 426 30 65 99 
210 651 518 40 51 66 
172 651 444 93 75 70 
268 340 415 104 32 54 
266 330 410 109 30 54 
230 656 369 98 117 141 
166 274 464 133 133 138 
232 270 453 101 108 120 
341 732 382 123 136 161 
336 216 476 78 44 39 
340 373 454 123 146 171 
237 803 449 190 137 115 
291 431 414 98 88 78 
255 54 434 103 85 68 
345 752 441 158 131 138 
253 56 432 99 81 62 
257 14 468 86 76 68 
253 58 432 99 80 62 
253 59 432 99 81 63 
203 251 463 68 55 50 
319 105 520 107 94 81 
212 678 560 124 159 191 
321 209 491 101 40 67 
168 613 447 164 170 184 
255 56 434 101 84 67 
234 280 457 72 96 118 
245 791 510 196 144 112 
322 292 478 134 127 128 
241 854 487 165 102 29 
254 59 434 97 78 60 
166 513 479 83 103 144 
241 235 495 59 92 117 
237 767 367 137 48 56 
259 455 341 110 125 143 
218 341 492 135 96 67 
209 711 605 148 170 194 
344 739 432 147 91 111 
192 667 506 119 153 186 
319 833 474 193 143 113 
306 177 496 92 40 38 
348 711 334 79 111 138 
252 63 432 98 80 63 
188 699 421 181 130 107 
207 703 511 146 117 74 
249 288 523 111 124 141 
305 152 376 165 78 7 
343 432 424 130 148 171 
198 405 477 81 83 89 
227 193 475 65 38 47 
297 649 290 80 73 68 
201 630 526 42 52 63 
225 371 324 81 101 123 
354 657 402 90 65 81 
240 289 507 101 118 138 
166 616 455 123 91 83 
202 680 580 170 187 212 
207 685 512 72 101 137 
286 148 451 121 110 101 
281 706 591 173 34 55 
339 760 417 161 32 44 
312 63 475 100 87 76 
263 820 402 174 158 147 
227 789 473 190 139 112 
245 263 518 103 120 139 
196 418 348 125 130 142 
239 779 558 171 148 127 
333 382 464 58 96 141 
355 707 369 137 155 198 
311 323 457 55 95 129 
335 799 412 139 122 111 
309 782 523 98 119 140 
357 706 363 155 167 190 
339 758 317 166 183 206 
166 663 529 138 157 190 
314 117 505 145 104 75 
346 315 454 155 98 8 
314 724 258 61 113 216 
343 267 476 147 154 167 
353 626 428 81 139 186 
173 374 448 79 86 97 
289 966 431 122 100 77 
162 564 457 107 118 142 
231 650 570 79 89 102 
246 639 584 73 95 132 
299 828 344 193 51 50 
182 552 529 109 121 147 
336 782 406 158 33 51 
275 802 553 190 124 97 
296 354 512 85 106 138 
160 303 461 85 121 151 
335 682 331 158 156 162 
222 486 546 83 112 149 
177 595 510 164 162 167 
164 476 443 82 114 166 
232 380 529 82 105 128 
349 141 493 89 41 21 
227 742 576 118 112 110 
273 869 439 141 110 77 
350 681 356 73 96 118 
204 525 541 83 105 150 
300 574 393 96 119 144 
205 627 513 41 40 42 
349 593 514 172 172 180 
263 301 368 127 128 135 
193 474 393 112 127 159 
193 688 481 54 51 98 
302 858 423 199 147 97 
267 278 410 71 74 86 
292 738 276 105 112 159 
203 742 433 191 170 152 
339 678 343 61 88 120 
359 585 421 172 173 182 
300 840 397 202 185 175 
198 365 494 116 96 78 
204 14 461 135 100 78 
238 638 551 28 66 91 
211 389 335 65 100 144 
353 591 457 108 134 162 
204 14 463 128 92 70 
193 531 535 106 125 154 
245 654 367 68 94 126 
248 811 472 177 122 102 
230 278 353 97 111 127 
317 541 422 121 122 128 
167 609 445 117 151 183 
348 250 482 130 114 118 
194 641 405 135 126 124 
253 908 418 145 117 86 
343 532 431 101 125 151 
339 727 308 124 134 160 
286 141 438 67 53 38 
294 735 566 157 128 96 
259 341 355 113 31 63 
268 691 366 58 70 90 
320 832 472 193 144 112 
240 246 506 123 113 113 
342 453 479 68 98 146 
337 756 379 99 116 167 
295 187 402 110 108 115 
267 13 405 184 144 127 
209 667 640 93 78 64 
343 244 485 146 137 141 
279 651 271 100 87 74 
171 314 469 77 109 137 
237 300 505 126 50 65 
275 675 294 154 104 86 
295 581 389 63 86 113 
205 10 465 114 87 64 
298 590 405 92 91 93 
295 431 427 96 112 130 
225 342 460 81 96 113 
283 919 415 57 47 39 
337 651 384 78 115 145 
256 800 511 193 140 110 
341 746 387 116 141 186 
320 224 506 156 152 156 
235 524 344 114 120 130 
352 710 495 154 89 98 
177 416 378 90 119 155 
207 10 465 113 87 64 
272 466 531 162 163 172 
355 610 511 124 150 178 
167 517 482 97 116 146 
265 319 343 126 140 158 
317 765 295 177 179 229 
352 728 483 187 95 107 
204 11 468 118 92 64 
287 664 359 49 70 126 
188 635 564 84 76 71 
348 751 463 185 133 68 
163 418 446 38 79 117 
192 256 470 84 75 74 
209 399 514 49 90 123 
211 759 504 110 104 104 
285 951 512 102 77 66 
309 965 472 120 93 67 
206 10 469 109 85 61 
214 771 436 162 156 156 
328 293 475 138 101 121 
356 607 507 117 146 175 
232 866 474 128 101 71 
258 593 358 67 71 77 
309 641 376 84 92 101 
345 674 359 57 88 112 
301 632 364 84 95 108 
337 108 502 143 129 118 
166 655 493 78 79 100 
185 415 363 107 125 156 
221 653 607 64 82 101 
213 625 528 67 76 87 
261 995 481 165 133 101 
288 176 358 53 72 92 
296 108 519 132 67 6 
204 14 467 145 116 84 
293 717 351 107 122 141 
228 743 574 137 127 122 
274 377 410 140 125 113 
354 719 475 166 183 205 
175 663 551 81 108 172 
308 666 305 94 112 134 
258 260 445 86 70 68 
207 365 336 99 110 126 
302 939 508 108 90 78 
289 642 304 84 75 71 
177 482 511 97 113 142 
268 323 403 112 21 56 
301 72 482 123 89 69 
323 367 460 82 105 137 
204 14 470 150 118 94 
271 465 361 56 91 122 
343 163 490 78 47 53 
279 887 434 80 61 43 
177 443 428 45 72 117 
174 351 392 87 103 134 
246 174 499 123 36 51 
241 214 492 32 55 103 
331 137 500 146 49 12 
282 236 390 114 77 67 
184 261 392 136 137 143 
343 473 488 104 124 155 
306 792 312 158 169 218 
356 714 349 124 155 190 
221 603 522 166 164 170 
275 132 368 137 121 107 
222 660 371 102 116 156 
207 10 474 101 81 60 
271 452 363 114 104 97 
263 309 372 123 125 132 
230 789 408 208 142 81 
306 297 496 137 131 131 
199 592 392 129 94 88 
303 926 512 146 117 90 
208 679 384 48 73 120 
353 530 476 186 181 184 
211 712 523 81 79 80 
202 529 402 117 122 133 
199 254 401 123 61 4 
321 333 459 142 142 149 
284 531 365 71 100 126 
259 465 346 118 132 149 
261 655 604 47 76 128 
289 772 304 112 112 156 
241 231 505 68 106 135 
257 795 367 119 126 138 
202 539 397 116 122 132 
170 654 449 55 44 50 
257 370 544 89 126 162 
287 719 299 127 126 132 
304 160 380 116 123 132 
204 490 377 147 151 162 
339 587 433 95 78 76 
269 400 374 154 131 106 
281 999 440 152 121 98 
179 637 425 126 82 93 
263 198 469 69 64 61 
189 300 350 128 148 174 
250 133 502 46 62 90 
178 673 478 102 97 109 
211 355 460 86 101 117 
242 725 358 104 118 134 
169 338 384 116 129 146 
235 950 439 116 88 70 
288 714 261 131 120 121 
269 593 362 88 111 136 
181 499 523 109 117 141 
263 1002 442 160 124 93 
251 986 450 101 79 61 
180 300 471 139 140 147 
205 17 457 154 101 89 
315 550 423 143 138 139 
228 258 483 57 85 110 
271 362 402 116 92 62 
267 429 364 115 103 92 
204 589 528 81 113 148 
230 789 413 195 169 147 
284 661 264 104 87 68 
216 691 561 89 133 164 
287 280 528 79 114 145 
282 806 329 178 80 96 
321 201 509 117 33 63 
332 875 484 102 89 78 
181 394 410 94 121 150 
289 710 291 55 69 119 
174 566 432 96 124 158 
269 312 394 89 102 116 
293 626 373 56 66 78 
271 184 527 109 79 87 
329 813 378 154 144 138 
352 262 479 162 164 173 
207 19 459 130 110 89 
297 146 517 98 89 105 
262 752 592 203 166 126 
308 963 485 109 81 58 
148 444 447 63 91 129 
185 713 481 150 61 29 
196 451 525 105 120 138 
321 355 486 78 112 144 
256 66 437 97 81 65 
273 370 401 102 13 45 
294 339 458 133 131 135 
352 725 332 117 127 144 
205 18 461 153 121 100 
205 18 462 151 118 94 
320 492 410 72 99 127 
241 368 329 125 113 102 
345 682 390 61 62 76 
355 517 462 78 107 157 
184 683 612 87 112 171 
233 765 566 167 148 133 
276 80 464 87 75 65 
282 51 439 103 84 66 
260 618 308 102 92 84 
266 431 360 119 102 87 
207 19 463 138 95 76 
306 164 496 143 35 19 
223 354 328 119 92 83 
314 950 458 104 78 63 
285 292 530 86 111 140 
322 850 460 199 148 120 
323 325 473 145 60 89 
296 720 564 121 116 116 
225 788 453 194 143 117 
256 995 475 134 103 75 
169 628 446 140 99 84 
351 377 437 73 111 150 
263 342 349 133 89 63 
341 259 480 155 159 170 
337 733 371 74 91 127 
302 631 342 55 89 120 
348 729 443 145 166 190 
273 461 364 78 101 125 
234 480 330 132 141 172 
323 316 475 147 74 101 
239 497 540 151 148 152 
206 327 472 63 77 91 
167 505 474 98 112 142 
311 299 488 170 127 75 
354 669 505 82 143 187 
336 716 295 75 83 130 
283 984 427 116 85 55 
352 615 436 87 127 157 
197 640 559 74 71 71 
218 944 464 85 67 56 
206 17 471 151 113 94 
188 570 531 152 156 166 
306 597 532 98 128 156 
328 795 356 168 181 200 
188 498 532 120 129 144 
318 709 249 96 116 173 
299 723 339 68 87 132 
168 670 469 80 91 103 
223 649 522 38 50 70 
174 345 395 154 84 109 
283 147 477 82 75 71 
207 17 472 145 109 89 
328 311 471 150 62 94 
210 194 454 37 40 45 
358 224 485 99 69 97 
309 341 452 125 127 134 
207 18 472 144 109 91 
186 657 530 148 162 182 
347 688 407 179 182 194 
310 918 497 180 124 97 
355 553 471 178 175 181 
340 580 522 117 139 164 
295 734 564 98 84 79 
303 600 415 72 109 141 
174 350 396 144 39 78 
213 667 649 60 56 64 
229 613 521 129 138 153 
339 367 447 98 119 148 
311 316 465 65 99 130 
242 639 627 111 136 164 
274 816 526 186 136 111 
232 754 362 173 0 64 
360 593 433 130 153 181 
246 267 361 108 110 115 
176 576 432 95 112 134 
273 75 469 83 68 54 
318 913 451 74 60 49 
238 331 516 121 70 91 
331 771 318 118 143 197 
287 104 454 106 71 57 
198 150 458 116 92 76 
237 866 468 125 90 42 
331 375 455 70 94 134 
327 776 318 133 166 207 
237 952 517 180 135 113 
190 740 491 186 150 107 
348 513 427 60 87 136 
249 348 534 116 91 109 
287 405 426 114 99 85 
206 466 543 127 138 153 
313 572 422 91 78 87 
273 733 357 91 103 118 
274 43 410 119 95 66 
229 352 514 104 120 138 
328 687 259 66 92 116 
326 780 478 179 145 113 
299 878 481 158 122 88 
214 12 453 158 116 98 
317 788 315 117 135 199 
244 676 371 120 124 139 
161 520 463 85 109 148 
283 752 332 84 95 108 
222 638 547 38 49 65 
228 200 477 74 37 52 
256 90 467 71 56 41 
223 885 513 102 71 56 
290 435 408 106 32 52 
330 309 463 135 133 147 
358 183 499 45 41 46 
295 37 418 98 78 56 
261 253 532 140 135 134 
300 921 510 109 85 66 
311 894 456 78 61 51 
195 730 398 74 103 137 
167 662 541 57 88 127 
277 828 397 152 133 142 
290 883 417 126 93 65 
270 268 377 71 103 130 
286 750 301 167 168 177 
154 403 459 133 111 91 
330 485 421 37 75 126 
296 345 512 111 124 143 
168 685 469 154 96 15 
186 675 622 125 138 159 
276 830 400 128 109 105 
208 10 463 120 90 68 
206 515 542 154 156 166 
227 446 544 76 103 149 
274 518 358 89 111 137 
208 343 472 90 94 103 
322 158 501 118 46 55 
220 644 551 47 65 83 
281 12 440 77 64 51 
342 455 480 112 129 149 
329 407 463 75 103 150 
186 744 473 207 155 87 
333 417 458 54 89 153 
212 304 481 87 93 102 
312 951 485 101 76 56 
356 642 407 93 94 110 
281 36 407 127 90 64 
209 12 456 143 104 84 
302 188 519 53 89 117 
339 409 458 60 92 147 
295 526 535 71 109 155 
163 573 476 123 142 166 
197 709 383 119 137 159 
185 668 622 111 128 160 
179 516 412 151 157 172 
176 569 432 95 116 141 
213 11 456 149 110 91 
240 948 435 75 59 52 
212 10 459 138 102 83 
177 465 506 101 119 144 
212 11 459 139 102 83 
293 767 296 177 170 170 
241 634 590 113 126 145 
186 293 350 112 122 134 
322 779 493 131 133 139 
196 153 480 109 56 9 
215 10 457 149 112 94 
202 646 541 60 70 86 
298 500 391 112 119 129 
236 338 517 122 53 78 
283 308 533 160 155 159 
172 459 434 67 87 120 
178 359 447 112 106 104 
296 997 440 154 123 94 
317 173 499 122 33 24 
299 695 574 112 44 53 
301 499 399 134 132 135 
213 10 461 135 100 81 
198 417 510 112 123 140 
334 692 305 168 168 175 
214 295 481 82 83 91 
193 261 459 43 52 61 
239 891 450 141 92 50 
271 163 525 71 80 91 
198 477 387 92 98 146 
350 687 507 149 170 195 
321 894 486 97 82 70 
204 489 371 183 177 180 
247 637 609 63 96 155 
356 300 462 152 150 155 
212 12 456 148 108 89 
294 79 437 116 95 74 
310 399 440 64 77 111 
284 400 420 110 58 8 
217 739 362 171 18 56 
201 261 361 77 96 119 
333 364 458 71 108 156 
353 600 453 154 157 167 
219 11 455 156 124 109 
287 141 421 99 88 80 
305 302 499 168 140 108 
215 370 468 101 103 109 
331 771 319 130 151 199 
285 658 303 129 92 83 
200 327 466 63 72 83 
302 821 509 207 150 117 
175 508 416 136 136 146 
189 701 421 183 145 102 
173 590 505 157 156 163 
296 586 391 86 106 132 
300 650 570 130 144 162 
285 721 289 90 94 135 
340 472 435 139 148 166 
261 621 305 103 93 85 
303 984 469 127 103 77 
339 169 491 102 46 28 
303 634 350 79 97 115 
218 14 452 161 127 112 
330 688 262 52 86 132 
307 584 417 86 92 107 
303 568 536 147 161 180 
352 503 471 85 112 144 
174 300 368 121 95 62 
299 676 297 83 99 120 
236 138 474 97 58 15 
288 206 395 126 69 70 
171 661 421 78 62 115 
264 202 469 67 56 63 
197 523 538 91 113 148 
209 629 540 62 76 91 
194 412 471 80 70 79 
170 486 491 71 100 144 
223 624 362 164 105 95 
185 419 493 53 81 117 
297 201 522 101 63 79 
244 192 504 52 45 60 
179 358 459 112 98 84 
274 248 402 104 38 59 
289 201 366 156 80 81 
165 321 455 108 96 105 
290 166 431 116 56 1 
306 262 482 142 64 0 
234 496 337 116 127 162 
170 596 487 94 127 162 
350 254 475 156 155 160 
168 354 370 164 115 123 
291 649 340 170 175 187 
294 607 405 67 82 104 
299 630 388 76 92 109 
228 651 588 69 85 103 
258 127 506 100 108 119 
195 621 511 35 41 48 
290 168 522 99 90 97 
200 696 386 110 122 136 
309 698 334 101 117 139 
173 418 444 60 72 88 
256 139 508 60 91 115 
274 39 496 99 86 73 
191 560 412 101 117 138 
305 661 338 145 149 159 
220 12 452 160 131 118 
250 363 546 66 106 144 
297 993 471 127 97 72 
