ply
format ascii 1.0
comment Created by CloudCompare v2.11.1 (Anoia)
comment Created 2/28/22 9:38 PM
obj_info Generated by CloudCompare!
element vertex 2011
property float x
property float y
property float z
property uchar red
property uchar green
property uchar blue
end_header
260 220 464 67 52 62 
161 352 418 110 106 135 
194 165 452 96 61 12 
275 841 477 137 97 71 
145 311 387 102 87 102 
230 964 463 93 75 64 
236 907 427 105 81 67 
269 146 519 92 76 74 
208 753 429 151 125 101 
165 606 469 69 107 163 
342 898 509 137 125 115 
273 263 471 112 116 124 
277 999 445 121 90 66 
306 818 501 206 147 113 
320 361 445 100 124 156 
235 617 337 167 109 93 
218 255 343 120 113 110 
179 404 468 84 100 118 
173 653 525 69 85 133 
295 702 310 115 120 130 
263 740 602 130 62 68 
280 213 540 168 147 127 
296 930 428 61 47 38 
183 551 422 167 167 182 
268 726 303 17 43 95 
270 856 491 141 100 71 
205 182 460 105 61 42 
299 77 496 122 92 76 
222 254 343 121 122 127 
171 539 434 102 117 135 
324 694 301 153 154 163 
161 573 446 98 123 170 
190 717 488 125 101 77 
353 559 412 112 135 160 
226 621 360 170 110 102 
173 602 484 118 138 164 
193 326 339 152 147 149 
308 876 468 116 88 64 
276 999 456 118 94 69 
288 373 537 85 103 149 
302 614 525 91 97 108 
302 587 542 119 84 93 
203 388 508 111 114 122 
213 929 481 136 110 88 
257 644 369 75 90 118 
173 513 494 19 58 129 
307 463 412 98 111 127 
243 625 317 170 120 99 
185 481 435 93 98 110 
218 251 348 117 108 102 
265 762 584 162 125 88 
264 758 318 114 117 139 
159 328 447 95 101 111 
269 244 469 83 42 58 
273 622 349 46 70 91 
347 484 488 129 142 160 
257 913 418 67 54 44 
262 403 545 145 152 166 
287 844 410 214 162 134 
151 429 443 80 101 142 
166 628 457 142 108 92 
360 630 494 163 166 177 
217 254 344 112 103 97 
264 798 506 189 138 110 
219 320 504 78 101 124 
244 142 393 131 67 37 
313 575 406 82 116 144 
269 77 501 107 90 74 
218 252 347 123 111 103 
212 762 431 187 164 145 
348 725 460 118 135 153 
264 186 476 102 71 56 
158 629 486 149 104 93 
355 546 452 139 156 177 
301 855 418 203 149 104 
280 676 288 79 68 73 
232 969 484 83 70 63 
343 623 518 118 141 175 
320 158 496 107 36 33 
231 352 517 116 37 65 
244 160 460 106 64 49 
224 955 463 92 74 62 
293 716 575 147 30 55 
323 347 448 94 118 151 
223 249 347 110 103 98 
330 716 519 156 101 101 
272 194 476 110 52 47 
271 827 372 160 123 83 
230 342 510 117 44 71 
299 680 334 130 139 152 
273 659 606 104 127 152 
267 371 553 76 112 150 
252 612 569 87 106 126 
300 455 417 66 99 142 
234 780 491 195 143 114 
209 470 346 91 112 151 
279 691 349 113 119 129 
359 616 499 133 155 181 
296 153 392 153 78 7 
272 564 363 33 76 122 
193 243 459 83 84 88 
171 403 359 152 152 161 
259 230 405 55 62 85 
220 253 345 97 95 97 
223 479 347 127 128 137 
298 22 429 100 86 71 
260 772 336 103 111 123 
292 778 554 178 152 129 
206 735 365 90 116 135 
288 336 467 127 126 129 
333 417 489 87 112 139 
283 205 478 109 41 48 
303 187 498 72 51 62 
342 657 381 60 121 161 
285 875 422 121 85 58 
276 914 518 170 126 98 
271 462 537 159 161 171 
166 552 475 142 151 165 
355 536 458 109 142 174 
216 709 518 117 132 151 
257 778 339 90 80 90 
290 635 324 55 88 115 
348 643 371 125 139 155 
349 708 444 187 185 192 
281 967 428 90 72 50 
318 492 525 132 145 164 
195 528 540 105 122 153 
268 619 518 54 56 63 
170 558 427 84 112 150 
219 776 446 184 137 112 
309 729 535 155 121 91 
326 800 461 124 121 124 
286 137 381 148 128 105 
297 231 488 47 55 94 
297 647 299 79 112 143 
281 395 427 121 109 99 
169 684 465 157 103 53 
358 664 427 87 144 187 
306 787 318 143 148 190 
183 594 516 164 160 164 
290 54 502 81 71 59 
325 578 399 74 109 137 
198 229 358 88 41 14 
200 448 531 63 93 128 
264 47 501 96 80 63 
245 208 459 25 49 77 
250 775 556 176 151 133 
258 811 363 166 149 138 
328 403 497 137 143 154 
188 646 410 77 116 147 
327 730 324 101 132 181 
271 967 424 103 79 49 
252 337 351 107 110 123 
272 674 289 117 82 73 
279 170 434 96 97 103 
333 589 394 78 107 132 
224 587 531 164 160 164 
325 227 474 137 122 125 
234 391 327 134 117 106 
200 341 452 79 83 90 
275 106 418 111 89 67 
249 577 528 169 162 162 
235 511 551 164 160 165 
268 105 414 95 79 61 
209 534 364 96 120 155 
195 382 343 86 110 149 
249 205 448 87 63 63 
298 207 533 144 137 132 
191 446 478 52 74 97 
217 647 604 86 76 67 
345 227 464 82 117 147 
354 548 488 185 182 187 
289 864 421 133 89 54 
315 355 504 76 114 145 
282 72 414 114 92 71 
186 496 434 66 75 98 
259 112 406 105 85 59 
284 136 423 100 90 81 
247 605 315 105 95 87 
321 909 460 67 55 43 
210 183 460 94 59 45 
313 826 376 200 148 106 
356 689 421 136 142 154 
357 632 423 107 143 176 
290 771 293 158 165 219 
230 378 530 69 96 123 
274 649 599 42 58 116 
149 303 381 95 94 96 
159 395 373 94 115 147 
314 916 470 71 54 45 
230 938 441 82 66 59 
188 524 410 111 129 166 
325 170 507 141 53 44 
247 585 527 189 180 180 
248 373 339 144 70 3 
270 628 581 121 133 149 
307 854 470 155 114 82 
271 621 365 62 60 61 
322 108 496 151 125 101 
201 341 334 149 134 123 
237 768 511 190 135 106 
169 264 390 108 111 117 
174 671 467 100 83 87 
197 224 363 101 28 19 
206 311 447 84 84 88 
223 593 530 110 134 159 
283 406 534 83 99 136 
235 728 573 128 100 101 
293 226 538 131 108 90 
258 902 420 97 75 56 
245 976 486 125 96 67 
283 816 328 101 79 93 
331 796 405 156 141 132 
335 622 379 80 92 106 
199 224 363 99 35 18 
199 225 362 99 34 16 
199 225 363 100 37 17 
160 372 443 92 85 86 
289 836 360 207 173 144 
277 388 539 91 118 150 
258 325 425 121 107 94 
305 648 297 83 109 134 
282 811 323 188 22 114 
169 555 487 136 147 163 
330 402 442 107 121 139 
326 738 366 108 126 163 
188 737 483 202 171 141 
241 249 458 117 22 35 
321 794 366 159 110 116 
270 131 389 124 108 95 
333 367 478 96 117 142 
285 210 539 166 144 124 
313 485 526 106 130 157 
270 682 615 79 100 147 
233 795 448 192 139 117 
290 617 531 99 101 108 
211 543 358 148 154 167 
224 319 495 100 100 105 
188 433 500 56 90 124 
195 234 357 84 45 40 
247 609 311 103 92 82 
304 288 476 108 119 135 
257 852 508 140 104 77 
276 654 360 31 59 117 
194 235 358 76 49 45 
242 484 342 145 146 152 
241 277 476 120 122 130 
315 386 455 68 96 132 
303 593 543 90 124 153 
285 883 505 168 125 98 
282 196 380 71 99 123 
193 635 568 93 81 71 
240 739 354 118 135 156 
180 255 419 94 63 33 
214 543 349 158 166 185 
336 406 450 117 129 144 
186 440 506 49 84 128 
337 721 500 167 143 123 
194 721 438 117 105 105 
287 853 421 177 139 104 
230 291 449 127 53 5 
225 441 330 136 147 166 
264 803 326 190 35 56 
269 728 280 109 124 162 
168 403 361 152 151 159 
254 650 576 76 89 105 
231 706 633 93 133 197 
192 238 359 90 66 60 
246 894 433 131 88 39 
274 391 417 103 58 8 
169 198 467 99 71 70 
269 309 537 84 103 123 
176 542 501 105 117 153 
264 133 470 109 97 88 
181 252 412 119 62 13 
289 654 287 114 117 137 
248 177 468 74 44 57 
280 247 543 116 127 141 
194 239 356 91 86 82 
183 699 409 85 86 103 
262 818 369 105 53 49 
279 499 537 106 127 157 
259 170 354 68 79 105 
267 605 532 141 141 148 
319 739 300 154 168 190 
351 707 409 126 146 170 
198 234 354 91 72 50 
241 541 544 48 85 144 
323 820 446 177 140 102 
249 171 496 127 44 43 
327 233 485 75 114 145 
273 833 354 176 132 130 
257 786 552 195 142 114 
209 653 383 188 184 190 
314 949 486 134 109 83 
175 529 409 132 144 179 
182 494 476 81 94 121 
184 331 347 133 138 149 
197 613 386 85 44 54 
157 550 443 127 146 169 
339 294 453 120 131 148 
258 289 377 136 134 139 
149 348 385 162 89 114 
199 370 331 101 113 133 
279 954 434 134 94 58 
352 666 507 172 173 183 
270 209 408 46 37 56 
196 236 354 104 83 79 
176 457 435 75 90 121 
251 661 289 163 113 91 
223 766 374 151 110 107 
326 636 376 58 102 133 
171 620 516 104 88 74 
206 513 364 120 119 133 
181 498 473 89 106 135 
271 710 290 80 88 120 
242 576 530 149 151 159 
266 125 371 123 112 104 
272 166 479 60 73 87 
291 463 410 71 94 116 
299 812 512 208 154 122 
251 886 443 126 98 67 
314 768 519 148 126 108 
308 666 307 102 122 148 
252 148 466 81 70 60 
301 979 472 130 105 80 
251 430 552 93 123 172 
317 925 463 75 61 51 
281 626 399 88 105 130 
234 137 435 85 70 54 
169 269 397 128 129 135 
352 623 406 180 179 186 
192 232 362 98 25 41 
188 515 536 119 131 149 
279 151 373 119 124 132 
322 211 497 96 108 130 
180 234 451 40 40 46 
275 858 487 150 110 77 
276 185 532 128 87 77 
324 597 538 133 78 89 
357 607 428 166 168 177 
352 705 438 185 183 190 
306 163 500 130 19 20 
250 320 400 107 16 45 
203 612 379 95 60 57 
195 341 455 69 77 87 
212 698 612 130 170 207 
339 758 409 167 30 47 
337 244 462 152 153 159 
231 624 549 67 81 113 
296 880 434 140 105 80 
269 92 415 103 89 75 
273 994 481 95 70 47 
214 455 546 94 116 138 
227 574 537 105 122 147 
193 691 389 121 132 147 
160 563 441 145 161 184 
192 236 361 85 52 42 
180 501 424 71 87 117 
318 399 422 64 92 130 
330 369 484 81 113 145 
162 524 439 79 103 156 
266 718 266 107 130 187 
163 621 463 154 117 103 
246 246 413 94 27 66 
192 238 360 91 67 63 
193 510 396 147 147 155 
291 257 544 123 134 150 
291 183 408 111 92 91 
256 555 538 113 117 145 
209 758 483 187 148 118 
165 676 465 181 139 83 
210 286 334 90 123 152 
189 440 518 99 120 143 
358 595 438 176 173 178 
257 618 349 85 85 86 
246 437 343 93 114 144 
202 230 355 81 52 31 
320 426 414 102 129 160 
251 855 465 111 87 58 
193 179 452 74 75 79 
330 797 402 167 149 139 
280 686 351 100 113 129 
168 355 464 108 79 54 
213 270 335 101 84 78 
238 210 488 70 33 51 
173 256 463 50 60 72 
313 812 500 205 145 113 
243 466 341 80 110 144 
195 507 541 125 133 148 
219 699 525 129 86 100 
324 211 474 96 43 41 
180 653 571 144 106 80 
328 803 395 151 137 129 
245 201 506 44 58 90 
324 432 417 124 139 159 
223 701 578 153 18 57 
162 637 499 190 135 126 
198 742 413 91 67 59 
243 650 581 66 83 102 
293 81 450 94 73 47 
245 512 349 100 119 145 
361 593 478 87 119 144 
192 574 393 162 161 168 
276 126 440 92 65 44 
163 451 461 50 78 126 
266 668 292 140 96 80 
219 297 334 160 159 166 
360 589 457 121 144 169 
313 149 500 97 38 58 
246 498 349 154 153 158 
207 227 353 92 74 61 
167 427 401 61 86 138 
345 223 472 86 130 165 
151 359 388 160 156 159 
327 294 460 121 95 95 
239 256 423 103 90 93 
227 546 352 137 145 162 
332 698 534 166 33 54 
284 993 481 169 135 103 
177 570 516 123 132 151 
310 840 410 171 142 111 
260 411 375 137 61 4 
345 132 493 86 50 79 
205 227 356 71 53 44 
180 676 410 121 120 126 
297 357 535 62 92 138 
248 215 517 109 48 67 
299 813 511 209 155 122 
247 359 533 116 121 131 
205 226 359 53 41 40 
321 748 341 22 68 152 
257 792 520 187 140 106 
206 225 357 70 43 37 
215 701 617 170 196 227 
250 511 544 175 171 174 
187 562 536 110 118 139 
225 873 474 150 113 86 
353 678 495 84 138 180 
340 724 392 87 107 167 
205 674 384 99 107 120 
240 257 433 109 101 93 
268 619 530 73 77 84 
225 406 537 63 94 128 
286 603 397 72 69 79 
292 185 535 135 119 107 
329 703 306 97 122 150 
357 567 446 186 178 179 
360 597 485 86 131 168 
165 653 434 164 107 55 
282 515 378 67 91 115 
242 422 547 145 146 154 
319 273 472 150 144 149 
247 649 285 152 109 83 
233 304 456 106 111 120 
309 655 285 79 106 141 
224 316 495 100 101 106 
279 711 600 78 49 65 
222 294 441 127 62 9 
319 466 419 116 129 146 
252 767 350 83 68 95 
332 111 488 130 86 61 
238 199 454 107 30 28 
279 838 478 151 109 82 
280 234 477 103 66 66 
272 678 287 118 84 74 
262 642 342 54 73 133 
181 325 349 142 143 152 
297 447 438 69 97 137 
285 248 482 117 94 94 
206 488 357 166 163 170 
337 224 466 58 99 132 
238 618 344 160 110 95 
191 327 458 69 67 70 
297 677 244 105 92 78 
205 751 491 101 87 84 
340 721 392 160 168 186 
274 186 373 107 95 95 
227 312 493 74 65 77 
224 334 504 114 85 58 
215 367 452 128 128 134 
247 776 516 197 145 113 
198 500 543 136 139 149 
327 374 436 77 109 152 
173 246 463 58 33 44 
337 738 389 68 101 158 
250 801 482 173 123 103 
248 703 353 30 56 108 
202 225 362 83 37 29 
234 867 513 105 56 48 
354 530 454 139 154 174 
202 226 361 82 45 35 
197 311 453 56 65 75 
265 910 523 160 126 95 
169 618 474 57 80 115 
343 176 486 43 55 89 
217 690 590 99 57 98 
204 226 360 49 44 45 
262 614 368 64 64 66 
243 650 577 63 81 102 
302 320 517 100 122 146 
287 887 502 166 123 92 
148 327 401 100 109 123 
284 34 403 134 97 72 
322 642 548 111 128 148 
324 326 467 91 113 141 
201 234 353 117 104 88 
281 806 537 199 136 111 
347 669 347 67 98 124 
240 333 522 108 92 110 
173 422 434 72 85 114 
249 977 468 95 68 54 
255 282 384 131 129 132 
291 823 337 179 85 103 
324 213 494 77 120 152 
296 919 421 67 52 41 
207 571 384 71 107 137 
182 444 468 52 76 109 
325 778 482 129 120 117 
342 252 467 163 163 170 
202 234 353 119 103 81 
197 399 349 116 137 159 
247 249 412 73 89 106 
190 354 459 69 78 89 
151 501 443 112 127 164 
308 889 449 84 61 50 
169 656 467 54 63 73 
162 495 459 92 114 153 
322 805 485 190 136 103 
295 176 404 69 109 140 
190 213 456 92 62 78 
276 173 432 36 64 92 
227 962 500 86 72 64 
252 372 345 156 133 109 
346 672 399 179 177 183 
245 792 353 156 126 102 
157 372 444 113 110 113 
288 104 490 109 90 70 
317 461 523 172 168 173 
237 861 472 125 89 40 
267 190 421 55 34 64 
165 337 366 156 140 128 
210 750 500 96 87 95 
315 363 510 98 129 157 
287 196 403 141 70 75 
359 579 452 68 100 157 
330 712 358 186 193 208 
257 626 347 39 59 89 
175 584 494 127 136 157 
293 322 538 112 125 142 
305 117 514 122 77 56 
262 623 343 47 59 68 
258 807 488 172 122 101 
267 232 371 120 24 55 
248 849 493 146 92 48 
286 140 486 121 88 64 
160 410 387 69 87 134 
266 555 537 137 145 163 
227 266 494 117 113 116 
196 563 391 149 153 168 
315 470 525 130 137 154 
166 277 367 73 81 91 
192 243 356 89 92 98 
339 655 528 132 149 171 
288 44 408 138 109 88 
308 51 447 136 122 112 
258 138 382 139 87 61 
284 61 412 114 93 76 
198 275 457 85 42 56 
177 576 513 100 114 154 
201 653 394 63 60 61 
240 224 493 69 37 52 
222 706 607 141 156 175 
291 378 535 85 108 154 
312 773 523 95 76 58 
266 654 303 119 83 74 
287 923 513 81 62 48 
341 409 458 78 109 147 
262 207 366 129 106 100 
298 457 528 84 111 156 
266 826 348 75 69 73 
301 736 266 173 184 207 
328 804 402 136 119 108 
245 682 642 89 114 172 
229 665 374 97 107 128 
180 507 430 106 111 121 
244 179 477 67 46 61 
270 816 491 182 131 107 
146 307 394 114 22 45 
193 352 456 90 92 98 
310 749 286 176 185 204 
281 368 448 117 78 53 
234 721 609 104 27 41 
287 597 396 81 88 97 
174 319 352 132 138 149 
162 441 381 103 123 150 
295 354 466 101 117 135 
231 196 351 74 58 67 
320 187 509 99 90 98 
163 241 447 79 52 55 
231 198 349 88 64 67 
307 769 531 152 144 140 
231 199 349 85 67 74 
224 591 530 107 129 161 
252 336 392 137 120 105 
327 767 475 193 154 108 
252 949 427 114 89 65 
230 677 646 139 149 177 
285 202 399 128 50 71 
266 35 473 85 76 70 
204 296 450 80 83 90 
171 214 463 91 75 86 
196 652 601 120 95 70 
238 959 444 85 66 53 
327 732 506 149 133 123 
240 178 478 45 39 53 
176 262 454 58 45 38 
155 282 452 98 114 132 
205 416 339 90 108 132 
350 503 489 118 126 152 
320 270 481 118 135 155 
219 914 511 96 79 63 
229 724 550 150 126 119 
245 172 488 75 51 73 
295 87 458 85 64 33 
224 206 351 79 43 31 
268 131 384 122 106 95 
359 618 440 84 136 177 
284 680 241 119 93 61 
261 335 423 75 64 57 
297 162 528 118 70 73 
191 657 600 124 95 67 
253 132 455 81 70 61 
275 624 556 123 124 130 
173 644 529 130 86 75 
322 478 521 93 114 138 
293 814 508 205 155 126 
228 650 371 87 94 118 
182 448 495 54 86 127 
348 698 502 154 141 151 
262 119 506 125 62 3 
245 279 518 79 107 135 
260 34 441 102 85 67 
229 939 519 193 149 129 
230 864 476 136 107 77 
355 600 417 128 150 176 
278 623 342 39 68 93 
285 192 410 122 68 56 
246 416 551 94 116 140 
170 573 433 97 119 150 
250 237 525 136 132 134 
201 670 626 168 177 194 
173 299 445 71 87 105 
331 421 429 129 139 153 
232 586 350 112 101 93 
319 589 399 67 87 107 
346 455 446 145 151 162 
287 959 436 87 65 44 
335 786 418 135 124 121 
229 203 348 83 75 69 
177 621 417 163 162 168 
172 433 437 63 79 113 
259 915 419 61 50 41 
261 803 494 182 133 109 
229 316 490 63 80 98 
279 367 547 79 112 160 
230 907 438 123 70 49 
178 428 470 92 92 98 
235 285 485 91 97 106 
304 978 472 109 87 64 
255 308 433 81 89 99 
265 20 399 159 135 125 
266 252 394 70 98 122 
240 682 368 123 122 127 
267 545 541 61 91 141 
177 512 426 106 113 127 
229 207 347 106 43 42 
337 240 474 78 123 159 
230 205 346 107 62 74 
276 648 270 104 93 83 
344 497 502 94 121 150 
348 714 488 173 35 75 
264 229 465 62 66 75 
189 630 544 85 78 73 
261 28 495 99 85 70 
286 401 432 112 106 104 
193 406 461 95 84 79 
230 647 578 61 72 86 
195 631 520 54 50 47 
187 467 523 84 104 142 
194 723 431 150 69 51 
271 465 537 147 151 162 
275 448 534 126 136 152 
171 403 411 53 81 131 
243 486 549 168 160 160 
147 302 394 107 21 44 
287 301 550 148 148 155 
238 612 546 63 82 102 
359 611 436 116 84 88 
241 270 427 69 92 112 
226 755 357 116 48 72 
210 546 353 113 127 149 
333 791 431 135 118 107 
261 806 331 167 12 36 
326 337 445 89 107 131 
220 453 549 68 97 130 
234 192 351 125 49 18 
289 125 520 102 68 63 
255 675 271 156 109 82 
194 639 577 105 87 70 
245 778 350 116 26 42 
346 666 398 155 157 165 
283 241 542 124 122 124 
235 194 348 118 59 38 
282 123 483 98 77 54 
208 591 365 116 85 72 
266 631 592 38 63 96 
361 639 449 85 138 178 
187 255 459 104 69 64 
291 904 416 75 59 45 
270 643 302 107 84 75 
254 318 423 127 113 102 
221 363 326 130 114 98 
279 984 427 134 104 78 
290 705 243 189 131 99 
270 220 472 76 80 95 
157 392 384 96 115 146 
251 893 520 187 148 128 
161 407 393 80 103 143 
191 269 460 80 62 71 
278 798 312 198 213 232 
232 198 348 93 70 72 
240 620 582 52 94 126 
267 253 539 149 145 148 
224 177 393 82 62 42 
270 428 387 114 104 98 
310 521 413 98 117 137 
172 489 393 159 168 186 
292 156 491 119 54 53 
275 326 548 105 127 150 
302 861 427 167 126 92 
231 322 482 68 101 128 
338 165 477 39 62 88 
271 25 445 105 94 86 
324 610 523 96 103 114 
239 194 347 135 65 42 
355 525 475 101 127 155 
241 882 518 155 111 92 
202 353 332 122 29 56 
275 381 545 92 114 156 
331 709 372 162 166 178 
219 270 334 96 119 141 
312 165 498 110 26 27 
257 792 334 159 51 72 
326 318 454 135 133 144 
351 704 441 151 165 188 
346 667 519 147 159 177 
294 972 483 90 72 58 
244 808 438 191 137 117 
173 265 463 45 51 59 
198 577 398 74 98 130 
285 394 534 74 99 144 
250 882 444 114 89 60 
175 652 540 87 54 87 
257 536 542 93 119 152 
307 697 571 177 44 77 
237 197 347 107 67 68 
272 159 524 66 81 99 
230 903 451 129 93 65 
272 70 467 91 75 59 
180 433 431 51 73 116 
264 61 408 114 93 70 
352 652 407 100 138 172 
231 598 526 96 121 159 
207 606 371 166 112 102 
245 454 552 121 134 154 
248 148 494 102 56 58 
323 367 491 74 102 133 
290 51 417 123 96 75 
201 414 482 75 86 101 
228 602 525 151 152 160 
249 206 448 91 60 67 
300 548 536 137 157 181 
308 908 428 71 59 48 
228 327 490 108 102 100 
359 656 476 175 176 185 
172 429 370 118 125 156 
222 676 376 116 121 133 
204 534 379 144 149 167 
327 396 492 71 98 135 
309 721 262 151 163 198 
232 753 536 93 99 111 
279 735 333 83 101 120 
232 762 523 123 85 61 
210 541 355 158 163 176 
286 85 425 110 92 74 
276 645 279 98 88 79 
276 986 483 112 83 62 
286 108 450 100 63 46 
179 645 424 53 73 91 
203 756 476 155 157 164 
161 409 392 74 96 140 
213 574 375 73 85 103 
218 776 442 161 135 113 
289 55 414 122 100 80 
172 643 513 155 110 96 
232 207 346 118 65 65 
302 802 526 200 134 101 
217 632 379 165 112 103 
278 764 287 140 155 215 
313 865 449 175 129 98 
215 757 371 141 34 43 
201 162 398 105 71 54 
306 761 292 140 157 202 
313 643 562 52 100 144 
316 904 447 71 57 49 
170 322 356 111 132 155 
214 381 473 103 106 113 
236 200 347 103 85 101 
322 640 366 67 108 139 
329 722 309 83 124 166 
287 502 535 67 96 147 
258 261 393 63 97 124 
322 699 299 151 155 167 
296 578 402 115 112 113 
358 673 482 182 186 200 
315 510 528 90 117 148 
240 589 527 125 144 167 
322 649 553 66 80 94 
280 1000 462 99 77 54 
172 428 408 80 100 142 
277 467 384 40 75 108 
324 569 403 81 112 138 
279 337 456 112 117 125 
319 343 492 131 139 153 
189 562 411 108 115 129 
261 616 332 80 70 66 
268 654 367 81 102 144 
244 624 360 122 130 156 
236 204 346 107 93 104 
209 738 364 171 25 34 
322 267 478 122 139 160 
215 723 359 118 129 143 
235 766 513 185 132 101 
315 840 423 201 151 121 
254 199 521 78 45 42 
346 757 450 59 29 84 
255 912 417 74 60 48 
245 197 487 78 29 38 
360 580 465 146 154 169 
354 544 488 138 155 176 
200 616 384 125 90 71 
247 628 581 89 109 131 
214 642 521 20 41 65 
169 552 436 71 88 123 
314 884 471 117 92 71 
203 749 490 131 142 157 
178 608 423 114 133 158 
300 876 437 167 126 94 
298 345 531 107 121 146 
243 945 432 137 110 84 
269 631 338 0 56 86 
225 707 600 109 28 48 
346 690 352 129 155 189 
276 829 475 163 118 94 
183 369 464 102 79 65 
245 618 351 124 101 91 
239 201 481 70 32 54 
206 373 452 99 107 119 
256 134 394 128 80 53 
347 551 405 110 132 157 
304 916 429 82 67 53 
251 187 455 114 55 63 
332 191 472 91 31 45 
246 976 469 104 73 54 
237 798 451 191 141 117 
192 508 538 143 144 152 
175 614 436 148 146 152 
209 648 605 104 86 68 
340 246 460 157 155 159 
160 273 450 96 106 118 
344 184 483 48 41 45 
229 938 444 79 64 58 
288 951 433 129 96 61 
228 714 593 141 31 47 
224 213 346 105 53 37 
264 711 619 157 168 185 
293 653 331 83 110 145 
164 329 364 181 148 110 
246 976 495 104 82 63 
289 424 436 47 79 109 
266 245 397 108 20 53 
313 561 410 136 137 143 
225 215 346 119 55 37 
298 608 517 66 72 90 
199 691 610 115 147 207 
305 664 321 78 98 135 
216 232 460 74 47 51 
172 240 434 111 47 57 
266 817 486 167 117 96 
329 333 455 161 116 133 
282 787 304 157 168 213 
180 522 410 112 144 184 
303 448 526 78 110 155 
269 232 469 74 68 72 
223 782 437 156 116 94 
228 209 347 109 63 50 
266 922 524 171 131 102 
200 669 560 136 157 181 
232 961 509 96 80 69 
290 84 460 80 63 45 
153 518 442 117 140 164 
244 628 302 146 106 78 
347 688 341 123 149 193 
188 715 407 109 71 81 
287 714 247 96 148 228 
257 110 407 105 86 65 
264 165 453 126 55 3 
362 626 466 181 178 183 
175 272 361 81 106 129 
257 572 357 76 88 101 
183 459 369 171 164 166 
190 648 591 124 98 69 
224 310 334 125 133 144 
229 212 345 96 61 57 
324 188 479 90 39 63 
316 771 511 148 135 127 
196 268 346 129 132 139 
263 982 423 109 78 45 
298 129 517 110 94 82 
187 236 407 91 46 59 
177 418 420 131 135 148 
195 669 615 129 145 184 
277 625 371 72 77 85 
280 892 425 78 62 44 
229 727 355 125 142 163 
230 214 345 86 61 93 
359 640 436 135 40 73 
264 12 436 100 87 79 
231 215 345 57 71 106 
204 641 531 35 53 72 
257 658 624 125 142 164 
287 593 539 93 125 156 
321 225 492 95 97 114 
318 940 461 82 64 56 
148 302 384 96 98 104 
232 314 460 93 107 123 
290 632 378 107 122 141 
185 311 461 122 122 127 
256 821 455 187 124 109 
239 143 395 122 68 44 
217 336 507 136 103 64 
288 52 411 127 104 86 
179 677 411 133 116 101 
275 19 399 166 143 128 
245 930 422 96 75 59 
191 551 397 116 127 147 
255 306 380 114 35 40 
320 382 442 37 81 142 
181 375 352 83 108 131 
154 365 454 177 148 117 
196 746 400 166 67 64 
203 367 453 108 111 119 
210 644 564 78 72 70 
180 453 418 83 99 118 
214 940 492 182 140 116 
348 494 494 113 133 159 
334 545 521 167 165 171 
240 953 438 123 102 84 
347 463 445 111 129 149 
265 872 441 129 101 69 
307 741 274 94 121 187 
195 317 338 158 153 155 
172 463 436 66 81 116 
302 766 293 161 166 215 
301 543 395 120 131 146 
317 180 513 110 84 82 
229 217 345 114 60 78 
357 676 420 84 139 181 
319 573 535 87 133 169 
165 439 390 111 121 152 
215 503 551 95 111 150 
352 687 479 82 103 136 
190 455 467 75 94 120 
332 716 373 144 150 171 
164 529 439 79 101 162 
209 424 529 67 96 129 
193 600 399 108 103 104 
226 783 465 193 144 117 
352 511 486 92 114 151 
347 681 360 100 148 187 
349 461 467 97 121 157 
221 694 638 110 130 186 
299 722 255 169 172 216 
195 747 478 134 127 125 
307 693 572 167 82 91 
325 748 494 137 125 117 
337 675 535 159 167 181 
256 611 340 60 53 45 
328 388 431 107 131 156 
168 561 436 124 130 146 
282 438 405 63 84 105 
230 222 345 118 95 109 
301 863 473 159 115 80 
257 611 316 101 92 86 
333 772 387 133 35 48 
273 126 372 124 113 105 
197 752 470 170 156 149 
330 420 503 86 117 148 
185 465 371 122 122 150 
303 546 404 86 105 124 
228 747 354 68 52 88 
253 326 409 100 37 49 
313 787 517 186 134 98 
159 407 383 99 118 147 
275 953 434 134 97 62 
201 479 358 100 105 144 
335 330 443 163 89 74 
216 337 444 65 102 130 
226 146 399 91 75 65 
194 333 339 135 138 146 
318 592 400 100 121 142 
176 296 354 121 119 122 
295 806 322 203 217 237 
182 461 420 117 116 123 
339 177 489 48 65 96 
173 643 521 153 103 91 
185 477 475 68 88 113 
341 894 483 102 92 83 
257 204 464 71 63 70 
249 762 575 182 151 120 
359 655 429 164 145 152 
344 713 496 143 27 72 
279 70 412 108 89 72 
330 499 519 116 130 149 
235 213 345 74 78 102 
231 665 647 82 71 60 
156 280 381 120 123 131 
317 905 488 108 82 70 
319 789 506 183 133 99 
314 876 457 93 67 53 
281 811 523 188 135 108 
286 874 499 163 121 90 
168 476 393 109 135 170 
344 642 512 89 117 143 
285 700 345 82 97 131 
237 210 346 100 89 103 
232 755 536 133 138 147 
270 257 540 137 118 114 
345 484 497 99 117 153 
238 209 346 107 108 120 
271 370 424 119 105 90 
297 338 470 129 127 131 
315 423 522 137 146 163 
186 342 349 130 138 153 
256 180 353 150 51 73 
236 149 394 108 70 53 
300 957 442 108 77 58 
205 654 390 87 135 173 
251 656 291 165 111 89 
310 701 254 118 134 166 
278 704 245 179 124 91 
332 696 366 170 184 205 
325 317 472 135 109 130 
256 999 438 190 157 124 
238 779 369 193 196 203 
215 580 537 115 130 157 
328 757 371 97 117 168 
182 497 426 77 89 117 
237 214 346 64 75 112 
248 973 506 92 72 59 
196 605 385 114 88 72 
295 387 457 101 93 92 
205 373 511 112 126 142 
248 759 576 178 142 107 
315 517 529 77 102 153 
288 346 543 135 142 158 
239 214 346 56 80 113 
165 606 470 54 95 159 
156 522 444 68 87 143 
228 789 421 161 144 134 
173 382 356 62 92 121 
196 359 337 108 113 122 
321 742 307 119 137 198 
263 736 605 170 31 66 
349 723 443 148 156 170 
307 929 508 100 82 73 
208 694 610 176 193 216 
295 53 490 123 114 108 
340 633 507 112 127 146 
319 918 451 90 70 55 
325 286 465 76 98 122 
264 619 528 67 72 80 
185 470 377 141 138 148 
274 132 407 113 100 88 
349 671 512 178 177 185 
184 727 470 155 133 118 
272 900 519 173 129 99 
199 350 335 124 104 81 
221 421 540 47 83 121 
242 260 436 59 49 55 
189 740 465 194 154 111 
286 861 481 148 106 72 
179 300 348 113 102 96 
310 422 429 54 89 147 
282 343 552 116 131 160 
173 575 490 145 156 174 
262 814 380 191 158 126 
238 719 353 124 135 151 
227 528 350 119 128 146 
192 421 496 31 73 106 
228 770 493 189 139 109 
271 616 520 52 62 74 
241 638 621 112 125 142 
340 258 457 116 137 160 
244 638 364 152 155 179 
256 997 471 130 95 76 
322 780 499 118 121 129 
184 543 419 104 130 173 
260 599 530 153 156 167 
167 569 474 75 99 155 
247 639 368 101 107 142 
315 762 321 145 151 186 
280 157 446 103 93 84 
239 217 346 52 76 110 
201 634 391 127 90 72 
215 599 355 158 112 99 
268 108 471 87 70 52 
333 671 545 163 164 173 
198 393 456 89 92 100 
240 308 338 97 116 138 
169 259 436 144 74 0 
310 660 281 114 132 154 
288 61 414 107 86 66 
315 686 266 55 91 140 
236 222 345 123 71 86 
313 703 555 165 55 63 
222 323 504 75 81 90 
252 726 616 81 62 114 
268 368 553 56 105 148 
323 628 529 129 133 143 
183 669 513 123 157 190 
292 37 412 112 90 66 
296 164 411 104 108 116 
199 597 529 148 149 157 
253 887 521 189 146 124 
240 151 443 70 64 59 
331 613 387 125 132 144 
227 864 489 144 111 83 
274 143 451 162 152 145 
312 849 468 155 109 79 
241 195 347 140 68 49 
298 136 519 89 71 65 
185 734 475 192 153 107 
292 302 545 158 155 159 
273 200 372 134 111 110 
245 972 455 80 56 39 
302 296 475 103 116 132 
247 783 505 196 145 115 
272 708 610 157 72 91 
242 192 348 143 65 42 
242 757 558 127 129 137 
304 686 318 81 101 131 
318 800 502 199 140 108 
234 166 388 96 59 36 
274 65 451 107 100 96 
219 646 579 62 67 73 
309 309 504 147 91 7 
317 838 467 188 139 108 
297 919 421 58 45 37 
193 667 612 169 173 186 
257 320 428 97 98 103 
172 274 464 67 69 72 
191 472 367 179 173 177 
211 697 625 101 137 189 
298 573 401 119 115 115 
244 640 623 106 123 143 
252 794 498 192 141 114 
294 336 535 90 109 141 
312 934 442 93 72 57 
242 897 519 158 114 97 
199 738 442 135 115 99 
186 456 517 103 117 143 
244 193 348 148 72 54 
346 513 500 104 123 150 
216 566 543 159 160 169 
192 335 456 77 82 90 
249 435 346 152 150 156 
192 505 539 168 161 163 
285 799 314 174 206 233 
239 951 438 104 85 65 
314 659 569 127 143 162 
184 400 464 80 47 34 
309 247 504 108 133 158 
194 674 607 120 139 189 
344 124 491 120 125 132 
174 666 423 107 107 155 
353 499 464 139 150 167 
210 701 506 136 94 96 
164 504 465 91 112 147 
249 813 420 194 138 118 
213 446 351 124 128 146 
160 293 370 115 120 130 
244 196 347 159 90 74 
227 721 355 118 129 144 
244 196 348 163 92 74 
256 120 439 88 69 49 
286 158 530 57 85 108 
245 197 348 166 92 70 
241 599 525 130 150 173 
270 434 386 122 112 106 
208 555 384 137 132 134 
277 77 414 104 87 69 
263 168 478 71 61 68 
246 196 348 169 93 71 
246 171 488 80 56 75 
175 276 430 73 84 97 
175 588 432 81 95 124 
303 773 539 127 123 124 
251 702 634 162 177 199 
195 429 481 48 68 90 
294 248 536 133 135 143 
242 257 437 85 69 82 
236 669 653 105 122 164 
309 712 549 192 127 137 
319 426 414 102 127 155 
282 97 509 112 101 91 
263 561 359 80 106 130 
240 201 347 104 92 101 
242 499 548 125 130 145 
344 646 383 70 73 88 
331 434 507 105 119 146 
355 664 415 72 122 165 
275 419 402 91 79 66 
299 344 528 113 124 143 
253 787 345 100 30 46 
173 505 486 98 120 146 
287 349 462 86 105 124 
275 116 477 91 72 51 
201 409 519 32 72 108 
310 175 517 138 84 61 
157 357 409 154 144 142 
340 108 505 124 95 64 
248 216 518 96 93 101 
330 694 540 97 99 115 
301 70 498 125 87 49 
183 456 511 87 107 138 
274 443 389 64 87 111 
257 382 368 147 128 111 
242 591 345 108 99 92 
241 205 347 116 104 119 
242 943 430 111 83 45 
240 207 347 114 107 120 
327 360 454 119 138 163 
255 361 360 122 55 63 
192 183 449 35 27 30 
265 573 360 61 84 104 
232 793 408 67 48 52 
241 207 348 109 101 120 
194 164 412 103 89 78 
337 398 459 65 96 132 
250 925 528 182 143 116 
244 892 441 133 88 44 
258 267 536 74 113 145 
198 273 342 103 116 131 
229 879 518 117 89 64 
265 449 375 114 105 99 
189 661 406 68 97 124 
277 613 521 56 66 83 
265 55 466 79 66 53 
252 601 352 77 71 68 
265 722 612 165 183 201 
303 495 531 149 157 171 
175 265 428 77 87 99 
359 605 443 178 174 178 
302 547 401 98 113 131 
303 50 450 121 107 97 
250 618 589 19 58 91 
325 660 554 145 144 151 
259 460 540 123 133 152 
285 46 408 132 105 82 
267 627 584 59 90 128 
246 201 350 159 98 81 
219 317 442 118 121 128 
267 974 424 113 86 52 
226 905 505 98 66 58 
343 567 404 133 142 156 
272 258 470 126 122 122 
259 618 304 109 99 90 
250 449 547 109 122 156 
325 776 483 133 133 138 
161 580 454 67 92 132 
308 738 536 159 143 132 
157 480 439 65 103 174 
282 91 483 92 71 47 
326 880 471 101 80 64 
251 268 530 67 100 130 
236 254 451 107 17 39 
225 543 351 87 112 156 
246 625 567 108 109 123 
303 683 301 86 103 135 
314 272 489 158 155 159 
217 444 544 81 105 135 
325 602 393 80 107 132 
190 218 456 84 75 86 
288 189 390 111 96 111 
218 948 470 96 75 61 
192 732 448 142 127 114 
319 500 419 68 101 129 
305 39 434 97 85 72 
253 329 379 142 122 103 
223 177 394 82 61 37 
169 457 395 74 95 146 
259 348 409 113 110 111 
233 917 429 92 68 56 
146 323 398 116 58 90 
301 833 485 195 139 109 
273 207 372 82 112 138 
326 737 366 117 133 168 
233 646 594 65 81 100 
211 583 377 52 64 75 
322 574 402 71 110 140 
309 761 531 179 165 159 
286 201 394 131 71 76 
348 730 439 124 117 118 
358 647 499 116 142 194 
312 928 484 77 60 49 
172 485 435 101 109 124 
234 421 325 69 102 141 
233 282 452 114 83 67 
183 682 426 198 141 59 
248 196 351 166 93 70 
222 754 519 104 123 143 
157 319 413 136 68 98 
296 806 527 200 137 105 
272 178 424 76 46 59 
288 131 386 131 117 104 
234 680 645 125 140 177 
188 630 555 87 78 71 
312 843 473 168 120 90 
343 125 499 132 129 128 
167 256 372 82 120 152 
262 192 430 59 72 89 
266 414 386 130 66 2 
317 555 533 160 158 163 
276 429 397 110 100 91 
300 836 382 196 162 125 
217 358 496 90 99 111 
282 204 477 122 37 50 
181 674 410 104 111 125 
260 834 447 138 85 68 
195 631 522 55 50 48 
345 166 487 96 28 32 
242 210 348 82 101 125 
263 789 555 196 143 115 
258 622 587 39 61 82 
345 499 422 48 76 98 
260 782 329 127 148 172 
303 141 400 128 113 102 
287 58 429 106 82 62 
217 343 330 127 112 99 
269 130 474 94 77 63 
340 708 509 146 22 67 
288 523 383 68 89 112 
336 238 464 138 142 152 
308 714 549 176 141 135 
243 798 385 176 153 136 
181 649 421 84 92 102 
309 719 543 88 62 110 
242 213 347 68 102 130 
312 792 342 166 178 196 
342 188 483 108 32 34 
206 662 527 123 153 183 
343 115 496 136 62 1 
165 638 463 171 121 112 
324 303 463 116 103 110 
217 339 507 135 101 64 
248 212 465 44 51 69 
307 216 489 29 46 75 
267 707 257 182 126 100 
334 245 464 147 148 157 
177 691 475 125 58 12 
356 585 497 92 137 173 
361 625 451 92 123 150 
183 709 482 119 64 36 
199 463 353 84 108 154 
287 416 422 91 103 118 
158 363 409 129 127 132 
242 162 470 93 70 72 
339 903 505 145 129 116 
306 355 467 111 122 137 
319 507 419 112 124 138 
150 437 444 112 130 153 
236 281 483 111 111 116 
206 263 341 107 115 125 
269 360 552 56 96 140 
255 631 606 62 101 150 
181 541 418 122 145 176 
361 642 449 84 140 182 
192 546 395 97 122 148 
340 289 451 122 128 141 
288 478 399 59 85 107 
344 760 428 152 40 45 
317 726 292 177 172 175 
264 553 538 164 162 167 
245 212 349 68 101 129 
207 694 500 160 129 86 
181 549 421 111 124 165 
242 713 352 118 131 147 
233 871 465 131 104 73 
193 661 525 116 146 177 
320 398 515 166 163 166 
303 973 447 129 102 71 
224 657 625 82 72 64 
247 212 351 70 109 139 
334 394 482 82 105 139 
280 447 397 58 84 108 
172 203 459 100 55 64 
217 574 361 59 68 86 
220 552 352 175 177 187 
167 256 381 72 105 134 
176 644 558 153 111 87 
288 654 303 105 100 121 
193 465 357 119 130 158 
275 311 544 123 141 162 
277 810 504 185 137 109 
191 580 396 106 131 161 
309 346 515 97 114 140 
261 402 380 142 122 103 
317 667 288 100 125 150 
325 287 470 127 43 64 
276 721 309 42 63 91 
347 696 504 178 34 60 
229 452 553 67 96 135 
354 527 432 180 181 188 
249 240 414 78 40 63 
230 263 494 64 85 106 
241 735 601 116 111 122 
330 648 539 156 164 178 
242 219 348 72 81 108 
226 744 529 172 144 116 
306 448 417 78 105 135 
279 227 398 50 61 82 
183 478 470 58 78 120 
263 615 317 76 71 68 
214 581 372 48 59 70 
308 960 482 115 89 64 
208 667 631 91 73 55 
161 242 448 84 59 60 
322 684 558 157 168 185 
223 648 552 42 57 73 
206 421 523 91 106 130 
327 683 552 169 75 93 
231 442 548 58 86 123 
168 643 536 183 132 113 
208 752 494 150 145 146 
258 516 543 78 102 141 
306 606 525 105 112 122 
193 721 494 75 67 70 
301 147 414 122 108 93 
171 273 364 79 101 122 
360 625 490 120 140 162 
337 703 320 53 116 159 
210 762 421 166 136 101 
263 705 278 121 135 170 
186 424 357 113 120 131 
235 690 366 59 84 110 
176 501 397 77 111 177 
179 615 411 104 132 159 
187 587 398 132 109 122 
179 501 436 67 76 100 
208 705 371 124 132 145 
244 217 348 49 86 119 
290 862 422 139 94 57 
314 448 523 113 129 154 
256 524 542 85 108 145 
244 218 348 52 82 114 
244 218 349 56 84 116 
191 443 478 54 73 95 
254 367 355 150 129 110 
307 592 543 94 140 177 
279 784 560 194 136 99 
179 672 488 126 160 192 
254 252 400 57 85 108 
173 292 446 105 96 88 
214 152 396 94 72 60 
256 562 355 44 67 89 
223 701 569 150 82 101 
295 662 588 96 119 150 
269 254 384 96 85 104 
320 125 513 62 81 102 
316 252 490 119 133 151 
270 252 390 99 81 91 
319 846 448 197 150 119 
250 865 450 146 112 83 
347 155 485 100 32 56 
184 496 435 62 72 96 
171 480 400 73 101 155 
268 162 521 115 63 67 
281 112 437 97 78 56 
245 773 521 197 145 111 
262 408 545 113 130 152 
244 976 483 141 113 79 
236 889 521 172 127 106 
311 818 496 204 144 111 
312 279 476 153 149 153 
246 223 351 114 52 77 
202 460 350 49 84 114 
209 643 522 21 40 63 
202 740 426 83 81 113 
236 793 473 180 131 107 
308 608 513 65 71 90 
255 209 423 125 35 65 
192 525 395 110 121 136 
345 227 466 89 129 162 
163 411 395 58 79 134 
308 328 508 108 124 143 
311 799 342 170 47 71 
281 152 483 121 73 51 
225 195 358 45 53 60 
231 648 532 32 50 71 
162 322 363 175 146 114 
226 192 359 42 40 58 
353 506 470 116 134 160 
285 745 270 129 142 221 
299 908 419 69 51 40 
202 663 389 42 59 80 
273 767 578 81 75 74 
170 391 416 100 119 140 
201 730 369 106 129 149 
252 433 350 156 154 158 
201 409 484 85 91 101 
239 674 369 123 124 131 
314 268 490 105 125 147 
343 236 472 74 121 158 
258 682 263 151 104 78 
235 294 458 105 96 91 
243 931 423 104 85 72 
226 197 354 53 46 57 
224 758 504 169 125 95 
194 626 517 66 61 58 
225 933 448 74 60 53 
268 37 496 95 82 69 
242 523 546 116 122 151 
268 576 365 28 69 100 
337 454 503 104 119 148 
249 548 354 82 96 113 
282 651 348 54 95 138 
197 714 495 112 83 69 
282 128 387 134 119 106 
332 415 435 99 119 143 
343 700 346 133 146 192 
186 346 351 137 140 149 
247 163 470 101 65 66 
225 197 357 41 52 60 
300 954 439 112 80 71 
244 506 547 128 134 149 
362 628 457 127 62 69 
290 437 432 77 96 116 
296 893 424 87 63 47 
308 707 252 133 152 180 
154 348 377 178 126 54 
225 198 356 53 54 65 
226 196 356 46 49 63 
226 196 357 45 49 61 
237 939 524 190 144 123 
266 94 413 105 91 77 
272 965 428 102 77 41 
156 266 455 142 142 149 
237 740 561 156 137 121 
249 692 640 118 126 174 
341 723 395 109 121 159 
198 394 457 90 93 99 
327 312 456 141 133 142 
258 218 412 60 41 51 
231 376 530 53 85 116 
237 918 527 170 130 108 
230 193 354 83 49 36 
284 73 476 105 83 63 
296 339 532 105 122 148 
281 625 556 91 102 115 
249 391 340 125 109 93 
345 192 474 111 39 48 
165 331 446 80 67 88 
268 708 616 137 120 125 
184 585 524 107 128 152 
246 626 606 110 127 148 
286 972 426 118 98 77 
234 912 523 132 105 84 
210 646 531 29 43 58 
289 248 542 123 133 148 
320 792 502 187 132 101 
241 767 544 170 136 99 
304 548 407 100 111 125 
163 531 453 143 154 169 
300 183 496 39 57 74 
217 557 545 172 165 166 
336 389 460 67 101 135 
242 418 544 114 123 135 
308 355 520 77 115 148 
197 708 494 98 102 111 
335 309 452 163 71 104 
227 162 391 93 70 51 
247 174 490 123 41 33 
158 503 446 94 115 148 
254 641 367 78 94 133 
348 656 359 100 125 149 
186 211 449 58 25 25 
296 461 429 75 103 132 
219 465 550 92 112 138 
250 371 342 159 129 102 
191 647 591 121 95 69 
173 339 361 116 125 144 
274 375 427 127 112 99 
294 56 502 90 81 73 
282 680 603 84 104 155 
300 948 499 100 81 67 
183 487 424 102 109 122 
202 361 453 104 106 113 
229 910 439 108 72 55 
178 397 467 136 119 104 
330 415 499 87 113 141 
231 961 507 90 75 64 
259 612 314 102 93 87 
193 474 363 185 173 169 
249 201 516 67 82 99 
247 779 513 196 143 112 
227 887 462 136 105 73 
275 643 594 60 72 87 
246 425 341 87 106 139 
251 871 518 155 123 96 
276 229 385 102 65 59 
313 890 473 108 83 64 
178 481 435 79 95 116 
232 787 476 188 135 110 
281 345 457 87 104 121 
218 693 521 150 63 67 
263 351 419 94 22 44 
307 430 445 51 87 149 
196 646 595 113 92 70 
214 737 360 62 90 139 
273 859 493 147 106 76 
223 266 335 102 56 69 
354 519 480 95 120 153 
162 306 448 87 90 97 
290 447 530 156 161 174 
332 665 328 46 75 109 
170 656 474 77 90 107 
289 175 411 50 83 108 
206 691 604 149 180 212 
196 218 401 101 82 64 
362 615 458 169 169 176 
279 98 459 91 72 55 
257 177 353 120 63 79 
337 777 416 180 144 144 
249 195 352 163 89 62 
341 694 519 182 16 55 
279 166 372 138 99 83 
320 593 399 118 125 137 
179 680 412 144 132 123 
193 722 494 102 86 77 
195 656 605 126 98 69 
285 167 532 111 100 102 
311 217 510 153 148 150 
179 613 417 101 123 147 
218 647 545 34 47 62 
213 563 359 91 120 164 
269 67 464 90 74 58 
261 452 370 98 106 116 
328 315 462 112 127 157 
252 599 355 73 70 68 
191 425 511 105 119 136 
247 133 463 96 77 63 
249 197 353 157 90 65 
256 889 522 194 152 129 
281 251 544 116 128 144 
248 198 353 161 99 79 
168 477 472 114 129 155 
214 671 522 188 110 114 
200 461 538 98 116 136 
268 801 511 179 128 100 
314 526 416 94 113 139 
301 411 529 97 126 157 
159 291 400 108 117 129 
153 390 450 153 108 90 
230 403 538 56 88 122 
355 551 485 108 130 163 
251 196 355 164 98 83 
312 786 337 176 184 199 
287 551 380 72 100 125 
251 152 473 82 69 59 
245 286 519 135 137 146 
310 514 412 97 114 134 
190 706 485 148 86 51 
318 739 298 172 181 202 
245 617 594 82 110 134 
244 213 505 63 62 100 
252 652 274 138 99 71 
212 768 449 146 117 96 
353 692 488 149 166 189 
212 595 359 149 101 92 
221 198 458 64 46 40 
343 677 522 165 174 190 
272 145 361 147 73 22 
274 799 314 185 208 229 
317 281 486 104 125 149 
305 716 550 94 77 87 
258 147 475 90 71 60 
183 263 355 152 146 148 
342 463 434 76 104 143 
253 194 356 159 76 65 
322 430 518 108 124 150 
303 640 345 107 121 136 
334 612 529 111 140 174 
255 192 356 157 79 73 
216 139 437 89 52 15 
215 329 444 86 77 91 
178 570 519 100 119 145 
211 250 459 78 74 78 
254 195 357 164 87 76 
188 504 402 118 130 173 
187 664 597 144 147 169 
230 863 476 135 106 76 
197 681 484 76 101 130 
348 692 402 170 170 178 
279 290 472 128 124 125 
240 219 455 39 34 60 
191 399 352 122 135 154 
270 199 370 115 94 104 
247 730 615 157 43 56 
259 412 371 144 69 5 
238 678 645 114 129 163 
242 916 528 151 126 103 
201 549 388 165 161 170 
251 760 580 196 157 112 
287 413 431 92 92 108 
279 859 427 165 126 96 
295 148 497 131 61 10 
239 746 562 158 134 113 
172 530 485 138 143 155 
354 690 450 139 63 82 
267 103 414 99 84 68 
219 452 349 83 102 135 
264 272 370 90 76 84 
257 395 360 148 126 104 
320 375 449 68 99 146 
219 953 484 124 95 80 
308 113 513 130 64 0 
241 803 404 161 147 139 
244 265 436 68 84 99 
227 331 491 87 96 110 
260 239 402 103 0 45 
216 919 471 133 104 79 
258 113 439 89 69 47 
204 406 479 65 78 96 
251 345 345 159 139 119 
307 701 565 97 81 139 
342 738 425 147 92 111 
337 456 426 165 163 168 
279 108 516 118 53 2 
230 476 334 168 170 182 
280 948 514 110 86 71 
293 447 431 70 99 129 
163 414 367 91 111 138 
353 554 412 108 130 155 
227 324 492 108 106 109 
273 101 455 74 55 42 
307 606 526 114 118 128 
186 499 401 175 176 186 
174 320 459 70 52 49 
249 906 522 114 105 101 
241 337 527 131 51 83 
251 200 357 161 106 90 
299 561 395 87 109 130 
297 452 433 76 104 133 
275 84 467 90 72 52 
302 798 324 198 204 219 
273 721 257 108 146 195 
277 646 334 138 148 169 
294 958 500 99 82 67 
310 909 490 138 92 71 
309 405 451 28 75 114 
195 741 394 178 66 74 
157 545 440 131 143 171 
161 363 464 167 141 115 
249 216 471 87 43 55 
172 515 410 161 163 172 
166 445 376 93 126 164 
282 686 602 118 131 159 
307 628 554 131 138 151 
248 207 353 79 96 117 
158 275 385 117 118 124 
359 655 428 150 123 132 
286 214 481 52 42 57 
281 126 483 99 80 59 
257 383 549 78 107 139 
213 604 525 149 144 147 
261 316 438 101 104 111 
264 242 537 140 140 145 
263 20 482 82 69 56 
327 376 436 84 113 158 
263 452 373 92 89 92 
271 805 539 193 138 111 
306 885 444 91 65 54 
248 880 445 123 96 67 
295 464 413 90 105 123 
270 473 371 74 99 123 
336 218 467 122 71 87 
217 772 396 147 127 108 
313 818 361 174 36 76 
306 959 461 110 87 67 
248 228 473 63 48 75 
325 704 542 155 136 133 
280 68 503 124 104 87 
257 264 391 75 93 109 
175 540 505 174 167 167 
277 374 548 84 118 158 
317 177 512 148 85 70 
306 966 464 112 84 64 
287 232 541 123 107 93 
357 692 467 84 133 175 
270 688 247 152 106 75 
224 287 495 96 108 123 
190 430 503 94 113 134 
315 207 481 122 32 31 
252 255 530 88 105 125 
274 930 421 71 55 41 
266 379 403 134 117 100 
167 427 439 55 63 89 
313 905 494 127 93 77 
360 585 479 186 180 182 
313 655 568 62 91 148 
213 922 497 173 130 106 
169 387 414 51 82 130 
215 548 373 144 140 142 
360 593 456 128 146 168 
220 206 459 73 49 45 
157 377 378 81 117 148 
175 655 550 73 102 146 
355 537 440 122 135 158 
328 361 460 81 109 142 
260 400 377 150 129 109 
296 549 392 93 109 127 
221 654 373 117 135 178 
244 215 508 86 64 83 
210 247 460 81 75 82 
265 127 404 111 94 76 
254 204 359 121 112 123 
178 717 477 149 121 106 
266 160 478 80 69 75 
305 481 528 96 117 145 
176 668 519 103 133 162 
203 739 369 165 175 197 
254 204 360 124 121 131 
224 619 546 73 97 126 
267 734 310 134 129 134 
240 628 607 84 109 148 
353 627 409 181 178 184 
242 336 529 134 56 84 
251 869 446 146 115 82 
264 66 501 128 108 89 
189 376 347 51 92 130 
298 200 533 110 51 68 
238 281 481 117 118 124 
357 613 504 109 134 163 
294 292 535 144 128 124 
251 777 556 186 142 110 
153 404 452 126 109 94 
174 489 392 151 166 190 
183 674 584 92 126 165 
254 342 353 107 107 121 
226 766 492 189 139 108 
235 909 428 91 71 57 
344 237 469 89 127 158 
207 389 497 94 103 115 
247 215 353 65 103 133 
267 417 539 94 123 156 
326 561 530 91 132 166 
309 940 441 118 93 76 
288 314 470 73 105 132 
236 352 526 112 124 139 
280 357 550 109 132 162 
361 642 471 123 55 82 
278 148 449 110 98 89 
247 219 354 57 89 116 
327 384 488 109 127 148 
339 725 492 146 68 73 
246 567 356 63 76 89 
283 803 541 199 134 108 
239 472 336 159 158 164 
243 273 513 137 136 142 
292 874 482 156 117 85 
156 501 438 114 136 178 
264 366 405 135 123 111 
199 217 389 72 46 49 
283 654 350 60 87 138 
203 367 454 106 110 118 
203 197 461 104 67 64 
160 526 438 77 97 170 
357 568 451 144 155 171 
178 640 433 50 76 102 
248 208 352 66 98 124 
269 241 466 95 62 55 
327 393 432 102 131 163 
262 273 367 140 137 139 
246 867 516 117 58 58 
258 93 443 90 71 51 
282 187 379 91 105 120 
357 585 496 93 135 171 
266 649 608 58 97 149 
259 134 394 125 84 60 
328 626 381 35 52 95 
357 599 425 103 136 169 
145 330 396 135 60 86 
170 260 391 106 100 97 
231 762 525 117 81 57 
349 553 503 176 172 176 
258 267 450 74 81 90 
302 973 476 119 96 75 
237 648 559 79 88 100 
279 79 475 104 85 64 
327 158 489 92 35 41 
186 382 350 114 124 138 
280 568 532 137 151 171 
256 415 552 148 162 181 
331 538 522 173 168 171 
234 750 353 96 114 132 
351 489 465 152 158 171 
250 209 357 80 107 131 
186 451 516 149 149 157 
225 291 493 77 90 105 
251 209 359 105 121 141 
284 701 344 79 93 131 
201 525 543 93 113 141 
149 462 449 126 145 169 
298 963 441 105 83 66 
248 294 529 79 103 127 
170 620 475 56 69 84 
327 483 519 91 118 151 
278 57 409 123 101 79 
187 671 591 91 119 170 
194 289 459 85 85 88 
198 749 396 128 21 76 
330 273 462 76 118 153 
312 655 304 95 117 139 
238 150 442 68 60 51 
203 463 540 36 66 104 
294 298 534 155 151 154 
169 417 438 66 73 97 
205 695 618 114 156 201 
248 214 355 60 100 131 
248 215 354 62 100 129 
218 699 369 101 113 128 
154 393 457 132 77 25 
216 677 536 166 36 57 
227 197 453 62 32 31 
303 768 295 117 142 200 
243 611 549 70 87 103 
249 214 357 63 99 129 
355 526 474 73 108 158 
309 949 451 105 78 59 
299 708 569 137 26 44 
235 626 545 59 71 94 
163 421 392 85 101 143 
201 420 521 79 98 117 
336 616 525 115 144 180 
263 72 461 89 73 56 
242 593 526 92 116 161 
354 669 493 68 130 173 
214 297 444 94 62 55 
237 764 526 150 108 81 
183 724 471 130 121 116 
248 630 610 38 85 126 
212 624 524 38 39 48 
214 920 503 178 138 116 
215 437 541 73 101 131 
249 276 401 112 109 111 
307 393 456 62 88 120 
237 165 483 86 35 40 
252 212 359 76 111 140 
252 213 359 67 105 136 
239 883 519 167 121 103 
182 651 418 63 82 99 
247 297 344 144 144 149 
174 224 453 50 45 43 
261 848 471 95 67 39 
194 740 405 158 112 79 
244 806 449 185 127 109 
323 471 521 103 119 151 
254 1000 446 175 149 126 
236 207 488 72 36 57 
288 579 387 67 85 101 
297 821 339 155 47 84 
327 178 481 50 46 50 
247 774 524 195 144 112 
156 377 380 82 113 148 
311 583 540 94 138 172 
235 151 481 123 39 35 
169 261 470 68 107 137 
316 330 469 146 145 150 
355 552 487 109 130 162 
166 644 480 154 99 90 
333 232 469 131 143 159 
241 740 593 159 128 108 
274 412 536 133 140 158 
159 307 413 109 106 112 
215 721 518 117 114 124 
241 579 359 43 57 69 
215 701 608 165 181 202 
328 286 461 101 91 107 
311 288 500 110 128 148 
