ply
format ascii 1.0
comment Created by CloudCompare v2.11.1 (Anoia)
comment Created 2/28/22 9:38 PM
obj_info Generated by CloudCompare!
element vertex 2012
property float x
property float y
property float z
property uchar red
property uchar green
property uchar blue
end_header
272 734 603 175 70 82 
278 282 472 129 127 130 
250 297 437 96 98 104 
291 352 541 99 114 147 
160 423 393 35 61 130 
180 260 356 128 125 126 
267 688 351 54 86 112 
169 623 494 56 56 57 
182 350 345 79 99 118 
295 653 281 102 126 149 
264 403 554 93 121 150 
273 112 480 99 78 54 
161 390 439 62 64 74 
247 616 349 96 94 94 
310 759 327 123 147 185 
299 747 279 186 187 200 
244 748 556 143 122 101 
289 567 387 82 98 115 
257 701 257 181 124 99 
255 580 528 165 164 172 
190 728 490 168 148 131 
216 905 489 136 109 83 
316 861 452 155 108 81 
186 175 426 78 42 42 
186 175 427 77 45 42 
266 705 625 164 170 185 
285 631 573 63 98 134 
213 564 364 72 96 131 
249 239 475 55 45 44 
232 530 346 164 168 183 
247 740 353 97 121 144 
156 404 459 106 82 64 
286 623 540 36 54 78 
266 730 343 91 102 116 
185 174 429 74 37 39 
278 902 515 173 128 99 
325 536 530 162 159 164 
184 174 430 72 36 36 
329 724 512 203 188 178 
181 687 420 191 138 56 
259 182 367 128 94 85 
292 706 589 142 139 149 
334 427 432 73 102 128 
261 278 459 98 115 133 
332 756 470 184 168 158 
253 711 628 193 201 218 
318 941 465 54 45 39 
189 262 460 97 49 64 
235 522 344 139 152 176 
325 395 430 120 135 154 
271 1000 470 79 60 41 
249 734 598 131 121 113 
287 663 268 106 94 80 
228 719 354 121 132 147 
307 815 351 178 13 51 
332 550 396 124 132 143 
186 720 468 119 122 131 
181 697 413 59 54 61 
214 281 448 76 60 62 
229 640 375 61 69 82 
323 716 307 113 139 183 
189 727 390 150 71 72 
176 165 438 58 42 36 
214 314 443 111 109 119 
256 158 458 117 50 8 
202 538 543 134 141 153 
151 356 448 179 150 121 
249 203 449 93 67 83 
179 645 515 145 97 85 
166 209 448 95 52 52 
297 517 535 96 120 155 
257 295 534 142 141 148 
316 642 352 94 120 144 
178 165 438 59 44 34 
169 495 433 81 93 116 
293 467 419 76 99 122 
263 344 432 104 63 55 
279 131 374 146 128 110 
316 694 289 137 155 181 
306 204 524 108 101 111 
265 936 423 64 46 29 
231 287 495 101 102 107 
180 161 437 37 44 51 
255 468 550 81 104 146 
230 640 374 55 69 84 
258 310 441 81 98 116 
180 573 510 82 106 143 
273 722 317 102 106 115 
337 228 463 78 126 163 
181 163 438 48 44 44 
252 660 642 135 150 168 
268 756 586 172 153 138 
344 686 393 147 150 160 
216 350 504 117 99 79 
225 621 540 75 96 121 
261 33 412 104 78 53 
207 582 539 181 175 178 
183 161 439 47 45 45 
261 390 401 138 120 101 
253 349 388 139 120 102 
285 837 380 215 189 168 
244 661 648 35 77 114 
183 409 358 141 138 142 
348 525 415 142 154 172 
253 983 477 131 105 77 
203 398 520 78 114 145 
224 406 536 79 106 137 
304 438 419 61 92 132 
350 539 417 121 141 164 
245 227 514 67 103 129 
224 627 536 49 66 87 
187 501 384 133 134 145 
277 641 319 118 130 157 
154 343 377 129 125 127 
151 340 446 116 126 140 
271 417 403 80 58 33 
255 607 369 45 57 69 
247 315 401 110 19 56 
195 487 539 151 148 153 
208 740 503 87 90 101 
264 11 434 101 89 80 
287 103 515 119 107 97 
353 533 435 149 158 174 
309 242 510 92 116 139 
360 686 462 84 145 190 
176 633 440 124 93 93 
220 367 513 113 51 61 
260 154 451 118 59 7 
168 611 463 114 92 86 
266 845 472 101 72 47 
220 356 465 69 100 125 
331 199 466 89 34 26 
313 657 330 132 142 156 
331 159 495 108 32 46 
277 306 544 160 160 167 
209 697 499 133 103 77 
186 264 348 110 117 128 
177 485 505 76 102 145 
167 386 356 132 141 158 
191 434 504 44 82 121 
339 706 513 164 13 39 
177 423 362 77 93 124 
249 137 497 33 58 90 
363 652 465 186 183 190 
299 983 469 130 99 74 
256 739 344 118 128 141 
338 444 432 74 101 128 
278 56 477 97 78 57 
297 938 508 93 77 66 
250 257 527 100 117 137 
188 719 388 117 150 181 
298 766 295 146 144 194 
256 934 525 185 140 113 
288 126 523 107 62 67 
290 128 491 110 93 79 
264 640 605 74 113 144 
211 417 343 102 121 149 
298 866 427 162 122 89 
157 406 379 81 103 144 
350 522 422 148 160 177 
303 275 484 123 129 140 
334 781 424 159 115 74 
237 548 350 117 134 163 
281 256 546 134 134 140 
261 388 402 135 115 95 
331 431 514 105 127 150 
333 683 543 166 143 151 
189 397 353 102 128 157 
296 624 545 59 78 97 
322 685 560 180 14 60 
351 713 453 142 165 192 
232 739 354 108 120 136 
281 985 427 128 93 65 
233 280 493 103 100 101 
358 686 451 74 139 183 
144 352 397 129 111 133 
189 438 466 60 84 112 
315 293 485 87 120 150 
225 326 458 97 113 131 
315 717 537 66 53 104 
178 172 438 39 42 48 
300 688 252 119 136 157 
291 602 534 138 138 145 
286 863 480 151 110 76 
200 580 539 106 132 164 
214 936 475 113 92 75 
313 851 461 140 96 68 
184 690 460 141 118 113 
249 308 373 114 40 56 
164 342 436 106 97 89 
331 305 455 152 83 118 
161 453 460 50 79 131 
177 316 462 77 97 118 
267 626 321 79 92 126 
288 638 334 50 80 102 
215 686 625 118 136 199 
355 653 416 89 124 153 
276 131 481 112 90 70 
286 181 481 91 62 78 
223 781 442 187 139 113 
288 66 417 126 95 78 
190 442 513 47 81 129 
254 610 348 86 73 62 
307 170 526 130 70 71 
163 567 452 73 93 139 
218 749 358 199 117 121 
158 435 378 169 163 165 
176 699 478 137 68 26 
222 314 502 96 103 114 
270 856 490 140 100 70 
158 278 409 118 124 134 
180 173 438 34 38 43 
328 203 467 146 23 13 
304 955 489 89 73 60 
153 379 409 88 106 141 
172 285 356 83 105 127 
268 158 443 123 60 2 
179 544 514 172 166 168 
302 195 532 85 86 108 
221 649 371 98 111 128 
334 693 377 167 170 180 
226 865 488 149 114 86 
266 605 530 135 137 146 
264 635 292 96 85 77 
332 653 344 79 110 137 
183 168 441 41 36 38 
263 636 282 102 91 81 
273 668 288 91 72 70 
236 646 579 68 78 91 
182 171 440 41 42 44 
265 196 375 76 118 150 
183 170 441 37 40 42 
320 783 506 157 123 92 
330 736 373 111 122 163 
197 737 416 77 95 114 
218 649 610 103 86 68 
354 499 474 135 143 157 
315 857 458 154 111 79 
203 677 579 120 147 176 
322 536 531 137 140 149 
239 644 290 158 114 84 
183 173 440 31 35 40 
262 261 462 124 119 120 
252 629 583 105 117 133 
318 740 341 54 91 186 
239 266 428 61 88 110 
262 463 372 107 116 128 
325 648 349 100 120 141 
201 758 406 110 96 113 
312 823 485 203 145 112 
329 404 510 161 160 166 
178 493 509 124 125 146 
270 832 360 162 141 125 
261 743 290 104 119 159 
160 406 439 75 74 83 
244 354 347 135 127 125 
260 85 502 103 87 72 
183 174 444 23 30 35 
254 560 356 46 72 94 
276 192 382 125 93 91 
238 864 465 123 90 45 
273 124 479 109 87 66 
275 777 566 130 137 149 
153 388 388 97 121 149 
231 137 398 101 77 63 
248 174 502 123 31 48 
200 319 451 49 69 87 
237 191 448 100 32 22 
207 633 383 166 108 100 
300 620 537 37 44 51 
252 806 371 153 143 139 
284 272 477 105 104 107 
238 648 527 36 55 72 
358 634 429 85 137 177 
225 427 545 68 97 136 
273 808 497 186 133 109 
274 381 432 132 64 20 
229 434 329 123 136 158 
309 890 433 99 79 60 
253 283 532 93 114 137 
337 625 512 122 129 150 
185 161 444 72 47 24 
279 619 532 73 76 83 
271 308 458 73 101 125 
305 663 279 103 127 153 
196 749 402 122 52 72 
307 55 456 114 103 95 
185 162 444 72 36 23 
197 714 374 115 129 145 
255 742 343 130 137 150 
140 336 405 148 52 88 
268 644 297 106 83 75 
154 396 397 98 117 151 
158 459 437 83 109 151 
320 417 418 123 139 161 
199 195 460 108 73 68 
154 498 446 115 134 160 
322 813 450 174 131 98 
190 615 514 47 75 99 
307 564 537 179 177 183 
190 542 389 106 137 167 
202 420 481 69 83 99 
195 741 452 132 110 91 
282 378 450 96 91 90 
197 749 387 198 140 124 
260 799 493 185 136 110 
271 955 432 125 94 68 
230 283 496 112 109 111 
295 274 542 80 115 147 
271 536 366 104 116 130 
166 615 465 126 93 77 
292 62 478 115 90 65 
214 166 457 91 81 75 
286 436 426 61 90 115 
273 276 542 69 109 143 
323 398 426 104 123 151 
326 185 495 96 70 94 
297 826 488 189 139 108 
360 602 482 102 141 173 
183 348 464 61 77 93 
160 504 445 102 121 152 
317 944 464 60 48 38 
157 412 393 79 95 143 
236 329 510 98 102 110 
302 45 436 148 129 112 
297 648 328 70 100 125 
295 506 534 136 149 167 
221 171 385 84 76 71 
260 89 474 94 78 63 
297 863 473 162 119 85 
247 448 557 119 134 157 
237 542 349 103 119 158 
323 817 426 168 121 104 
178 522 486 93 102 132 
332 396 442 39 78 108 
286 871 493 156 118 85 
161 465 445 110 127 151 
229 144 394 100 79 68 
229 909 435 114 83 61 
252 604 361 73 72 73 
292 569 391 89 102 117 
346 740 452 194 160 117 
362 641 469 123 55 87 
278 842 476 135 95 70 
177 667 500 118 152 184 
316 746 357 123 130 158 
257 760 338 85 100 116 
318 766 360 158 163 176 
295 138 410 121 109 96 
347 657 516 148 154 167 
317 326 467 141 135 141 
194 742 385 104 133 156 
301 775 308 130 165 198 
277 691 346 63 87 116 
145 300 386 77 93 111 
279 662 348 87 41 82 
293 981 431 154 118 79 
322 818 401 186 149 104 
217 367 500 80 99 119 
293 623 544 67 84 101 
247 254 471 113 25 57 
184 172 446 68 44 36 
340 419 463 67 101 154 
251 213 411 120 69 63 
268 673 625 112 133 157 
244 774 507 195 140 113 
345 577 514 98 134 165 
340 660 532 140 151 169 
274 923 520 142 108 80 
345 442 455 87 117 152 
308 701 567 177 36 59 
202 144 440 84 57 14 
222 597 530 118 134 154 
185 175 447 50 54 60 
312 742 531 133 117 105 
310 422 417 78 98 127 
205 496 547 113 126 148 
153 289 410 108 119 132 
296 621 391 59 109 145 
165 653 439 140 93 108 
334 737 379 73 107 159 
192 670 587 77 105 165 
254 613 579 35 68 99 
258 625 339 59 84 147 
183 182 420 74 34 36 
257 64 500 123 102 82 
255 858 442 157 122 92 
213 145 436 73 47 16 
181 488 435 94 99 111 
181 176 431 75 46 38 
161 453 437 76 96 131 
184 583 402 134 145 164 
298 896 415 103 78 57 
281 878 508 162 115 93 
263 1000 462 112 85 57 
168 242 386 73 101 125 
257 920 420 63 51 44 
330 301 448 153 110 72 
183 183 424 66 29 31 
278 109 450 85 63 46 
206 644 596 110 90 69 
238 213 492 103 35 39 
320 468 524 162 166 176 
188 717 458 126 105 85 
240 733 353 118 136 156 
191 217 459 80 90 103 
338 196 471 146 35 23 
261 751 294 180 174 178 
188 724 410 141 66 76 
311 256 481 98 116 138 
254 625 288 106 93 81 
266 98 475 94 72 51 
324 698 547 126 68 100 
281 493 536 114 134 161 
207 438 533 98 115 136 
247 652 637 118 128 142 
322 708 362 169 175 189 
259 38 413 106 84 57 
218 536 551 95 114 146 
297 145 405 132 96 42 
342 586 393 84 76 88 
341 130 488 113 44 46 
244 651 621 54 68 94 
240 968 452 92 72 59 
250 634 317 136 94 78 
289 137 415 106 94 82 
203 660 390 39 41 84 
211 381 329 41 82 114 
179 711 477 107 89 88 
169 449 407 68 94 137 
169 222 433 41 41 55 
355 516 463 79 114 157 
168 279 365 82 108 131 
182 187 417 70 40 43 
266 105 507 118 106 96 
304 688 261 47 91 145 
322 796 496 196 139 105 
303 654 299 81 106 129 
191 714 431 170 45 25 
343 459 501 154 157 167 
207 754 376 179 37 67 
187 377 340 79 105 144 
299 263 525 91 124 153 
279 834 353 175 142 115 
261 52 502 118 97 77 
259 167 445 102 71 74 
276 324 543 99 123 147 
317 268 472 140 127 141 
218 567 354 76 81 92 
269 225 536 109 117 130 
239 242 453 86 33 41 
198 692 383 115 125 138 
182 186 422 67 49 52 
277 563 533 163 164 173 
254 870 518 157 126 98 
287 605 530 123 125 133 
353 531 440 149 154 167 
230 918 433 100 83 68 
314 511 410 81 99 119 
319 443 415 91 112 142 
166 483 391 144 157 177 
188 724 486 135 110 85 
363 648 467 178 180 190 
258 813 374 161 131 102 
239 762 352 101 114 128 
232 451 331 152 158 171 
310 510 410 108 121 137 
305 843 472 177 129 97 
333 679 363 172 175 187 
254 669 254 125 95 57 
266 228 394 100 69 55 
178 654 523 49 75 139 
176 632 544 124 102 82 
181 190 418 39 47 54 
248 784 499 193 142 112 
336 231 463 90 128 161 
206 376 329 80 106 132 
237 661 639 80 72 66 
185 574 531 108 127 161 
262 966 423 131 104 77 
223 139 417 82 75 70 
265 151 449 106 96 89 
282 294 473 125 119 118 
180 511 523 112 124 145 
329 727 508 156 145 141 
277 561 375 103 112 126 
246 612 539 71 84 99 
331 368 452 90 116 142 
176 619 425 157 154 159 
252 974 449 107 86 63 
152 295 380 133 129 131 
297 453 435 56 92 126 
220 352 454 67 102 131 
220 329 449 119 122 129 
267 945 519 132 97 77 
202 676 576 122 146 173 
285 484 534 122 138 161 
344 448 464 102 123 148 
267 468 541 164 160 164 
165 258 439 106 79 31 
288 913 509 99 78 59 
343 541 401 95 121 146 
277 199 401 121 22 60 
271 665 251 99 89 79 
183 184 426 69 41 47 
182 460 495 67 93 129 
163 497 460 58 84 133 
275 508 374 80 98 117 
232 148 438 72 59 47 
344 671 359 102 129 186 
234 855 482 130 102 72 
177 477 433 84 97 118 
276 557 372 87 103 120 
182 187 426 65 56 65 
181 466 505 101 117 139 
215 222 457 63 33 40 
244 224 506 101 74 88 
327 554 395 128 131 138 
188 439 497 34 70 114 
224 645 569 76 72 72 
181 186 430 58 54 62 
181 186 431 64 60 64 
264 740 601 99 95 108 
254 279 376 138 138 143 
171 464 475 74 98 131 
288 15 412 122 106 95 
183 184 429 69 56 62 
195 741 453 112 87 71 
288 676 243 111 95 79 
232 955 509 91 72 61 
173 687 475 148 107 75 
258 638 349 69 94 158 
244 779 499 193 141 112 
156 407 398 85 104 147 
182 186 428 62 51 66 
159 316 432 157 118 74 
260 130 390 116 100 87 
182 187 429 62 56 69 
183 186 428 66 55 67 
232 618 319 166 114 95 
218 146 426 62 39 17 
268 50 473 78 66 55 
187 709 416 159 96 62 
244 202 483 57 39 60 
344 728 478 161 132 98 
274 395 548 97 116 160 
210 531 356 115 137 161 
195 437 356 126 136 164 
155 398 388 88 109 147 
225 612 344 175 120 104 
182 189 425 68 53 65 
357 642 499 144 166 193 
182 188 427 63 53 61 
345 618 377 117 139 162 
189 656 583 122 90 70 
272 885 433 83 64 45 
283 867 423 133 116 106 
252 610 547 67 87 106 
182 190 426 73 48 64 
259 718 348 75 99 123 
291 557 388 103 112 125 
185 625 409 161 112 107 
339 636 518 108 126 148 
180 278 462 67 100 127 
180 188 431 68 60 67 
191 626 401 188 121 112 
249 160 499 98 76 88 
306 806 514 200 139 104 
317 112 493 138 111 90 
182 613 493 134 133 138 
288 958 504 84 66 54 
308 847 421 199 152 118 
291 520 393 97 107 120 
301 357 465 84 101 120 
152 376 382 73 112 147 
310 927 491 85 68 53 
222 167 450 78 65 58 
232 923 429 88 71 57 
220 686 633 96 116 185 
307 741 292 87 106 180 
321 168 485 107 34 30 
167 584 442 104 124 167 
218 162 456 80 72 65 
190 452 521 147 148 156 
268 782 560 198 145 113 
184 177 416 97 38 37 
310 955 482 102 76 55 
311 770 529 98 77 57 
257 975 503 87 71 58 
247 966 442 85 60 46 
347 683 513 162 149 152 
216 616 362 167 112 103 
309 359 526 47 99 136 
318 361 515 66 106 139 
308 324 520 111 124 140 
303 357 531 111 127 146 
184 179 416 89 34 38 
302 479 530 81 111 152 
184 178 418 85 34 37 
264 636 329 69 109 142 
340 746 392 186 183 189 
208 665 518 105 138 169 
174 477 476 70 91 122 
262 151 476 118 67 53 
204 322 339 124 127 134 
253 698 274 55 95 147 
155 422 440 73 102 139 
186 625 405 168 111 107 
164 308 466 131 138 150 
236 267 345 113 126 141 
148 311 414 112 54 66 
323 731 513 162 121 89 
184 195 407 30 41 50 
308 46 445 118 107 99 
249 206 454 57 71 88 
157 420 458 108 95 84 
185 457 491 69 92 120 
293 849 411 218 159 121 
220 759 365 170 58 83 
324 790 374 155 29 47 
216 643 565 82 75 70 
292 41 440 107 94 84 
330 485 519 92 122 156 
296 590 402 103 116 131 
198 547 542 89 104 131 
239 354 343 165 143 122 
286 778 561 181 149 121 
250 178 495 95 38 32 
196 453 354 28 73 110 
148 436 444 118 136 159 
256 621 338 101 107 116 
320 826 463 185 135 107 
223 679 641 191 197 213 
218 145 399 95 79 68 
183 686 398 149 167 189 
264 480 370 142 143 149 
258 507 361 123 134 150 
189 515 391 99 116 138 
253 209 522 74 70 88 
193 313 457 55 69 81 
185 690 443 121 74 57 
229 375 527 101 115 131 
289 426 439 45 79 109 
223 342 335 170 145 118 
272 306 460 77 106 135 
333 410 478 84 109 143 
228 237 450 38 39 57 
246 314 408 119 116 117 
269 349 438 147 128 110 
155 378 460 129 127 131 
265 761 291 155 159 172 
239 256 348 156 153 155 
182 464 371 122 122 151 
279 999 457 95 71 51 
264 778 561 150 121 95 
305 978 467 95 73 48 
309 321 502 163 120 69 
250 461 555 164 163 169 
220 360 470 64 90 109 
266 679 356 24 49 89 
162 386 419 49 78 133 
162 374 423 46 77 126 
190 639 408 105 76 63 
291 365 461 106 100 97 
150 324 420 123 86 110 
167 222 457 50 51 54 
314 758 354 83 95 146 
313 867 460 122 89 66 
241 661 647 61 55 81 
361 632 486 173 172 179 
332 697 354 153 174 207 
220 176 386 82 69 58 
209 654 609 114 91 66 
208 643 540 36 44 57 
336 609 530 118 152 188 
262 637 608 59 100 146 
175 248 417 104 67 45 
263 35 410 110 83 51 
252 633 280 100 89 80 
224 196 449 45 26 29 
234 635 371 102 108 138 
297 457 434 76 101 127 
287 981 429 144 107 76 
294 132 399 110 99 90 
157 273 399 131 130 134 
272 271 542 71 108 140 
259 637 581 91 102 117 
296 985 472 125 97 70 
178 433 423 102 110 125 
338 701 382 125 138 171 
281 159 419 123 61 29 
185 181 424 67 44 36 
260 631 286 103 93 84 
167 544 448 100 115 140 
323 813 431 165 126 98 
248 681 363 84 96 110 
317 823 386 176 149 125 
255 619 331 106 86 77 
318 370 520 66 95 141 
216 772 455 197 146 118 
188 306 344 145 140 141 
299 545 396 111 122 137 
270 717 250 80 117 201 
259 733 307 154 146 145 
301 193 533 85 89 107 
257 824 416 187 131 109 
198 458 351 37 77 112 
257 610 553 63 80 96 
227 549 548 97 112 144 
257 817 392 106 88 99 
298 148 528 95 93 99 
210 757 481 191 149 117 
184 182 429 70 35 38 
357 549 460 135 146 163 
197 427 524 100 118 138 
256 775 557 175 153 134 
245 758 551 167 144 122 
283 632 334 63 88 110 
315 745 332 63 87 174 
257 571 532 188 176 172 
176 179 433 75 44 43 
147 317 380 133 92 33 
223 546 550 158 160 169 
330 784 399 159 129 114 
247 672 268 150 105 77 
264 781 301 147 152 172 
272 584 375 66 81 97 
308 148 517 59 77 96 
266 996 436 138 99 64 
265 102 446 91 71 53 
303 830 370 171 153 139 
257 245 461 88 42 54 
246 296 429 115 113 114 
227 888 518 188 137 119 
165 624 494 98 86 78 
155 403 441 132 122 116 
207 283 453 92 91 95 
177 177 438 36 43 51 
293 300 478 112 116 124 
248 312 384 107 36 49 
160 314 466 124 133 146 
302 867 432 175 135 100 
321 815 458 181 137 102 
248 648 567 68 84 101 
145 361 400 100 115 144 
322 263 474 155 154 159 
184 623 529 87 79 74 
275 117 430 89 71 51 
201 705 374 103 115 130 
308 644 571 102 121 144 
290 179 536 121 116 116 
315 925 472 65 53 46 
163 236 467 124 86 83 
268 468 376 74 100 124 
258 757 580 191 159 126 
189 258 347 110 115 124 
226 958 465 91 74 65 
263 851 494 128 89 60 
197 139 427 80 67 56 
247 929 527 188 151 127 
214 514 550 134 144 161 
169 498 413 84 103 145 
247 209 513 96 56 73 
178 181 433 71 43 45 
260 223 530 131 129 132 
285 246 483 139 122 102 
283 75 502 121 100 81 
204 363 455 104 107 114 
246 195 477 82 36 54 
271 716 249 91 133 212 
303 871 437 173 130 97 
176 181 439 32 33 38 
343 425 457 89 122 159 
331 67 458 105 94 84 
293 709 585 108 103 133 
254 369 390 114 66 63 
361 643 443 75 127 169 
318 676 302 30 66 91 
339 401 450 120 132 150 
170 466 384 128 144 191 
316 348 448 87 118 156 
252 448 358 61 87 127 
281 836 367 177 152 129 
280 780 561 196 139 107 
193 657 401 102 98 100 
247 675 652 141 156 183 
221 525 552 132 142 159 
281 295 472 113 103 98 
319 827 412 160 134 116 
286 995 437 141 111 82 
236 719 561 100 88 87 
265 566 533 136 143 157 
153 327 426 148 70 103 
215 670 521 168 105 108 
312 687 571 159 34 62 
278 175 478 93 83 87 
335 699 323 50 81 167 
292 603 529 125 126 133 
259 892 431 98 77 51 
176 628 434 113 57 87 
338 411 469 79 110 149 
210 309 445 86 87 95 
244 808 422 192 136 116 
285 741 584 136 122 117 
196 716 374 117 133 152 
252 855 511 166 129 107 
217 643 581 80 74 69 
192 474 364 156 157 168 
301 113 511 134 71 32 
170 475 475 90 113 144 
295 870 476 157 118 85 
156 239 449 114 88 75 
281 507 383 111 117 127 
193 159 404 121 61 3 
243 678 643 128 141 177 
237 964 449 105 81 61 
249 685 275 166 108 90 
213 603 356 151 109 94 
271 123 416 87 74 60 
279 865 426 165 126 91 
212 508 341 157 165 183 
181 179 440 25 31 36 
258 741 298 110 124 154 
225 956 468 101 81 71 
311 873 460 111 83 62 
319 105 507 108 97 89 
332 758 380 158 164 177 
360 600 476 92 143 182 
304 570 537 154 163 179 
218 942 465 85 70 60 
293 127 495 113 86 60 
237 619 336 150 97 84 
204 457 539 157 154 158 
299 467 428 88 111 139 
171 576 479 73 92 142 
259 735 343 84 92 104 
275 313 462 74 99 121 
289 802 537 199 133 105 
158 516 437 126 144 178 
148 431 448 136 145 162 
266 530 363 81 100 119 
267 682 354 39 60 85 
251 608 343 68 62 58 
184 220 455 49 74 94 
180 665 560 128 148 171 
286 730 589 143 128 116 
222 145 422 67 55 40 
325 918 511 125 85 65 
232 324 475 70 108 138 
232 709 354 104 115 135 
319 917 452 74 59 49 
322 369 502 52 89 127 
261 196 373 93 121 147 
311 343 523 97 111 139 
186 673 397 156 159 168 
182 182 441 32 30 29 
306 706 563 168 34 55 
360 677 433 181 181 189 
178 688 466 109 52 34 
300 640 365 77 111 139 
255 132 506 48 46 67 
324 610 382 94 113 132 
343 446 438 120 133 149 
151 491 442 124 142 164 
303 296 520 160 154 155 
168 623 488 48 50 52 
176 185 434 74 69 70 
176 186 433 66 60 60 
348 480 494 109 128 153 
220 739 355 123 71 78 
283 132 381 135 122 110 
176 186 434 63 58 59 
324 765 488 150 138 130 
338 746 388 159 158 165 
239 319 512 125 42 70 
279 354 453 125 108 91 
179 185 433 74 69 70 
349 499 430 130 143 160 
178 187 433 68 64 71 
237 287 464 86 106 127 
320 336 448 130 113 104 
279 886 512 156 111 86 
309 49 450 91 83 75 
344 431 456 94 120 149 
266 811 487 176 126 106 
245 621 556 21 39 104 
357 556 459 129 149 174 
204 667 548 120 146 174 
241 605 313 104 94 85 
322 660 564 149 153 164 
212 629 377 168 110 100 
177 188 433 67 62 68 
272 205 385 129 109 122 
236 269 345 104 117 133 
256 819 457 182 119 102 
244 282 351 91 113 134 
180 417 470 80 73 68 
281 421 537 99 110 137 
249 802 342 131 51 52 
182 308 463 115 115 120 
301 585 541 147 152 163 
248 159 495 95 73 85 
178 189 433 62 64 70 
248 631 544 44 62 90 
354 688 481 158 172 192 
163 478 433 82 103 146 
191 609 517 91 39 54 
301 250 521 113 44 65 
326 712 310 140 155 191 
203 751 443 151 129 112 
303 773 309 145 168 195 
362 626 466 180 177 183 
299 115 500 143 114 83 
232 428 546 55 87 131 
338 588 388 79 118 150 
360 667 481 110 158 205 
323 811 452 173 131 99 
180 188 432 61 58 64 
180 189 432 71 51 69 
210 133 424 88 76 65 
221 359 486 125 125 129 
237 710 621 173 192 216 
275 535 369 75 97 119 
285 473 404 66 89 108 
236 375 535 67 95 127 
306 660 287 69 111 149 
249 804 380 206 183 173 
178 185 440 36 33 36 
309 322 512 136 122 111 
352 711 434 166 171 186 
175 200 443 75 27 28 
288 349 464 79 99 120 
216 773 438 98 119 140 
320 624 530 128 131 139 
266 683 634 76 121 159 
260 212 468 65 49 55 
236 744 542 110 66 49 
276 577 530 126 148 174 
245 782 498 194 143 115 
286 588 390 88 91 96 
283 126 485 106 88 71 
194 270 458 78 64 69 
200 496 367 122 133 164 
249 754 568 180 149 115 
260 131 387 118 100 87 
191 381 339 99 116 146 
263 474 370 139 139 145 
239 225 496 61 26 34 
172 254 418 106 64 45 
313 935 519 123 102 82 
198 639 394 172 117 108 
164 461 448 110 125 154 
239 626 325 164 109 93 
179 190 441 51 27 28 
220 685 589 116 149 182 
233 332 508 99 103 113 
250 441 354 98 122 149 
341 569 519 95 139 175 
338 455 429 142 145 153 
218 898 474 154 114 85 
214 646 525 26 39 57 
327 413 516 89 116 145 
277 471 390 68 91 111 
262 758 332 102 111 122 
186 364 338 78 98 118 
305 944 493 108 89 74 
313 336 510 159 156 158 
160 538 467 99 119 146 
332 469 417 143 143 147 
234 649 611 73 69 66 
277 177 477 91 78 78 
357 561 480 128 149 173 
174 272 457 70 67 68 
264 108 408 97 79 60 
360 667 433 84 143 187 
330 511 522 111 136 164 
276 241 478 113 71 84 
163 482 452 107 125 150 
246 654 268 125 95 60 
203 753 382 197 104 52 
321 709 298 158 169 193 
328 797 413 205 186 174 
293 870 419 132 107 82 
358 611 435 109 30 48 
234 947 439 90 74 58 
249 323 415 131 115 98 
221 618 360 171 115 104 
196 737 373 65 13 86 
316 909 462 76 61 53 
320 624 529 128 131 139 
335 731 491 149 150 157 
359 579 458 114 138 163 
309 920 488 82 55 52 
182 473 471 74 94 122 
259 582 362 46 82 111 
317 374 522 67 99 139 
261 32 441 90 76 62 
194 742 454 142 118 95 
166 459 380 177 175 188 
228 679 646 129 144 198 
275 167 428 92 102 114 
320 146 492 131 31 14 
302 627 554 102 110 121 
298 72 500 123 89 59 
227 162 439 56 51 47 
257 384 386 137 118 100 
275 874 431 148 112 81 
243 634 315 161 111 93 
278 303 547 160 159 166 
242 648 610 51 69 91 
206 756 445 132 119 110 
224 908 454 84 64 51 
297 724 259 114 128 187 
332 429 511 129 141 158 
347 524 411 113 127 145 
262 646 583 91 99 110 
243 800 466 178 125 105 
258 916 421 65 53 45 
308 526 409 70 94 117 
228 689 366 82 95 110 
213 696 370 96 109 124 
204 555 388 93 52 65 
345 459 468 85 109 149 
316 737 320 127 163 200 
232 134 400 101 78 64 
249 767 548 115 120 127 
170 217 433 51 40 22 
282 814 494 188 139 113 
243 142 463 97 82 72 
155 300 421 109 112 121 
188 361 338 110 120 134 
198 671 601 117 138 196 
187 510 396 118 121 148 
217 644 568 82 75 70 
324 628 534 124 128 137 
251 692 268 171 117 93 
163 453 436 75 91 116 
239 635 300 163 115 92 
266 80 502 95 79 64 
262 189 415 101 48 69 
244 630 351 33 52 92 
188 702 440 114 101 99 
288 817 492 184 132 108 
241 253 499 56 87 113 
333 540 398 87 111 134 
184 181 443 30 32 35 
184 182 443 29 30 31 
207 542 382 174 161 154 
257 652 631 84 112 151 
264 425 390 110 97 84 
269 826 380 193 153 111 
247 496 354 38 80 124 
245 712 352 36 59 101 
271 593 531 114 134 156 
208 471 346 124 128 137 
350 514 431 62 91 130 
215 249 457 58 49 51 
164 481 461 66 88 124 
356 539 477 190 184 186 
269 854 503 141 101 71 
267 706 246 173 118 91 
313 147 499 90 35 51 
238 672 645 123 119 129 
350 526 419 126 145 168 
313 404 421 54 86 128 
323 753 366 158 157 164 
174 607 439 157 154 159 
261 996 431 150 113 86 
337 444 429 77 100 124 
271 830 373 143 115 94 
271 905 415 76 61 49 
345 567 397 167 165 170 
258 611 364 67 66 66 
310 949 454 101 79 61 
205 401 510 72 99 126 
244 616 349 104 95 92 
269 422 399 108 95 86 
216 169 397 82 58 40 
296 935 429 105 85 64 
159 449 450 51 75 129 
267 323 447 129 132 139 
248 601 355 73 70 67 
327 323 454 155 89 107 
235 898 434 126 88 61 
222 273 447 81 62 71 
249 424 545 103 112 126 
210 641 561 82 75 70 
209 705 366 109 118 129 
296 379 534 101 117 148 
270 790 305 149 167 210 
182 720 481 136 120 127 
165 598 472 46 91 153 
180 647 556 168 120 96 
184 188 446 26 26 25 
231 618 358 166 111 100 
264 923 418 64 49 38 
266 620 521 60 61 70 
189 711 425 187 64 19 
209 621 517 41 57 70 
289 586 398 105 105 109 
165 360 363 84 100 119 
331 293 458 137 146 159 
189 717 454 94 76 73 
257 157 474 103 59 52 
185 191 447 37 29 33 
269 368 424 122 108 95 
158 437 455 81 67 92 
228 537 552 117 126 154 
214 382 517 92 100 112 
266 742 328 66 77 96 
157 301 424 98 108 122 
151 143 454 117 103 92 
296 660 323 106 121 142 
154 139 455 115 102 92 
168 652 454 49 46 73 
329 766 468 148 126 105 
178 647 537 132 89 78 
291 182 536 125 117 113 
205 717 501 96 96 100 
324 203 491 128 12 56 
260 990 427 166 125 96 
301 293 527 148 144 147 
203 732 501 177 141 98 
345 434 452 78 116 148 
198 740 416 125 114 115 
237 873 459 124 95 59 
276 420 412 91 79 76 
258 294 535 135 135 142 
239 298 503 124 125 131 
294 815 502 195 146 117 
248 984 456 124 101 75 
359 608 438 175 175 182 
149 461 443 137 151 171 
231 287 342 132 142 159 
181 594 417 102 116 133 
212 758 481 198 147 116 
301 158 501 127 25 27 
276 626 581 48 82 126 
279 645 309 109 124 160 
339 759 407 183 42 69 
253 993 442 125 105 84 
363 634 461 134 74 90 
209 439 353 79 100 138 
307 385 530 88 116 151 
302 260 482 118 117 119 
322 815 392 181 161 147 
185 682 474 130 107 84 
236 715 615 89 57 114 
355 614 422 159 159 168 
258 431 373 127 117 114 
300 573 536 154 163 179 
247 138 450 76 65 53 
192 206 459 98 91 88 
269 649 360 51 81 134 
296 674 296 91 102 137 
176 356 466 94 106 120 
182 219 416 71 32 45 
259 136 459 146 138 131 
281 960 433 67 56 45 
209 660 385 100 113 143 
281 665 346 141 142 150 
156 143 448 118 102 89 
163 256 444 63 57 58 
332 677 373 77 74 106 
318 641 560 67 103 148 
275 690 618 128 125 150 
235 535 347 131 143 168 
316 544 404 120 125 135 
248 182 491 89 44 38 
208 158 455 50 48 49 
158 140 451 108 95 86 
272 860 432 143 107 80 
336 381 464 66 103 144 
315 830 396 174 132 90 
310 189 489 85 38 61 
310 138 512 72 75 88 
333 660 546 151 153 163 
183 462 492 70 90 125 
319 724 357 161 171 190 
337 426 475 82 114 144 
258 995 431 183 147 118 
178 503 515 75 98 142 
318 511 410 66 93 116 
207 287 452 90 90 94 
224 373 519 135 132 135 
157 414 382 72 94 142 
270 123 516 111 115 121 
171 212 429 75 36 33 
299 935 513 108 90 76 
159 140 452 107 95 86 
261 922 526 177 138 113 
356 669 417 80 135 177 
318 354 490 85 112 137 
251 516 357 85 113 144 
145 355 398 144 147 157 
170 538 431 67 85 113 
222 656 622 104 86 66 
311 207 480 120 41 31 
156 229 468 142 101 80 
241 645 280 140 102 71 
242 579 358 59 69 80 
313 345 521 100 117 138 
210 754 486 175 145 116 
264 40 409 113 89 59 
328 378 441 62 95 128 
269 939 520 144 111 90 
254 148 471 102 70 57 
171 233 427 91 56 82 
267 206 403 54 45 53 
192 323 457 49 65 80 
296 256 535 146 145 149 
284 50 499 92 82 72 
280 429 536 170 167 171 
184 411 467 74 49 44 
184 529 532 92 111 141 
252 847 494 129 87 55 
145 287 398 96 108 122 
227 643 374 74 80 90 
245 133 440 88 70 49 
336 515 518 103 122 157 
266 998 442 127 91 56 
249 515 548 120 128 148 
218 635 379 102 109 132 
323 298 456 122 109 116 
295 27 410 127 115 111 
261 579 528 179 175 178 
273 29 444 110 97 89 
266 823 466 163 112 90 
317 398 524 165 163 168 
181 528 527 103 113 150 
249 158 498 88 82 91 
315 299 485 150 109 83 
262 653 262 96 85 76 
250 638 359 157 166 192 
161 548 444 114 131 163 
178 608 421 109 105 118 
139 331 404 142 38 83 
304 753 545 166 140 117 
316 744 357 123 129 156 
289 446 534 178 175 179 
347 561 401 125 139 157 
217 305 443 99 106 117 
308 417 422 58 89 136 
298 465 431 88 106 129 
255 644 308 119 86 74 
297 634 567 97 111 128 
309 401 433 50 89 146 
151 147 451 138 107 80 
177 655 421 65 71 78 
150 145 452 123 103 86 
283 671 247 105 93 81 
349 648 401 83 138 180 
193 210 460 63 86 106 
289 702 327 112 126 147 
264 167 438 97 103 111 
175 605 435 114 132 154 
250 932 423 64 46 31 
251 695 641 149 167 213 
166 479 400 112 133 158 
284 835 477 153 108 81 
231 890 521 188 138 121 
316 927 472 61 49 40 
264 711 348 61 85 125 
194 386 342 106 120 151 
341 403 459 58 90 144 
260 610 322 79 72 67 
251 333 360 152 135 118 
250 966 513 97 79 65 
176 653 499 86 88 112 
296 679 325 132 137 148 
153 304 447 83 101 119 
233 968 493 84 70 59 
188 658 405 68 97 124 
184 686 423 138 111 111 
204 549 545 117 130 150 
182 688 403 136 158 184 
193 721 441 127 104 114 
218 947 473 96 74 60 
328 251 457 146 146 152 
250 663 646 159 159 167 
270 616 554 99 115 132 
298 983 471 125 96 71 
260 753 586 174 154 138 
302 255 520 79 119 151 
285 705 313 80 98 127 
302 830 368 159 132 107 
320 736 361 123 138 160 
282 136 382 147 99 61 
327 347 446 159 159 167 
163 554 439 144 157 177 
213 381 485 103 112 126 
290 174 486 88 64 70 
308 362 528 57 98 141 
317 327 487 147 98 111 
338 771 439 161 127 108 
341 427 464 55 91 147 
248 975 460 100 64 36 
255 364 383 107 29 47 
262 672 246 115 91 64 
245 778 350 47 38 80 
287 890 502 157 114 85 
323 215 489 80 115 144 
166 507 470 137 147 164 
292 692 596 143 159 180 
228 694 363 93 98 108 
231 699 591 89 100 141 
162 539 467 63 82 112 
335 199 464 54 55 62 
241 478 346 143 145 153 
290 954 505 83 66 55 
267 459 541 125 136 154 
228 559 355 67 78 91 
150 150 456 148 65 0 
275 148 479 136 68 43 
254 930 526 181 141 115 
227 282 340 165 161 164 
209 372 510 89 97 108 
270 411 405 103 93 84 
242 218 437 75 70 83 
225 304 503 102 119 139 
224 956 470 101 76 67 
233 370 337 148 75 0 
242 396 341 140 129 124 
167 227 435 8 38 59 
302 541 403 86 107 130 
173 238 394 80 103 124 
151 154 450 155 74 0 
195 264 458 101 67 65 
294 158 400 121 134 149 
233 704 629 176 194 220 
345 666 343 86 123 155 
278 514 537 105 125 154 
331 299 457 153 61 106 
150 153 453 154 69 0 
344 655 369 56 121 168 
230 295 343 147 148 156 
316 346 516 98 114 138 
215 566 545 113 128 152 
330 681 365 194 197 207 
271 832 400 135 146 162 
312 710 548 134 35 85 
335 423 504 123 140 160 
151 154 452 154 67 0 
152 343 422 143 42 77 
175 510 494 120 133 155 
270 289 464 100 90 95 
316 353 441 89 113 145 
291 31 406 116 92 63 
237 288 464 83 105 128 
275 640 317 122 142 167 
322 726 325 70 59 160 
232 777 371 183 159 137 
229 774 369 99 75 70 
324 471 415 80 108 132 
162 537 437 83 104 130 
343 730 394 132 152 176 
246 618 521 48 59 71 
245 755 553 181 164 154 
344 499 506 98 124 160 
291 683 240 139 110 85 
175 612 440 152 149 155 
271 215 388 86 107 128 
240 643 299 173 122 99 
147 349 386 159 121 72 
254 706 351 42 56 107 
289 114 490 117 90 63 
178 562 427 92 107 155 
324 806 442 178 162 152 
154 391 403 65 91 142 
151 159 453 146 69 9 
238 471 558 107 124 148 
167 255 464 45 66 84 
175 399 356 71 95 163 
337 660 380 123 130 142 
222 896 499 162 128 108 
151 152 457 146 70 0 
284 977 483 98 76 59 
277 948 428 122 89 51 
271 143 445 107 97 89 
327 795 394 87 87 95 
151 155 456 148 69 0 
229 713 544 83 87 100 
296 477 423 68 90 114 
221 603 342 151 104 87 
151 157 456 147 70 0 
304 699 575 114 142 171 
206 158 396 96 65 52 
305 373 458 86 96 117 
354 720 445 170 187 210 
226 317 452 98 112 130 
261 632 286 100 90 81 
327 351 451 118 135 156 
153 145 448 132 102 79 
325 379 438 96 123 151 
325 377 485 88 116 145 
152 144 451 122 103 88 
316 837 463 164 116 82 
232 903 436 149 96 73 
334 196 465 48 55 71 
246 913 527 88 72 60 
363 646 465 154 140 148 
215 660 621 117 94 69 
286 976 484 89 67 52 
244 219 441 94 77 89 
154 144 448 127 104 86 
272 368 550 52 100 139 
245 655 272 142 103 74 
231 775 487 193 143 113 
355 524 476 118 139 165 
175 653 472 82 68 62 
339 754 457 153 121 98 
308 599 392 72 113 144 
268 85 411 104 86 67 
272 829 342 179 153 131 
229 646 586 63 69 78 
333 668 373 67 134 179 
252 647 561 65 80 100 
351 494 444 94 117 154 
272 616 565 105 122 141 
170 325 461 87 79 74 
287 43 406 139 108 90 
277 226 541 142 65 4 
311 832 393 192 160 138 
251 815 349 75 75 90 
247 314 406 135 120 104 
234 374 336 140 83 34 
310 895 476 110 85 67 
264 234 392 79 65 75 
338 768 419 138 87 87 
282 262 548 114 103 101 
288 878 421 129 94 67 
285 951 431 144 107 67 
279 142 439 85 73 62 
254 809 471 174 122 101 
233 267 500 78 58 63 
209 475 345 151 148 151 
242 295 350 117 128 142 
315 770 355 145 153 167 
253 819 420 185 129 108 
347 514 415 172 172 180 
300 871 472 161 121 87 
219 545 348 151 162 186 
282 630 342 64 82 98 
252 172 463 77 45 51 
300 664 587 51 79 135 
315 491 413 75 102 128 
233 385 535 60 90 122 
332 110 506 140 78 10 
296 562 397 74 88 103 
250 323 377 139 123 108 
285 479 534 122 136 162 
259 295 452 77 105 133 
207 511 356 86 115 155 
154 149 459 139 67 0 
262 894 521 198 156 134 
222 443 335 119 132 149 
247 216 413 115 65 57 
307 772 328 152 162 189 
252 339 378 138 123 110 
222 701 611 170 191 218 
328 767 376 151 165 182 
219 457 548 74 102 130 
269 577 368 69 91 111 
172 646 469 160 118 104 
319 843 447 199 153 123 
321 652 344 78 113 143 
218 655 619 108 88 68 
270 42 406 119 94 67 
157 145 459 119 96 68 
308 805 345 171 29 47 
224 486 344 149 154 167 
230 776 485 194 143 114 
203 641 392 130 80 81 
192 219 459 69 89 107 
304 605 524 122 123 130 
259 724 280 145 154 171 
355 571 433 143 154 172 
324 426 420 112 131 153 
322 305 455 133 111 114 
319 678 302 52 83 109 
358 558 463 130 147 168 
156 147 460 137 69 0 
313 614 384 100 115 132 
237 969 498 102 82 63 
218 680 521 174 119 120 
171 567 429 115 144 178 
282 372 451 104 71 46 
239 263 458 102 52 72 
256 214 465 55 54 66 
285 35 438 117 99 87 
259 734 291 86 111 158 
287 460 414 81 100 118 
256 664 366 113 121 133 
259 189 419 58 47 56 
242 439 547 88 105 125 
159 148 460 135 60 0 
163 289 428 123 131 143 
295 782 549 190 136 100 
202 429 474 69 87 108 
341 437 485 80 109 145 
343 457 498 121 135 155 
329 364 477 111 129 155 
301 694 582 155 49 74 
350 733 438 175 190 208 
347 652 358 120 140 164 
261 88 409 100 84 69 
357 694 426 176 178 188 
243 471 559 131 144 163 
209 640 566 83 76 70 
174 296 352 76 106 131 
201 756 395 78 65 106 
362 620 453 174 172 179 
218 425 337 104 122 143 
270 493 372 58 90 117 
314 387 525 66 101 142 
273 698 347 82 93 120 
294 286 480 95 109 125 
321 175 483 78 35 43 
322 819 405 148 126 106 
152 312 374 84 99 114 
296 24 434 98 86 76 
348 675 400 180 178 183 
306 876 443 147 111 85 
169 448 471 97 116 142 
175 663 539 25 70 130 
198 602 380 106 88 68 
288 443 429 95 106 121 
257 421 373 126 69 13 
290 427 439 36 70 105 
163 306 436 74 85 97 
170 548 420 108 128 175 
286 74 447 82 65 45 
269 162 376 148 101 79 
231 326 467 98 83 93 
204 323 339 130 129 132 
325 698 547 123 66 82 
297 262 531 85 125 156 
214 600 529 151 148 152 
308 734 545 152 138 130 
190 517 537 88 105 129 
154 153 460 139 70 0 
155 152 460 140 71 0 
235 744 540 166 139 114 
155 153 461 140 72 0 
263 424 389 110 97 85 
311 278 478 133 123 127 
263 730 611 126 46 91 
293 63 503 108 80 46 
312 294 491 166 123 69 
294 586 538 129 146 168 
252 271 363 140 137 140 
223 350 497 115 114 119 
305 716 266 143 142 173 
328 705 536 177 126 102 
239 239 424 59 48 71 
268 756 281 115 135 202 
312 648 570 171 165 167 
224 289 445 128 56 4 
245 644 369 50 78 112 
195 467 352 52 93 159 
220 751 510 95 116 138 
255 431 366 119 108 98 
310 472 410 125 133 147 
161 415 460 127 86 50 
337 646 356 95 119 142 
207 511 361 147 151 161 
242 612 540 71 86 104 
326 178 499 94 66 87 
335 652 375 109 118 133 
300 907 500 103 73 45 
319 153 492 85 43 56 
259 962 430 120 84 48 
289 165 533 96 91 99 
154 159 461 110 95 82 
258 30 417 119 107 102 
303 866 434 177 135 99 
352 494 483 176 171 174 
156 152 461 139 69 0 
156 153 461 137 68 0 
255 269 380 76 29 52 
287 552 538 123 135 162 
206 383 516 125 131 144 
173 304 460 98 101 110 
307 238 481 146 141 141 
239 242 425 94 25 55 
182 594 506 120 137 159 
302 823 352 174 152 133 
158 153 460 134 57 1 
288 667 597 64 108 145 
279 280 546 68 102 130 
192 627 401 177 115 105 
280 955 433 140 100 61 
158 155 461 138 61 0 
307 665 294 42 84 125 
252 171 513 123 40 61 
255 863 514 151 118 98 
254 958 432 144 109 71 
247 678 270 162 111 89 
243 764 535 131 93 68 
228 137 400 94 77 66 
217 895 484 178 137 109 
357 588 439 164 164 173 
230 697 595 117 155 188 
204 197 460 100 70 60 
309 228 481 120 22 57 
157 159 462 98 100 103 
253 500 548 157 154 159 
269 220 535 111 120 135 
310 633 561 93 114 138 
334 438 511 136 145 160 
188 477 432 75 85 106 
327 458 519 177 172 176 
167 514 413 147 157 171 
231 586 351 110 99 91 
260 628 319 102 89 86 
268 371 544 58 104 141 
214 528 550 140 147 163 
259 210 405 52 31 48 
151 161 452 121 98 84 
276 471 389 64 89 110 
255 615 304 108 97 88 
243 279 402 116 116 120 
306 760 302 118 123 185 
176 491 420 111 116 126 
312 752 349 189 187 194 
208 441 536 62 95 129 
178 202 430 71 28 34 
287 438 428 74 94 115 
251 711 627 198 207 225 
272 310 460 71 99 122 
151 163 455 120 119 119 
286 963 502 91 75 61 
297 666 589 93 97 104 
148 426 445 86 103 141 
232 260 341 100 119 138 
219 507 348 130 142 164 
248 173 500 125 52 51 
221 772 475 193 142 114 
151 162 456 106 114 122 
243 768 515 193 137 107 
276 149 443 104 94 85 
329 525 524 130 139 154 
228 786 445 192 143 117 
277 662 351 37 60 119 
228 588 340 114 106 100 
297 980 472 128 102 74 
294 82 435 112 87 54 
256 27 415 142 119 111 
179 587 423 115 129 148 
231 587 531 88 106 144 
170 550 480 129 145 170 
238 779 493 193 141 114 
296 701 244 125 152 185 
353 680 478 121 140 162 
217 492 350 95 106 147 
188 471 369 150 151 166 
256 370 381 109 30 55 
342 511 510 84 116 154 
275 664 611 134 146 163 
309 730 285 187 183 187 
208 414 470 102 82 85 
180 491 426 118 119 125 
210 510 549 75 97 141 
182 578 521 130 142 159 
317 743 335 82 87 141 
189 527 400 70 92 137 
155 162 448 111 112 114 
319 851 448 177 132 99 
249 866 450 138 106 78 
352 511 442 116 130 152 
285 343 463 120 120 126 
174 467 387 109 119 189 
337 491 413 135 138 146 
181 681 406 122 144 169 
223 132 411 79 71 64 
162 544 437 93 117 148 
261 272 537 77 114 143 
153 166 449 124 87 95 
263 178 523 99 60 72 
342 581 393 139 137 142 
314 655 571 157 156 162 
329 711 348 116 134 207 
276 680 285 62 90 125 
272 674 242 100 85 71 
174 623 433 168 163 167 
151 386 446 162 74 13 
337 696 380 75 109 164 
280 568 531 133 149 172 
171 493 415 89 107 139 
222 591 532 115 134 158 
155 165 448 126 88 82 
271 621 388 69 80 92 
295 543 390 98 110 126 
154 167 448 123 89 97 
263 914 419 71 56 43 
275 522 370 94 107 123 
329 653 342 92 118 142 
298 676 257 77 93 109 
293 816 499 186 138 109 
353 500 466 117 131 154 
265 713 622 171 67 96 
193 323 342 102 117 135 
281 753 583 133 118 111 
201 644 592 114 93 71 
226 246 451 69 38 50 
315 891 467 95 69 54 
183 564 426 123 126 143 
233 432 333 145 144 152 
292 201 539 107 62 75 
350 555 502 179 174 176 
175 526 481 86 95 136 
249 571 533 131 141 157 
266 990 485 146 115 87 
352 621 410 180 177 182 
188 552 397 119 139 163 
301 844 407 219 168 127 
152 161 458 98 103 110 
352 581 403 132 148 168 
256 181 519 94 43 58 
236 653 524 40 56 72 
291 426 533 114 137 161 
360 616 442 153 143 144 
277 880 513 157 114 83 
176 231 391 100 43 64 
260 138 511 45 74 99 
156 445 452 106 121 142 
232 389 333 120 106 92 
203 440 356 107 118 145 
260 181 368 121 90 85 
239 617 554 75 95 133 
249 214 478 74 42 55 
271 138 368 165 75 0 
178 646 550 168 121 96 
292 641 308 91 113 135 
334 555 394 136 141 152 
268 94 413 101 88 76 
286 435 431 67 94 117 
249 803 365 142 121 108 
255 611 550 70 89 108 
175 596 485 104 126 167 
282 555 537 112 122 156 
257 857 440 156 118 88 
164 271 414 86 105 124 
152 165 458 127 32 72 
250 306 373 111 66 51 
279 578 381 63 75 87 
186 715 400 101 137 168 
189 724 383 85 132 168 
260 315 444 107 119 134 
247 212 464 32 41 64 
187 724 466 165 148 135 
251 692 643 166 185 212 
218 934 507 187 141 117 
289 799 540 197 129 103 
260 717 291 132 136 146 
192 734 413 142 110 95 
261 412 554 154 157 166 
274 89 415 100 80 58 
152 166 460 127 51 72 
321 243 471 151 148 154 
172 661 516 68 94 143 
246 743 573 140 112 88 
168 493 474 136 150 171 
177 492 476 83 101 121 
297 24 435 102 91 81 
271 283 540 136 136 143 
312 657 327 94 112 131 
257 185 367 122 92 91 
285 144 422 114 99 90 
242 630 537 39 50 65 
297 304 539 162 158 163 
322 759 365 145 152 168 
232 858 498 142 108 85 
296 709 580 143 14 46 
188 724 406 111 54 66 
320 715 533 165 150 140 
269 978 494 86 67 56 
300 52 446 125 112 102 
343 550 514 169 166 170 
307 771 321 152 157 193 
283 149 385 138 86 29 
334 729 495 129 121 117 
339 146 487 76 50 78 
224 592 335 131 107 87 
297 329 540 59 89 126 
207 428 349 125 142 176 
321 742 362 131 140 158 
238 656 534 48 60 74 
288 528 389 130 131 137 
232 650 366 74 100 134 
325 782 491 116 107 102 
355 520 460 59 89 139 
252 343 380 138 120 103 
238 611 559 87 109 138 
299 21 420 113 98 85 
247 604 318 110 99 90 
353 682 410 162 158 162 
178 615 416 88 114 140 
243 260 403 87 98 112 
258 255 378 77 116 148 
328 409 515 133 144 161 
306 799 340 168 48 54 
275 671 351 63 105 135 
157 167 463 126 55 71 
276 384 550 103 120 161 
339 770 437 141 127 118 
193 524 379 113 125 164 
281 472 398 54 81 104 
318 782 360 149 160 176 
159 165 463 123 57 75 
198 679 577 142 163 191 
183 671 480 82 94 113 
211 367 453 119 120 126 
343 445 487 144 149 160 
316 372 432 59 94 130 
153 168 449 127 99 107 
259 751 588 196 174 159 
317 348 491 78 103 136 
176 643 519 158 110 97 
273 864 509 153 110 80 
320 315 466 140 139 149 
259 614 350 104 81 65 
153 170 449 115 94 103 
181 194 413 38 54 70 
270 191 378 68 101 130 
308 793 525 203 138 106 
149 313 378 137 116 94 
240 620 298 102 88 74 
328 719 325 25 68 162 
223 893 466 142 105 78 
177 454 434 65 82 109 
188 710 451 133 104 98 
248 260 390 84 49 62 
247 319 408 99 54 33 
203 546 389 166 161 164 
220 758 364 164 45 78 
205 414 479 77 86 99 
252 774 541 184 137 108 
316 863 455 141 100 69 
268 831 348 155 145 144 
258 96 409 104 89 74 
350 519 422 120 138 159 
322 733 513 148 140 136 
141 335 391 165 114 58 
282 695 238 181 120 96 
152 168 455 146 91 83 
301 261 522 71 112 145 
314 674 298 68 90 109 
223 784 404 152 116 92 
333 285 451 129 135 147 
305 523 404 58 91 124 
262 906 417 92 73 57 
153 170 453 137 104 100 
254 663 296 145 97 81 
153 171 453 134 101 95 
295 993 440 146 117 90 
185 698 392 133 153 180 
270 622 328 68 95 122 
332 144 499 49 58 84 
225 619 359 164 108 100 
274 858 492 147 105 76 
360 602 480 95 140 178 
252 622 291 102 92 84 
296 685 304 52 77 128 
224 620 522 42 58 74 
224 953 459 96 78 66 
356 671 417 84 143 187 
329 404 435 85 105 126 
304 497 531 92 121 153 
187 593 519 168 163 166 
289 17 433 77 65 53 
154 474 436 73 88 131 
253 811 386 179 142 110 
278 879 512 158 114 84 
219 779 404 182 158 139 
259 728 285 166 167 176 
150 267 459 140 142 150 
295 260 481 136 81 49 
289 161 532 63 86 107 
172 511 402 105 127 185 
318 786 508 186 132 99 
165 327 362 99 128 157 
240 277 499 96 83 90 
254 173 466 73 56 63 
171 588 439 146 157 179 
362 653 451 96 138 171 
220 291 444 127 63 1 
153 173 454 131 95 95 
181 494 428 83 93 108 
278 173 382 146 122 108 
245 511 551 109 115 149 
354 575 496 103 53 74 
329 127 506 102 44 49 
255 424 367 116 104 94 
316 768 517 157 142 133 
248 239 404 102 0 51 
210 136 413 82 72 63 
295 870 423 126 110 95 
152 168 457 141 80 85 
152 169 456 142 79 75 
316 255 488 116 130 149 
287 705 326 123 133 149 
239 298 477 128 130 138 
333 659 547 137 139 147 
344 714 393 86 105 127 
165 595 472 58 97 147 
283 978 483 96 74 56 
166 237 463 90 79 81 
158 319 464 114 126 143 
293 316 547 162 159 163 
216 530 345 145 158 183 
267 833 420 191 140 116 
312 389 445 53 93 151 
146 297 387 84 101 119 
317 921 461 82 66 55 
304 656 313 80 99 118 
230 589 335 114 106 100 
153 168 461 128 43 72 
258 912 527 169 137 111 
295 645 308 111 126 145 
199 462 350 21 70 116 
198 644 399 113 66 69 
355 592 497 109 148 179 
164 404 413 40 69 131 
177 348 465 112 111 114 
262 777 303 155 165 191 
242 960 441 93 74 64 
154 169 462 126 44 74 
336 226 461 89 127 158 
362 653 456 143 109 116 
290 618 526 101 102 108 
231 577 536 188 173 166 
293 759 283 182 192 212 
158 298 424 85 109 133 
156 473 448 58 89 133 
178 338 464 102 106 114 
283 670 249 109 95 83 
223 680 560 76 96 124 
227 865 496 130 100 78 
302 932 509 105 88 74 
312 932 487 85 70 56 
208 512 342 127 142 178 
153 172 459 132 64 70 
242 363 345 153 136 123 
294 148 497 112 75 47 
299 457 531 20 63 129 
278 548 373 114 121 136 
354 525 451 96 126 163 
291 639 299 75 108 137 
326 791 453 151 138 130 
194 160 399 133 60 4 
175 596 435 111 126 144 
198 544 542 139 144 155 
217 774 439 84 93 107 
280 692 289 68 83 121 
198 376 329 90 111 135 
222 909 457 84 63 51 
217 278 338 88 126 157 
284 476 534 112 124 161 
328 301 459 159 100 125 
248 243 472 52 42 63 
163 411 365 94 110 143 
154 173 461 136 85 77 
256 884 520 187 146 124 
183 658 415 90 101 115 
257 649 589 87 96 109 
169 515 435 93 105 130 
330 410 434 128 133 144 
216 683 629 132 145 175 
257 61 500 125 102 81 
269 576 368 70 92 113 
287 972 490 99 79 64 
221 710 521 91 75 71 
233 319 344 124 91 48 
287 92 501 79 67 55 
183 682 452 170 115 74 
295 224 487 25 48 96 
243 231 418 54 90 118 
149 465 441 111 128 167 
181 527 526 110 116 147 
326 171 501 136 56 45 
246 880 447 131 105 78 
275 42 484 78 69 59 
238 788 357 102 117 132 
157 171 463 138 94 86 
350 691 468 83 119 150 
145 358 409 109 121 140 
307 406 447 52 88 126 
300 42 426 155 129 113 
292 100 503 108 97 89 
167 558 437 79 92 117 
290 52 487 102 88 76 
190 428 350 113 127 166 
156 172 463 128 73 70 
181 355 465 78 83 91 
240 795 380 198 179 167 
328 358 478 78 108 143 
166 195 447 89 34 47 
256 945 521 169 128 101 
245 148 449 95 84 75 
252 173 513 125 50 69 
254 182 468 95 63 61 
225 738 524 154 131 112 
171 505 399 155 165 188 
169 537 430 62 81 108 
213 132 433 88 77 67 
327 569 391 91 59 65 
310 421 527 111 132 156 
345 575 513 103 143 177 
335 654 541 138 143 154 
232 684 645 138 148 192 
289 844 476 154 106 77 
