ply
format ascii 1.0
comment Created by CloudCompare v2.11.1 (Anoia)
comment Created 2/28/22 9:38 PM
obj_info Generated by CloudCompare!
element vertex 2005
property float x
property float y
property float z
property uchar red
property uchar green
property uchar blue
end_header
317 211 504 106 91 104 
231 11 458 129 106 92 
236 611 526 118 116 122 
228 10 460 123 100 86 
210 778 336 134 149 167 
243 391 392 104 58 12 
281 652 611 111 90 66 
310 108 520 99 83 64 
341 698 417 145 154 166 
228 827 351 152 140 141 
181 509 384 66 90 128 
347 703 452 146 23 41 
338 573 386 126 145 168 
186 667 259 125 93 60 
239 406 372 113 102 92 
338 711 409 158 155 174 
262 212 525 68 62 85 
293 232 475 107 32 36 
353 543 426 154 160 174 
252 299 506 92 100 113 
330 707 386 120 142 170 
209 555 536 59 85 136 
250 871 509 161 122 101 
265 666 297 8 58 112 
289 784 521 190 145 114 
339 425 467 122 134 150 
232 13 450 132 109 96 
322 378 538 83 118 163 
156 389 361 84 103 122 
282 828 363 178 148 117 
203 731 289 90 108 158 
157 306 486 123 39 72 
228 548 552 97 118 157 
215 759 342 87 97 109 
236 562 361 49 63 77 
359 528 465 81 109 160 
221 426 527 105 119 137 
175 224 472 56 81 102 
201 724 489 143 122 106 
205 657 264 98 87 77 
286 705 288 61 85 128 
172 591 445 109 124 145 
230 958 474 88 70 58 
260 553 371 54 68 82 
200 772 398 109 102 97 
302 981 428 161 127 95 
160 400 356 108 123 141 
233 12 455 131 107 94 
156 411 476 148 63 6 
294 556 545 122 133 160 
328 756 546 162 119 78 
157 249 472 61 75 88 
340 702 558 151 60 85 
295 354 449 96 110 129 
307 736 360 71 89 108 
173 549 414 118 138 161 
203 461 520 79 109 138 
320 528 370 103 121 141 
201 729 484 199 157 106 
361 562 450 184 180 185 
261 355 439 81 100 118 
233 360 380 153 135 117 
308 532 540 116 137 161 
148 455 463 87 105 151 
240 942 421 129 103 75 
149 402 416 126 131 141 
193 358 494 107 95 84 
227 624 531 79 69 60 
198 708 483 104 111 125 
247 665 281 63 88 128 
238 305 463 93 89 89 
175 616 418 114 88 68 
304 983 446 113 82 59 
254 270 463 115 49 73 
285 903 503 183 135 108 
243 211 427 120 82 92 
223 736 349 67 89 109 
227 367 369 146 119 94 
298 608 539 108 120 136 
305 690 316 135 149 170 
240 937 511 188 141 119 
308 713 349 104 131 178 
331 726 387 122 138 159 
292 970 419 136 107 72 
233 11 456 131 107 94 
295 725 307 109 141 190 
300 897 481 165 117 90 
232 11 459 130 107 94 
233 11 458 131 108 95 
303 946 426 124 94 73 
234 11 458 131 109 96 
253 977 414 137 102 65 
208 661 537 140 150 195 
237 461 550 161 158 163 
263 670 605 108 128 190 
160 306 379 105 116 130 
201 773 407 155 142 133 
231 749 268 168 184 219 
245 410 383 100 71 62 
241 131 429 77 63 47 
324 264 527 85 115 140 
234 11 461 131 109 97 
220 941 461 85 68 54 
221 762 280 181 181 212 
250 381 416 114 89 65 
219 498 545 91 110 136 
126 288 467 138 142 152 
177 267 370 117 136 158 
259 273 489 107 106 111 
210 769 430 175 156 144 
251 571 370 52 61 73 
257 817 329 200 131 73 
323 626 558 77 106 133 
170 568 488 104 132 159 
348 706 493 172 149 126 
206 167 446 68 61 57 
207 484 534 141 145 154 
262 841 408 192 143 116 
307 722 592 165 94 79 
332 394 476 73 100 126 
220 327 472 68 60 63 
327 528 378 108 127 148 
226 936 438 70 51 50 
284 785 338 69 75 123 
207 746 471 188 173 165 
282 567 366 138 136 141 
288 697 590 155 57 62 
267 830 353 213 195 185 
260 518 555 144 156 173 
336 594 382 107 139 170 
152 414 403 125 132 145 
335 558 519 149 152 162 
235 717 316 122 131 146 
226 360 369 128 38 58 
256 204 462 63 39 53 
197 517 359 106 118 138 
219 237 392 84 36 40 
221 401 500 108 110 116 
286 747 307 91 111 183 
185 433 489 92 58 33 
252 931 517 203 162 142 
189 415 480 154 56 0 
285 758 319 118 137 186 
306 470 382 112 125 140 
144 207 391 38 55 70 
258 847 468 111 80 50 
180 425 495 114 93 66 
341 730 524 142 128 119 
355 664 502 166 175 191 
251 990 452 171 141 116 
183 703 436 162 96 78 
177 689 396 124 133 145 
304 134 473 118 40 32 
132 293 449 150 149 154 
233 767 476 192 142 116 
237 927 416 78 61 51 
267 823 341 90 108 130 
260 101 476 126 91 65 
310 105 510 105 94 86 
236 364 488 118 118 123 
298 607 546 88 106 125 
249 680 323 87 103 141 
249 274 451 124 127 135 
275 122 519 127 62 0 
352 473 497 109 123 149 
312 508 371 49 88 120 
191 760 390 39 31 89 
356 521 448 132 142 159 
187 607 357 174 124 106 
331 479 401 160 163 172 
180 505 383 151 145 145 
197 607 314 106 96 87 
275 28 379 148 121 101 
158 433 374 97 117 152 
292 97 402 146 95 84 
184 512 477 71 92 125 
210 391 482 81 61 58 
183 613 381 165 102 91 
275 828 357 187 163 143 
203 600 339 101 93 87 
149 385 366 69 94 120 
337 743 470 154 135 119 
308 443 544 104 129 158 
275 115 393 176 115 101 
335 769 471 138 134 135 
271 869 507 163 124 93 
191 758 381 186 49 77 
241 878 445 107 82 52 
205 468 528 115 127 144 
335 523 394 134 148 166 
225 448 362 86 109 135 
350 452 502 139 149 165 
146 414 419 116 125 141 
304 713 340 189 185 192 
226 10 468 116 100 90 
169 323 490 142 124 107 
344 717 489 137 143 154 
334 689 390 166 169 181 
161 448 347 88 114 145 
354 676 454 168 183 206 
174 663 413 92 79 84 
251 466 555 92 121 152 
180 563 409 60 95 124 
289 709 581 143 66 78 
214 446 529 78 99 131 
281 700 569 146 31 51 
198 522 513 138 144 156 
318 707 372 108 128 151 
240 346 500 120 120 125 
229 10 467 123 104 95 
132 304 461 154 110 59 
173 191 466 116 79 76 
346 406 516 93 120 150 
231 10 465 127 107 96 
233 659 266 79 110 145 
260 218 526 96 72 84 
202 615 363 151 104 98 
330 302 515 138 138 143 
239 184 444 82 46 38 
283 412 552 69 98 145 
249 659 315 93 104 149 
247 984 451 109 76 56 
280 943 418 131 101 72 
246 640 582 115 92 67 
134 321 453 157 112 45 
313 879 446 105 79 60 
306 954 471 86 69 57 
299 785 529 191 136 109 
293 612 572 47 96 128 
355 661 477 103 142 183 
216 730 354 103 122 143 
253 833 355 177 155 137 
243 192 412 128 66 74 
133 322 460 174 135 86 
248 693 523 83 36 66 
256 756 283 143 161 202 
257 924 518 186 148 123 
236 237 430 123 26 47 
315 897 460 95 78 65 
301 897 476 152 100 76 
321 380 539 74 109 160 
275 715 277 150 164 186 
225 10 475 112 101 96 
324 627 554 60 96 132 
239 515 367 126 126 128 
344 434 524 115 127 153 
227 10 473 115 103 96 
239 862 455 114 87 53 
327 772 432 146 134 126 
322 708 374 90 109 129 
242 220 429 145 110 91 
321 821 442 172 127 91 
246 875 512 106 58 54 
251 164 505 79 64 81 
294 119 489 149 99 51 
307 693 330 87 124 183 
275 11 415 96 85 78 
272 421 421 49 83 109 
190 678 246 141 101 67 
203 585 519 162 162 169 
236 629 540 46 44 44 
156 380 362 66 89 113 
179 189 460 102 43 59 
246 944 418 117 90 63 
280 608 555 91 112 134 
309 453 544 154 161 174 
196 241 465 73 77 84 
214 534 355 71 95 118 
209 425 360 127 111 95 
231 913 419 105 75 58 
286 860 467 162 118 85 
266 142 517 60 88 111 
253 327 535 112 112 123 
259 636 575 89 80 73 
140 364 449 73 100 132 
302 270 473 149 151 159 
242 353 514 152 119 83 
168 189 453 52 63 80 
243 485 368 106 123 145 
231 642 571 134 102 76 
189 666 256 117 90 61 
304 694 623 139 156 202 
187 749 372 173 49 62 
304 254 481 149 149 155 
150 297 388 132 128 129 
173 699 430 149 95 85 
179 285 370 142 145 153 
179 589 369 149 107 97 
312 802 500 202 141 113 
224 826 343 116 130 147 
325 510 379 122 133 148 
262 775 490 188 140 115 
288 105 520 103 93 85 
333 691 389 185 184 193 
187 609 361 174 122 109 
191 589 501 96 130 170 
227 722 249 129 135 210 
322 666 635 133 149 187 
231 10 479 114 104 98 
289 791 346 109 15 33 
248 648 590 128 99 72 
263 665 550 111 135 159 
235 391 371 132 70 6 
232 10 466 127 107 97 
255 812 448 179 117 100 
219 167 436 58 51 45 
149 280 476 131 133 140 
217 556 355 60 78 94 
251 787 303 155 185 216 
212 768 435 176 161 150 
262 232 461 87 57 76 
257 784 304 127 163 201 
316 651 611 53 72 95 
224 379 478 124 125 131 
210 535 542 87 106 139 
151 354 375 123 110 98 
150 393 382 70 99 160 
332 642 563 49 68 112 
267 96 414 120 95 70 
282 27 379 122 108 95 
264 75 502 103 87 71 
330 608 505 102 101 109 
346 459 457 65 100 138 
188 650 296 163 111 88 
316 650 345 176 175 182 
217 257 387 129 127 129 
257 699 530 79 100 120 
182 625 412 93 102 119 
322 408 418 139 147 161 
324 915 485 116 93 78 
217 516 545 161 159 164 
163 276 382 96 70 61 
337 731 492 97 89 85 
359 662 436 108 157 214 
171 506 393 72 92 144 
217 626 345 89 99 116 
222 582 542 137 144 159 
212 459 533 82 106 131 
289 752 331 200 194 199 
252 350 433 138 121 104 
285 746 303 140 155 183 
259 266 462 108 119 135 
196 686 473 172 159 163 
277 221 479 28 62 105 
216 322 475 52 57 65 
308 613 556 38 82 111 
270 636 529 27 29 31 
237 11 469 124 107 97 
236 11 470 123 107 98 
315 141 523 81 80 88 
293 587 355 106 111 123 
265 610 371 73 101 125 
307 824 401 178 139 105 
144 443 455 163 169 181 
239 11 468 125 107 97 
251 156 403 125 144 165 
303 272 536 84 62 79 
256 544 552 123 138 161 
294 359 450 98 112 128 
284 630 330 76 97 125 
237 417 368 122 112 106 
194 270 368 154 153 158 
287 647 606 101 84 68 
233 770 472 192 142 116 
198 519 359 92 113 137 
244 331 531 123 112 99 
176 496 478 67 89 127 
240 350 487 105 96 92 
135 293 429 141 139 143 
279 72 388 105 86 65 
291 774 533 191 142 114 
325 306 531 158 154 158 
231 239 452 68 26 27 
225 158 389 119 99 95 
229 493 362 72 99 124 
360 646 430 149 153 164 
265 138 516 42 62 81 
342 577 511 160 161 169 
341 461 439 68 103 138 
302 881 419 94 65 50 
259 236 493 76 25 27 
268 723 276 97 136 178 
234 10 473 120 105 98 
153 198 422 57 37 43 
143 377 433 72 99 140 
319 799 499 205 141 107 
317 166 495 100 26 49 
205 776 370 108 103 110 
365 609 447 181 181 188 
235 10 474 117 104 97 
311 825 416 174 134 103 
259 537 373 99 104 112 
226 937 498 196 147 123 
132 315 472 153 143 140 
311 727 364 97 117 141 
365 608 444 169 170 178 
343 654 554 73 109 145 
221 340 370 159 140 121 
198 592 337 108 100 93 
260 841 455 127 93 65 
234 10 476 116 104 97 
257 28 373 128 98 59 
227 507 551 118 130 149 
322 579 363 108 126 147 
218 713 242 130 150 212 
234 10 479 113 103 96 
282 871 402 151 113 82 
242 587 369 65 76 90 
242 275 456 103 35 57 
319 778 407 160 141 126 
147 223 429 30 36 66 
196 667 379 72 88 129 
238 435 367 65 96 127 
176 318 368 137 68 57 
309 903 477 125 83 62 
200 490 524 115 123 146 
290 307 537 128 137 151 
188 683 276 168 114 90 
236 206 409 158 71 58 
255 682 530 140 120 104 
254 135 485 124 62 16 
266 952 419 111 79 52 
336 574 516 174 170 173 
259 196 487 61 41 58 
236 615 357 81 76 75 
246 241 447 81 81 86 
303 960 468 78 63 51 
185 564 396 74 115 147 
180 514 480 82 99 127 
231 589 541 102 123 160 
215 672 244 103 92 82 
263 59 502 128 107 88 
140 349 404 99 117 137 
180 567 432 115 132 151 
333 475 532 73 103 148 
319 565 532 109 117 155 
354 525 435 94 129 163 
320 607 354 90 127 158 
247 185 423 86 87 96 
315 186 490 87 58 84 
238 663 533 102 131 159 
235 417 367 127 116 109 
243 553 365 94 104 117 
200 620 373 127 112 123 
249 425 387 77 92 108 
222 325 469 95 95 99 
272 557 366 99 122 147 
262 814 329 180 85 44 
289 602 354 86 108 129 
230 217 408 64 111 145 
259 25 373 164 148 138 
130 210 435 130 90 100 
269 51 382 116 85 63 
262 821 334 176 151 123 
237 949 499 131 104 92 
132 290 474 144 143 148 
254 891 509 161 119 102 
312 701 615 152 192 231 
250 222 501 58 35 44 
275 187 529 88 75 87 
252 649 284 70 104 133 
257 407 411 92 101 113 
199 524 516 89 107 141 
265 594 538 112 122 156 
226 18 452 147 127 118 
238 958 495 88 75 65 
352 480 498 176 171 174 
234 237 450 55 31 29 
335 744 440 143 130 122 
259 270 491 105 95 92 
199 739 359 122 137 156 
332 718 579 106 60 124 
283 836 380 139 132 131 
178 502 356 96 121 151 
194 631 386 94 101 130 
264 350 537 130 45 74 
306 825 401 179 138 103 
259 403 544 55 87 133 
294 729 570 147 125 126 
308 715 350 97 124 177 
279 765 312 88 91 128 
240 345 415 120 106 91 
188 631 307 160 113 90 
160 172 386 78 50 14 
236 326 410 90 65 70 
226 23 455 112 89 79 
274 640 580 85 78 74 
169 682 409 129 138 152 
163 205 465 92 71 84 
268 506 384 54 78 98 
356 663 421 119 135 155 
254 650 292 61 99 130 
189 271 370 156 155 161 
268 962 419 102 79 47 
218 162 432 60 52 43 
191 684 465 195 166 139 
274 167 526 124 71 73 
355 498 467 118 133 151 
278 159 480 140 35 31 
284 49 498 95 85 76 
261 123 510 123 58 5 
180 693 436 169 95 35 
303 382 427 30 78 117 
255 168 496 70 40 48 
282 813 466 174 124 103 
239 632 301 75 117 150 
208 683 369 111 117 127 
202 499 531 72 101 141 
250 164 406 135 99 82 
319 664 641 88 118 164 
304 170 469 58 61 84 
244 956 430 92 70 60 
266 652 312 64 105 136 
300 501 546 173 170 175 
207 744 475 178 162 155 
229 21 452 128 108 93 
237 339 410 94 37 45 
275 11 414 96 86 78 
284 858 470 160 119 86 
207 652 530 79 86 125 
219 466 539 117 128 144 
233 249 428 77 108 136 
348 441 487 130 146 167 
321 686 626 173 186 217 
275 661 618 84 83 85 
204 690 283 81 95 121 
349 501 505 110 128 158 
324 377 475 95 113 133 
300 510 546 175 170 173 
346 431 522 71 99 151 
222 541 550 117 135 157 
213 559 356 68 85 100 
191 687 465 180 155 150 
324 650 361 89 146 188 
172 709 394 110 134 158 
202 734 358 149 158 175 
203 662 252 99 88 78 
199 695 372 109 113 123 
246 265 448 122 118 122 
276 83 412 120 94 76 
249 971 474 125 98 72 
162 398 479 146 124 102 
205 324 486 59 81 99 
329 783 437 131 127 127 
281 729 549 152 139 130 
241 556 364 82 98 114 
342 484 521 86 112 159 
324 636 360 179 178 185 
199 730 462 130 111 92 
231 24 454 129 112 104 
206 420 488 82 77 72 
248 791 305 185 201 225 
168 372 483 129 23 59 
199 390 362 162 72 0 
225 24 457 118 95 88 
225 25 457 136 112 101 
288 119 490 104 78 47 
257 299 528 115 110 109 
196 715 254 85 102 178 
256 32 463 97 80 65 
136 261 414 153 150 154 
317 555 362 129 135 147 
213 706 292 79 93 118 
270 251 536 121 126 135 
178 582 406 155 110 101 
224 930 500 186 142 117 
206 665 530 121 150 186 
171 496 477 73 98 125 
227 25 457 127 110 101 
267 970 416 130 102 70 
136 315 440 155 135 115 
318 622 559 30 77 125 
209 749 468 124 137 154 
223 880 476 152 111 87 
221 542 355 34 67 92 
337 754 484 147 132 122 
153 353 483 179 151 124 
207 254 468 52 77 99 
185 556 364 70 82 99 
221 592 535 164 161 167 
266 273 533 87 74 92 
286 949 496 118 90 75 
371 613 463 117 144 172 
201 548 361 51 62 75 
163 190 459 53 75 94 
196 671 378 88 103 137 
213 743 356 94 107 122 
349 499 507 94 118 152 
191 603 496 57 92 145 
244 948 422 143 107 64 
351 583 428 154 165 182 
227 27 460 107 94 116 
287 691 291 108 127 149 
306 773 541 205 150 119 
286 26 404 145 131 123 
277 987 417 86 65 52 
275 176 527 104 56 63 
205 641 528 157 115 101 
180 624 491 134 99 127 
299 364 440 72 96 124 
168 336 366 176 148 119 
223 755 272 161 168 223 
288 779 524 189 144 114 
305 115 525 129 64 2 
249 159 402 68 82 114 
230 631 305 76 108 145 
315 374 539 98 127 157 
297 326 459 121 122 127 
323 676 624 122 140 190 
229 27 458 87 72 66 
172 716 389 112 134 156 
213 487 538 99 115 139 
146 208 384 70 47 69 
207 730 303 144 146 153 
334 742 539 190 167 149 
271 26 382 130 100 80 
270 494 388 104 106 113 
263 221 459 57 41 62 
334 788 467 190 134 101 
287 690 617 113 132 185 
192 729 362 127 145 167 
305 625 336 73 97 118 
261 976 413 139 101 64 
344 678 557 157 167 184 
262 205 524 91 65 62 
224 220 457 45 29 31 
287 991 465 150 117 87 
191 613 495 81 100 123 
179 572 493 85 110 148 
286 821 359 56 43 48 
342 493 519 104 125 149 
297 114 487 133 94 79 
244 317 533 118 20 44 
195 629 525 168 122 111 
259 590 374 80 86 94 
179 513 484 73 89 127 
266 462 557 95 123 163 
306 270 459 158 161 171 
263 689 277 121 127 137 
231 28 460 157 136 136 
269 603 533 76 101 136 
321 401 421 56 99 148 
145 412 421 142 144 153 
251 334 523 159 115 57 
253 855 437 159 121 93 
231 29 462 147 129 123 
139 346 470 151 141 138 
240 593 368 84 88 95 
305 886 418 81 61 50 
232 902 429 134 81 47 
251 191 454 107 36 38 
232 16 450 132 109 95 
190 685 278 166 110 88 
220 905 483 154 122 94 
188 289 372 136 128 125 
311 175 483 100 49 39 
232 18 451 138 114 102 
249 143 395 169 63 5 
319 174 499 141 67 63 
335 321 521 113 131 152 
320 746 394 150 41 65 
196 726 445 134 132 139 
265 670 547 117 94 124 
204 664 527 104 136 176 
235 239 426 114 65 91 
286 984 466 150 122 94 
239 756 275 155 156 207 
197 704 489 108 112 120 
234 19 451 137 114 103 
276 644 547 56 67 81 
283 612 561 51 87 127 
317 765 548 151 143 142 
232 20 451 138 114 103 
191 618 373 166 106 98 
178 657 455 173 111 102 
206 473 530 89 107 135 
294 669 306 60 105 143 
221 593 365 64 71 79 
275 216 479 47 59 91 
308 613 533 74 94 114 
160 470 351 139 154 180 
329 507 530 129 142 168 
300 816 376 163 132 98 
331 454 420 143 147 156 
320 903 473 115 91 74 
146 397 368 77 103 137 
237 410 537 74 104 135 
242 176 403 62 96 124 
347 418 505 104 127 155 
240 455 366 69 97 130 
258 679 583 151 178 208 
303 711 326 173 177 188 
296 615 576 52 101 136 
272 315 537 159 120 74 
318 196 507 73 109 137 
235 23 454 134 113 107 
236 16 451 135 111 100 
236 17 451 136 112 101 
317 797 509 203 133 102 
340 733 504 167 151 141 
237 17 452 135 111 100 
261 197 461 74 35 43 
143 334 394 138 125 119 
294 273 478 121 119 120 
286 406 430 47 83 121 
330 796 472 205 147 115 
354 673 487 155 133 140 
320 67 374 149 134 124 
336 734 534 147 134 127 
247 662 540 112 145 175 
293 235 467 112 45 72 
259 881 509 191 153 131 
311 297 494 128 114 101 
207 631 374 81 101 140 
238 19 453 134 111 99 
211 285 372 114 128 145 
176 609 400 78 48 58 
267 83 473 122 98 70 
299 984 425 166 126 96 
341 541 511 116 135 157 
155 407 399 111 127 147 
294 956 489 87 71 58 
310 308 449 141 79 106 
300 989 441 120 91 74 
219 791 410 202 180 165 
283 690 616 102 128 182 
274 79 476 127 100 70 
237 23 454 138 116 109 
304 792 369 158 146 139 
301 704 310 101 128 176 
253 301 492 57 84 106 
145 218 387 113 102 93 
229 530 553 141 149 163 
342 393 496 118 134 152 
227 887 490 168 126 105 
317 681 632 134 152 205 
311 363 425 73 106 139 
353 519 433 106 132 156 
331 662 613 120 148 176 
316 799 412 149 148 154 
225 568 361 38 61 78 
296 221 458 87 76 96 
345 689 405 104 60 70 
343 692 544 163 93 105 
332 751 539 168 142 118 
231 477 549 96 117 142 
259 682 588 160 183 219 
279 437 422 87 103 123 
152 214 449 68 34 26 
137 289 416 77 111 140 
166 361 362 120 104 88 
177 304 370 110 122 139 
173 593 450 143 147 157 
349 503 431 126 137 153 
274 580 371 121 123 129 
188 641 494 138 90 90 
332 625 373 175 176 185 
281 174 480 90 61 76 
189 148 447 82 69 54 
238 641 311 114 130 168 
167 542 476 79 109 160 
192 757 365 94 100 142 
136 277 419 82 119 150 
235 25 456 138 118 108 
331 596 372 150 153 164 
234 26 457 143 119 110 
187 272 371 147 150 160 
235 26 456 141 119 109 
210 761 323 103 132 159 
288 738 301 98 122 176 
209 608 356 94 87 81 
235 27 458 142 121 116 
265 378 541 93 113 140 
261 838 409 188 141 116 
200 490 525 121 129 149 
177 602 470 125 143 167 
330 563 522 142 152 168 
346 709 441 162 50 58 
238 128 428 79 64 47 
143 199 445 59 35 46 
182 691 384 109 112 118 
241 393 541 89 111 143 
208 721 299 63 80 129 
307 107 499 125 102 89 
235 786 453 183 132 108 
251 129 501 137 60 3 
247 975 421 134 108 78 
300 518 367 106 119 134 
188 574 381 57 89 115 
327 495 387 119 130 146 
243 313 532 126 22 54 
312 660 628 112 91 69 
252 948 508 133 104 91 
265 134 476 114 97 84 
329 582 370 126 143 163 
265 242 533 136 134 137 
234 30 461 132 113 107 
274 44 479 98 85 72 
207 619 523 73 72 74 
231 312 401 129 108 88 
313 388 414 92 118 145 
292 545 360 158 155 159 
238 921 413 80 63 53 
241 802 311 193 211 231 
295 975 419 146 113 77 
167 690 413 125 157 189 
233 295 459 109 56 10 
289 105 395 183 122 119 
267 802 468 169 122 104 
259 57 417 102 83 62 
241 195 446 66 34 36 
238 24 456 138 118 108 
238 25 456 137 117 107 
172 370 360 133 116 105 
353 621 424 144 146 153 
311 848 422 182 133 99 
256 482 557 190 182 183 
330 654 379 81 141 185 
353 679 453 158 172 190 
273 593 538 109 135 167 
318 894 442 83 66 52 
291 98 493 95 82 72 
347 427 518 65 97 145 
313 559 537 136 148 166 
234 300 424 85 96 109 
358 554 444 125 143 164 
348 688 523 78 71 113 
253 305 489 62 91 115 
324 809 466 208 149 114 
238 29 459 132 114 105 
239 28 458 135 114 106 
212 773 294 139 132 176 
196 182 459 104 59 34 
342 456 526 49 79 146 
329 703 601 177 182 196 
294 670 631 173 185 206 
248 676 578 99 133 189 
240 875 514 127 101 72 
175 313 370 139 88 61 
179 321 496 79 106 133 
349 432 500 127 143 164 
290 115 527 128 65 1 
305 228 465 87 86 107 
186 306 370 136 131 130 
163 164 448 103 49 12 
292 804 354 52 52 60 
318 936 445 52 39 34 
278 607 360 136 136 141 
184 423 472 116 85 72 
274 861 408 154 118 88 
221 347 369 125 86 56 
306 223 468 142 130 132 
147 241 385 109 124 143 
252 428 393 59 90 116 
310 343 470 147 147 153 
226 27 466 157 131 131 
284 37 381 149 128 109 
323 797 495 207 142 111 
210 307 370 133 26 49 
219 742 322 103 110 128 
221 299 462 79 70 64 
194 255 471 70 68 75 
342 394 495 98 120 146 
244 623 340 35 93 132 
268 867 416 170 127 96 
230 806 406 124 109 104 
247 306 446 115 108 104 
239 541 362 132 128 127 
226 27 471 149 124 125 
188 600 494 88 106 144 
337 876 440 82 69 56 
299 309 539 152 153 160 
298 278 460 104 111 126 
247 665 335 93 118 141 
280 773 326 156 173 195 
292 417 551 159 161 171 
174 618 409 159 109 101 
320 396 409 126 138 154 
279 677 291 104 118 134 
340 706 397 153 156 166 
315 227 504 152 150 154 
280 996 432 130 97 65 
339 549 393 106 126 150 
351 579 423 133 154 179 
238 664 522 89 121 150 
242 372 405 111 98 85 
222 690 358 31 57 79 
174 433 353 108 127 152 
342 398 496 86 114 142 
243 651 295 74 100 161 
340 403 486 150 152 160 
236 353 395 111 113 118 
290 670 302 88 112 134 
336 427 456 93 115 137 
237 370 517 137 114 89 
192 607 497 73 105 148 
278 87 503 99 83 68 
263 828 345 205 161 122 
255 695 528 118 119 131 
303 772 358 131 21 18 
167 172 464 134 63 7 
213 789 372 161 130 110 
335 674 587 136 144 163 
261 606 531 120 125 136 
227 604 369 54 65 77 
152 367 370 113 106 105 
265 274 531 93 62 60 
177 534 415 115 135 158 
229 277 456 89 30 53 
301 61 361 144 127 113 
291 458 389 37 82 114 
228 29 468 154 135 132 
317 368 469 85 107 129 
229 29 468 152 135 131 
324 640 586 56 98 143 
333 325 528 123 134 151 
166 491 419 117 132 164 
229 791 434 183 131 107 
255 665 597 97 117 187 
179 658 477 172 127 84 
241 472 366 105 124 149 
229 30 470 115 101 96 
349 698 502 143 26 42 
273 45 393 126 100 79 
238 728 513 125 100 79 
355 497 475 169 171 179 
188 166 455 92 83 76 
266 502 384 92 100 109 
196 380 361 157 71 0 
240 138 430 77 62 46 
284 759 320 117 139 189 
241 752 496 176 133 103 
272 880 509 175 130 103 
329 650 578 92 123 153 
253 972 477 116 81 51 
210 719 247 111 151 212 
205 366 363 171 146 120 
260 134 424 97 85 73 
187 528 374 85 119 151 
183 448 492 76 64 98 
342 707 517 149 130 114 
225 27 475 153 134 131 
205 663 291 137 95 80 
314 841 440 139 94 61 
162 176 455 82 82 87 
206 756 437 124 99 81 
270 820 340 117 131 146 
258 75 419 112 88 70 
224 27 478 155 138 134 
357 540 479 115 141 169 
358 559 440 99 127 161 
276 161 526 98 81 91 
164 178 453 76 59 74 
226 317 465 83 88 96 
226 28 473 155 136 133 
258 171 483 113 26 33 
136 388 457 174 107 62 
128 293 473 146 147 155 
226 28 475 155 135 134 
247 188 423 96 98 103 
286 644 541 64 75 88 
263 683 544 106 100 116 
239 178 443 94 45 29 
261 680 282 52 96 129 
199 466 359 76 105 143 
274 991 468 91 66 45 
316 140 522 73 62 75 
341 398 531 88 110 149 
268 115 511 117 103 90 
335 645 561 38 67 125 
195 460 357 83 112 145 
190 729 432 154 153 160 
244 260 451 105 50 53 
153 391 402 87 114 151 
318 244 525 143 138 139 
252 981 461 157 128 98 
250 883 513 180 137 117 
229 786 443 185 131 110 
229 30 472 91 67 59 
259 85 385 146 115 86 
247 146 395 174 67 7 
227 655 364 71 81 122 
258 60 377 130 98 75 
244 801 311 178 198 222 
144 404 429 71 97 134 
286 859 467 160 116 82 
249 890 510 167 121 101 
368 611 454 89 132 167 
196 545 512 98 121 151 
228 462 362 63 98 136 
193 518 356 131 147 168 
255 885 510 181 141 122 
202 185 465 87 92 101 
276 609 360 129 130 136 
237 672 573 74 33 115 
269 31 482 88 79 71 
292 794 492 189 135 107 
270 254 473 132 60 34 
224 880 479 151 108 84 
272 575 545 132 145 166 
309 682 328 188 188 197 
310 169 481 107 56 40 
254 766 492 189 142 115 
172 666 441 96 80 76 
196 621 331 155 102 86 
245 969 466 90 66 53 
242 182 405 123 79 100 
229 501 550 108 120 148 
230 30 477 101 73 56 
184 636 493 179 126 118 
277 78 503 111 95 79 
294 675 303 104 127 151 
244 188 445 67 55 63 
179 633 454 42 78 111 
334 430 449 90 114 138 
153 203 417 80 34 46 
186 528 363 108 131 155 
273 681 588 138 166 197 
192 623 382 158 110 103 
269 212 480 49 40 50 
128 292 464 70 93 115 
169 181 445 59 48 67 
271 121 405 149 105 89 
269 674 289 20 46 104 
252 269 458 85 83 100 
333 781 496 193 135 101 
239 848 477 116 91 63 
320 416 539 142 154 170 
241 14 458 130 109 99 
303 339 539 161 160 167 
247 622 362 87 98 111 
334 770 497 118 103 91 
267 806 328 168 0 44 
232 626 527 63 57 53 
213 769 332 119 139 161 
225 571 549 97 114 153 
230 885 494 168 127 106 
253 675 271 65 90 138 
282 20 389 120 104 89 
302 718 335 181 181 189 
268 975 484 76 57 49 
164 239 469 31 37 53 
239 199 411 160 72 72 
197 696 479 49 79 103 
297 761 351 148 152 160 
277 241 478 125 90 76 
181 193 459 100 49 57 
171 506 406 73 88 135 
241 14 460 129 109 98 
216 671 247 105 92 79 
260 264 483 63 87 108 
297 968 464 84 64 50 
226 464 360 117 130 150 
276 348 458 116 116 120 
201 501 359 95 114 138 
297 965 469 108 86 65 
296 370 442 71 97 125 
180 397 500 108 127 148 
315 661 342 116 116 123 
279 936 508 139 105 83 
144 388 466 180 149 115 
178 615 397 165 111 104 
222 638 561 124 99 75 
238 857 497 147 118 93 
244 13 463 124 106 97 
226 892 454 140 106 78 
204 730 492 188 141 87 
149 403 361 95 112 132 
206 615 508 121 120 127 
311 930 487 95 75 65 
207 746 468 170 165 167 
244 14 462 125 107 97 
355 499 485 91 116 150 
201 652 275 100 86 73 
257 664 602 107 131 189 
223 937 445 84 68 54 
164 446 347 114 132 155 
149 470 471 84 106 156 
271 814 335 172 45 60 
233 735 507 161 149 142 
231 261 451 62 30 33 
258 34 373 140 108 80 
236 335 407 84 51 61 
335 322 523 121 135 153 
159 516 457 123 144 174 
296 210 538 109 92 107 
286 394 436 65 92 122 
287 88 406 125 92 70 
249 15 461 121 104 95 
240 941 510 182 137 116 
336 727 546 165 140 118 
178 744 389 115 127 142 
197 703 470 147 141 144 
249 14 463 119 103 93 
289 311 470 76 98 118 
204 662 530 80 103 163 
331 421 537 113 134 161 
277 193 532 88 79 89 
280 468 403 98 104 123 
319 616 528 88 102 118 
174 639 443 59 85 106 
275 874 506 164 122 93 
209 753 453 179 140 134 
152 315 485 139 22 66 
345 700 515 130 32 53 
278 988 467 98 71 51 
292 750 336 190 188 194 
148 222 464 76 64 68 
275 38 491 101 88 75 
226 935 439 73 55 51 
304 178 468 36 61 89 
180 740 417 178 95 99 
299 724 328 70 79 108 
212 736 494 193 180 173 
158 500 474 111 129 163 
251 517 556 142 153 169 
227 248 416 82 71 81 
242 12 465 125 107 97 
137 285 413 75 110 139 
283 303 538 135 143 156 
237 373 386 137 119 102 
249 610 528 113 118 129 
179 739 378 94 50 86 
238 251 450 65 39 44 
318 674 354 181 182 192 
309 393 415 74 100 132 
243 13 466 123 106 96 
317 274 513 82 64 64 
237 671 351 34 68 103 
312 810 405 136 129 128 
221 745 264 191 190 223 
229 867 463 148 112 82 
231 552 552 158 165 179 
326 786 431 120 128 140 
184 577 390 52 72 89 
271 424 417 40 78 105 
315 698 359 88 145 189 
243 742 268 151 162 195 
358 628 428 180 179 186 
147 257 389 153 148 150 
177 685 400 116 122 132 
244 13 465 122 105 95 
260 790 311 177 195 218 
339 622 392 83 145 191 
257 641 590 111 91 71 
295 223 537 155 83 10 
244 13 466 121 104 94 
305 875 428 124 94 73 
203 192 465 85 59 55 
140 200 442 58 31 42 
326 689 383 137 137 143 
254 218 453 27 50 89 
280 77 503 113 96 80 
303 711 329 131 140 178 
267 776 305 154 168 200 
274 881 409 110 81 62 
349 459 514 166 170 180 
199 719 278 103 117 157 
304 970 442 101 80 62 
289 646 559 59 73 89 
238 895 504 164 127 110 
286 714 568 71 58 98 
151 251 387 162 156 158 
308 765 362 122 134 153 
204 399 486 70 66 65 
245 12 469 115 99 89 
231 209 405 165 94 69 
218 666 256 104 93 83 
331 458 415 141 144 154 
314 440 392 96 114 134 
207 407 485 87 82 81 
246 12 469 113 97 88 
184 633 397 156 107 103 
342 426 473 69 100 129 
246 827 370 142 116 84 
254 132 477 104 93 85 
320 262 531 140 132 133 
292 692 295 96 126 157 
160 481 475 95 114 134 
238 706 309 28 34 97 
171 292 371 108 124 144 
152 235 469 92 36 42 
205 437 492 60 85 114 
217 710 298 105 109 119 
246 821 412 186 130 111 
304 856 445 170 127 95 
212 286 471 78 85 95 
280 426 554 148 154 167 
142 241 390 137 130 128 
247 186 422 100 95 108 
364 639 437 165 165 172 
240 576 548 131 148 169 
270 678 584 127 161 195 
331 693 385 151 154 164 
319 188 517 94 103 113 
255 206 453 107 41 57 
247 400 399 109 98 89 
257 737 523 71 80 96 
241 11 476 110 96 86 
292 264 539 104 69 74 
321 794 422 132 143 158 
202 459 515 75 105 139 
225 566 360 34 58 78 
296 819 464 197 149 117 
137 385 464 182 151 116 
183 689 385 103 107 113 
143 406 440 78 95 134 
180 659 458 182 123 36 
309 668 322 80 110 148 
304 612 524 64 68 78 
187 680 253 144 105 73 
240 906 418 125 91 66 
290 743 317 187 188 199 
196 629 303 136 101 85 
246 141 393 169 87 9 
244 799 448 178 121 102 
360 664 426 112 144 175 
255 205 494 60 36 54 
244 11 475 106 92 81 
277 795 480 184 138 114 
172 734 396 183 43 57 
311 758 365 114 101 105 
276 641 572 83 78 76 
271 475 557 123 146 171 
159 419 476 138 60 1 
169 611 432 79 117 151 
277 678 616 127 158 195 
351 641 417 104 143 179 
233 783 456 186 134 109 
287 25 401 141 129 122 
307 314 441 168 113 42 
285 622 338 34 41 88 
280 616 556 97 110 131 
351 685 469 164 41 58 
181 591 362 163 119 108 
247 11 477 100 86 74 
148 306 389 139 135 136 
296 525 364 123 128 137 
191 499 502 65 85 111 
202 610 507 98 114 132 
290 630 331 57 79 97 
189 539 376 85 103 130 
245 12 473 107 92 82 
286 879 499 157 113 84 
290 915 408 64 48 37 
352 608 490 100 88 122 
247 12 473 104 89 79 
323 366 480 63 91 118 
240 562 551 158 166 181 
222 946 460 95 78 66 
237 799 308 194 211 231 
357 512 479 87 123 157 
301 438 395 104 117 132 
152 212 423 37 37 48 
265 327 455 117 117 120 
331 631 371 161 166 179 
261 252 480 104 17 48 
293 615 344 147 146 150 
233 327 400 108 75 84 
185 258 477 101 70 62 
227 238 413 121 32 59 
228 135 426 80 65 48 
158 457 474 74 101 128 
330 634 557 54 86 122 
334 736 544 131 122 118 
256 122 420 99 78 56 
253 919 519 191 153 128 
352 508 499 91 118 158 
179 422 496 118 101 83 
177 553 489 53 70 109 
202 167 461 70 63 59 
283 27 379 119 105 90 
258 638 551 51 54 61 
246 718 259 148 157 176 
264 428 550 51 86 131 
299 609 347 97 111 127 
173 588 470 109 124 170 
170 511 402 99 118 152 
177 628 483 145 97 90 
209 325 483 58 75 90 
319 352 482 87 106 127 
236 440 365 56 93 128 
273 19 421 132 119 114 
317 439 393 132 139 150 
282 567 546 168 166 172 
229 642 353 149 147 153 
317 130 495 125 106 97 
349 455 480 100 119 149 
305 648 608 71 71 73 
180 484 369 69 90 152 
252 14 465 112 98 89 
312 616 535 102 110 122 
275 570 370 118 117 120 
359 618 476 106 134 189 
256 167 491 84 27 33 
335 559 519 160 159 165 
331 709 592 164 160 165 
269 761 294 136 144 203 
292 652 615 104 86 67 
273 980 476 97 73 56 
289 445 399 87 113 137 
227 777 455 193 142 115 
244 255 513 64 93 117 
198 332 366 134 42 65 
302 885 461 144 106 81 
136 306 422 146 143 147 
161 411 476 135 59 2 
340 579 389 100 130 159 
303 268 469 155 154 161 
203 785 353 170 129 89 
147 456 468 80 103 149 
252 13 470 103 88 78 
242 813 421 187 129 108 
256 79 420 111 86 68 
348 646 528 126 139 161 
202 719 358 127 134 144 
277 476 398 79 91 106 
332 752 436 163 143 129 
334 331 528 84 109 133 
163 477 418 103 118 152 
171 469 365 76 112 154 
140 348 418 128 134 144 
284 109 486 114 89 56 
314 406 406 77 102 130 
323 464 540 113 125 154 
274 323 539 165 133 95 
335 660 575 152 155 165 
366 646 439 177 181 194 
199 665 376 102 111 129 
351 579 421 124 150 178 
247 364 527 163 123 74 
253 849 452 152 121 90 
254 211 461 35 44 74 
294 573 542 143 156 174 
195 665 500 127 89 117 
245 279 518 126 126 132 
294 773 348 149 162 179 
313 893 432 69 56 48 
226 386 487 113 114 120 
349 505 429 149 153 163 
336 705 414 132 149 170 
261 689 535 101 29 82 
205 587 521 169 165 168 
247 873 440 141 109 80 
323 615 522 97 108 121 
248 12 474 102 87 76 
243 658 587 159 165 194 
264 663 611 174 175 185 
248 831 345 151 128 119 
269 549 365 87 118 147 
228 443 540 72 96 126 
296 266 468 103 109 124 
228 387 515 144 140 142 
308 543 542 91 114 152 
302 838 402 199 151 121 
180 630 465 142 104 95 
185 653 286 155 109 82 
338 501 409 119 135 154 
237 666 580 55 86 155 
311 301 448 117 134 153 
175 272 487 71 109 140 
193 670 246 117 96 70 
263 96 505 112 90 71 
251 12 477 94 81 68 
276 779 499 191 143 110 
316 373 432 56 104 141 
224 640 564 141 106 83 
225 713 350 89 98 114 
271 199 481 106 44 50 
240 742 508 134 131 133 
286 207 539 116 36 64 
286 768 334 195 186 186 
309 907 484 115 93 70 
251 136 501 137 61 10 
311 205 482 139 37 36 
283 129 483 100 88 79 
301 452 390 136 141 152 
304 726 585 134 130 134 
305 971 457 116 96 73 
178 514 493 148 157 172 
290 83 502 105 85 68 
195 727 360 114 137 162 
237 693 292 87 109 138 
247 662 335 40 81 134 
210 802 355 133 136 140 
179 657 470 176 138 91 
350 480 457 92 121 149 
278 387 442 64 89 111 
252 12 477 93 80 67 
242 258 443 118 115 116 
183 674 450 140 106 72 
251 191 517 49 39 48 
221 260 458 52 38 38 
163 330 370 162 138 114 
266 673 577 136 163 194 
258 286 491 114 113 117 
214 539 545 78 97 133 
294 627 551 63 82 103 
249 211 443 96 94 107 
142 395 446 109 107 122 
296 991 436 141 116 91 
245 207 448 76 51 59 
201 490 358 88 114 148 
279 961 492 100 76 57 
186 506 379 23 58 124 
292 654 618 107 88 69 
243 740 268 189 188 196 
317 752 397 151 114 94 
240 16 455 133 110 99 
303 844 408 194 147 117 
254 765 288 148 173 202 
338 489 413 100 122 147 
254 920 519 191 155 130 
156 417 353 71 106 139 
223 231 402 114 17 50 
271 995 441 110 84 64 
304 653 618 84 74 65 
167 313 371 158 134 108 
241 18 454 132 111 99 
310 683 335 73 83 100 
242 16 455 132 110 99 
242 17 454 132 111 99 
259 460 391 103 113 125 
297 906 490 101 78 65 
269 746 286 107 134 194 
333 785 484 192 137 101 
180 533 402 160 155 159 
238 411 538 70 98 134 
181 563 447 70 84 120 
325 667 628 84 110 173 
232 552 357 36 55 74 
263 685 599 151 176 214 
241 20 454 135 113 99 
207 665 248 108 94 77 
168 181 443 66 42 52 
232 648 573 154 116 90 
267 542 551 123 132 158 
295 824 375 216 190 168 
288 364 450 106 117 132 
328 561 372 92 118 142 
227 597 536 170 166 170 
325 347 493 88 102 118 
319 399 426 40 84 141 
249 661 321 132 141 157 
242 23 454 133 111 103 
349 574 412 116 136 162 
247 370 416 98 111 126 
293 891 406 101 75 59 
244 17 455 130 111 100 
323 424 427 128 141 157 
257 113 394 154 116 87 
142 408 466 156 74 8 
219 916 450 76 62 53 
322 682 627 145 161 203 
226 275 403 115 107 107 
304 306 467 131 84 98 
294 574 542 150 160 177 
246 365 532 153 98 70 
246 240 507 99 63 71 
286 70 503 120 97 74 
329 651 592 118 137 160 
137 397 459 179 68 0 
263 938 514 189 139 112 
220 441 361 96 118 142 
243 795 306 202 211 227 
320 252 526 142 140 143 
316 791 408 159 132 107 
255 650 296 80 109 134 
263 93 387 149 119 89 
201 673 289 140 95 82 
283 52 483 116 97 84 
255 295 480 89 101 116 
355 637 488 157 167 184 
264 757 512 171 124 94 
290 899 499 177 131 106 
281 103 507 99 90 83 
248 142 437 108 95 83 
258 154 473 128 105 104 
203 347 489 113 114 120 
141 233 461 62 51 74 
270 722 540 177 162 153 
259 753 282 150 166 196 
163 202 468 93 92 100 
188 608 353 173 122 108 
274 615 354 32 79 114 
299 936 492 112 95 81 
269 914 405 70 52 39 
186 617 380 165 102 92 
145 420 442 96 111 133 
274 67 473 139 111 85 
246 17 457 125 106 96 
336 764 484 140 129 124 
271 52 391 118 96 73 
225 424 531 101 118 137 
251 925 518 187 150 127 
247 16 458 124 106 96 
173 554 473 48 74 120 
162 200 450 70 33 32 
279 400 549 37 77 128 
237 307 430 96 102 111 
302 714 330 125 130 171 
159 519 477 79 103 156 
164 467 395 113 129 160 
283 864 402 165 118 81 
216 763 339 107 117 130 
192 280 370 131 136 145 
240 794 449 179 125 105 
254 632 567 85 78 74 
312 743 363 162 161 168 
176 654 480 108 73 46 
288 55 502 90 79 68 
244 211 431 99 91 104 
319 395 449 48 84 122 
184 606 327 166 119 99 
192 760 415 182 131 106 
171 631 437 180 171 176 
241 860 501 151 93 96 
136 318 424 96 117 139 
244 27 455 130 109 100 
282 753 303 93 116 174 
352 685 492 73 77 117 
178 580 404 121 92 77 
305 263 462 156 157 165 
136 306 427 133 134 140 
286 503 550 116 126 158 
230 729 322 121 127 139 
221 715 244 164 162 213 
174 616 411 138 104 87 
246 26 454 124 102 93 
305 67 498 129 113 100 
279 934 509 149 114 89 
312 935 433 95 75 59 
256 421 401 119 123 132 
338 708 566 114 44 82 
215 214 463 38 31 41 
351 611 426 144 145 153 
274 258 474 133 59 4 
318 663 641 71 95 125 
314 237 514 118 131 148 
174 552 449 98 110 144 
175 335 496 172 152 134 
207 438 509 82 103 127 
273 642 596 106 88 70 
259 902 414 64 50 42 
274 535 366 137 144 156 
242 642 318 101 124 163 
351 694 497 165 29 54 
174 374 485 126 17 54 
240 29 458 132 107 99 
178 436 354 150 155 167 
260 203 482 57 45 73 
320 490 539 106 128 159 
223 629 322 65 87 139 
322 524 373 156 152 153 
289 783 522 190 144 114 
318 751 373 146 155 169 
326 739 567 153 140 132 
142 381 435 101 119 143 
337 600 517 111 57 77 
358 528 474 126 146 170 
221 893 474 166 125 97 
338 507 521 127 139 159 
304 964 461 135 109 82 
242 742 267 204 205 219 
185 294 488 135 134 140 
210 747 315 114 129 146 
196 495 511 128 137 150 
178 510 480 54 79 130 
185 681 455 112 82 63 
290 39 379 99 90 82 
201 730 358 150 157 170 
258 246 523 127 129 136 
301 108 498 127 106 91 
182 666 486 180 120 57 
161 201 450 70 33 34 
236 440 548 111 127 153 
277 172 528 106 69 68 
209 798 337 99 11 54 
194 272 368 150 148 153 
309 293 491 101 118 137 
307 123 526 106 115 126 
349 492 509 158 161 171 
310 528 365 101 120 142 
224 940 493 186 143 118 
252 290 512 121 120 125 
369 618 470 141 166 200 
277 67 473 137 108 85 
235 883 506 164 118 101 
245 194 419 115 74 77 
357 527 449 125 140 159 
180 495 500 124 144 165 
351 582 423 149 159 175 
315 745 368 131 156 182 
276 590 364 74 104 131 
327 524 526 91 112 150 
243 674 256 118 131 149 
227 820 325 149 85 108 
260 264 489 54 78 98 
340 708 412 144 132 144 
329 410 456 28 75 114 
196 372 362 170 141 107 
168 531 485 65 98 132 
279 688 569 93 115 146 
203 618 505 71 68 68 
220 931 492 187 144 122 
249 21 454 119 101 91 
352 674 519 163 33 68 
320 897 455 73 62 53 
268 102 412 121 91 66 
317 108 501 114 98 87 
281 277 477 98 104 114 
249 22 455 117 101 90 
249 23 455 116 100 88 
319 323 496 142 110 75 
223 642 563 165 121 98 
251 20 455 119 103 94 
217 371 477 96 98 103 
261 11 402 122 107 98 
225 950 476 122 92 80 
279 863 500 158 115 83 
178 583 385 109 91 73 
278 619 548 29 52 106 
313 697 351 94 141 179 
244 328 528 111 85 102 
309 922 421 76 59 48 
287 626 545 36 50 80 
349 582 507 85 129 165 
325 611 361 85 125 157 
238 161 397 86 55 86 
217 517 545 168 164 167 
253 685 269 153 154 161 
287 702 580 124 61 84 
308 889 466 127 95 70 
288 327 465 120 116 117 
158 468 425 166 163 168 
255 353 434 119 93 70 
218 666 504 54 97 128 
161 526 457 111 132 170 
222 538 550 119 133 151 
305 245 479 130 116 117 
250 169 505 84 52 70 
269 676 581 146 165 188 
202 724 289 70 87 127 
318 562 363 157 155 160 
178 530 428 121 132 150 
302 288 466 125 56 65 
305 878 453 115 91 70 
214 759 349 91 108 128 
341 695 561 149 137 139 
253 165 425 102 56 62 
197 642 381 60 65 72 
245 669 284 82 111 156 
142 230 391 138 61 2 
340 732 467 126 116 111 
264 845 494 133 94 69 
251 20 456 120 103 94 
138 304 409 94 59 60 
197 642 286 115 92 80 
317 139 519 110 95 88 
262 213 525 77 55 80 
215 775 291 131 147 185 
252 19 456 120 104 94 
267 194 480 116 24 43 
310 885 441 101 81 67 
184 134 430 87 68 48 
251 843 484 116 83 55 
239 966 461 113 88 64 
275 94 479 119 95 68 
245 293 447 80 105 129 
254 19 457 119 104 96 
300 878 458 145 111 79 
310 328 477 129 78 90 
275 641 575 83 78 76 
307 605 348 128 126 127 
255 19 458 118 104 96 
255 19 459 118 105 97 
332 761 448 160 142 128 
303 136 529 115 83 65 
207 664 249 109 93 76 
347 468 517 107 130 158 
291 894 401 93 73 60 
364 575 469 88 136 176 
170 654 446 62 45 121 
242 390 532 74 95 132 
313 452 543 136 144 158 
194 421 359 168 165 169 
353 672 473 160 172 190 
232 671 502 80 121 154 
267 683 281 112 120 132 
202 783 354 169 128 105 
325 392 464 78 98 120 
289 752 548 93 101 113 
287 27 395 132 121 114 
170 552 450 139 150 167 
316 298 533 85 116 142 
310 212 481 115 55 78 
297 340 453 78 104 128 
268 849 498 149 114 85 
255 18 461 117 104 96 
252 20 456 119 103 94 
243 626 327 51 97 135 
229 725 316 79 100 125 
316 212 526 135 68 86 
302 414 409 116 124 135 
177 665 408 61 63 69 
300 872 420 149 107 82 
177 287 490 95 53 62 
253 22 457 116 103 95 
184 570 496 111 133 160 
253 23 457 116 103 95 
241 645 308 106 130 155 
220 920 443 74 62 52 
245 493 556 104 125 159 
247 970 426 109 81 53 
298 135 530 123 77 70 
199 642 308 147 104 81 
211 772 329 130 142 158 
283 117 483 120 93 58 
280 953 499 93 70 52 
305 797 512 200 142 114 
197 269 367 147 149 158 
224 893 488 175 135 112 
216 668 530 135 161 191 
232 447 363 71 99 127 
248 27 455 109 95 86 
307 336 461 81 108 141 
256 671 571 121 144 169 
260 462 556 68 105 150 
192 436 357 102 123 154 
235 304 423 111 111 115 
158 494 471 107 128 159 
278 611 557 104 122 145 
289 866 474 140 101 73 
328 789 499 202 136 104 
239 415 547 51 91 136 
293 222 474 101 35 51 
201 759 357 47 58 90 
248 281 515 121 118 121 
268 778 307 153 154 191 
243 279 457 103 105 110 
288 553 547 132 151 173 
210 712 242 103 143 217 
169 320 490 137 116 96 
249 210 444 99 97 109 
263 389 424 120 112 106 
148 461 456 98 119 167 
317 236 524 82 107 131 
260 252 490 87 45 62 
247 627 336 58 102 134 
321 69 366 154 137 125 
153 249 386 159 154 157 
227 370 368 163 142 119 
170 479 395 104 115 144 
154 206 446 64 22 32 
287 868 404 154 119 91 
131 233 445 76 80 94 
250 28 458 98 75 63 
244 319 472 117 118 124 
351 687 443 151 171 196 
301 448 392 78 98 119 
251 966 497 86 67 54 
309 911 486 108 83 67 
148 380 404 67 100 147 
243 646 278 72 113 143 
179 288 489 105 42 53 
155 481 465 129 144 166 
239 251 438 72 90 109 
331 901 446 84 65 55 
182 149 450 86 66 51 
281 799 339 154 23 37 
156 255 472 94 78 80 
349 593 510 86 135 173 
264 188 480 148 61 38 
275 415 428 28 67 103 
195 713 458 72 67 90 
334 613 511 82 107 132 
252 27 457 121 107 99 
166 375 359 140 129 123 
180 661 480 129 94 38 
341 485 522 89 111 156 
209 602 517 147 150 160 
217 812 356 160 127 121 
325 275 529 87 118 147 
177 556 449 94 106 136 
186 532 385 87 114 145 
230 870 461 149 113 83 
202 150 429 81 73 66 
358 655 460 138 159 186 
336 706 581 174 26 50 
348 700 434 161 99 114 
278 246 477 132 102 73 
254 988 460 116 73 53 
208 767 320 135 147 165 
285 369 448 59 85 111 
255 27 460 103 89 81 
357 614 481 100 126 177 
252 28 459 91 70 56 
173 467 347 170 171 183 
287 717 563 133 120 112 
199 768 416 33 19 40 
169 669 415 157 163 175 
226 711 349 44 70 110 
251 842 487 115 84 57 
259 276 492 113 111 113 
199 499 521 85 98 143 
159 334 373 129 75 12 
242 457 366 66 96 129 
267 849 406 191 145 114 
240 799 442 179 123 102 
315 636 342 128 144 165 
334 427 453 56 96 127 
197 547 514 123 138 156 
276 980 475 160 134 109 
282 743 544 146 107 70 
266 109 474 128 97 69 
224 712 242 142 145 208 
218 723 354 107 125 145 
349 675 538 162 84 114 
292 876 471 155 114 85 
178 232 474 57 88 111 
184 722 430 102 86 72 
257 224 478 61 37 55 
254 948 418 117 91 59 
210 735 310 119 122 139 
305 300 445 118 113 113 
158 427 375 87 109 150 
321 763 404 151 124 99 
224 10 481 112 103 98 
312 331 481 122 91 91 
225 10 481 112 103 99 
328 599 367 91 83 99 
261 56 503 126 106 88 
228 897 448 170 125 98 
225 10 483 113 104 99 
344 576 397 129 145 164 
244 285 447 86 106 126 
300 978 422 170 132 95 
290 606 537 85 105 125 
185 584 357 117 100 84 
304 691 313 106 127 154 
227 10 482 113 104 99 
264 582 543 157 159 168 
187 686 250 153 108 84 
247 466 372 91 107 125 
224 11 485 112 103 99 
246 445 374 88 104 122 
324 690 381 125 127 135 
330 408 462 146 146 150 
213 418 361 129 114 100 
190 686 383 95 100 108 
194 374 362 144 83 4 
249 683 262 116 136 163 
301 532 543 86 111 150 
349 646 526 117 140 168 
246 666 281 68 94 125 
203 648 299 144 98 82 
293 710 587 153 128 90 
167 683 420 140 163 189 
316 644 584 78 90 105 
188 684 275 168 113 90 
328 704 381 138 154 176 
201 733 358 103 127 150 
344 875 442 99 83 68 
250 199 516 41 37 54 
224 524 550 97 111 148 
326 636 566 63 67 119 
256 842 497 131 97 72 
208 625 360 60 64 110 
251 141 463 99 84 75 
350 692 451 181 27 56 
341 712 509 74 62 64 
266 568 547 142 148 166 
271 610 546 65 99 126 
175 453 472 74 83 107 
250 705 260 137 142 153 
178 679 400 89 106 123 
312 356 443 103 126 152 
164 476 348 142 153 176 
265 843 400 205 157 125 
317 894 447 72 56 46 
321 926 489 114 97 84 
163 381 359 117 104 94 
311 243 491 150 149 155 
229 11 485 112 103 98 
287 37 388 131 113 100 
234 657 268 79 108 137 
293 600 531 142 151 166 
198 330 489 102 102 105 
260 901 414 62 50 42 
350 534 498 132 136 146 
200 237 463 86 62 70 
166 550 453 119 144 172 
261 601 378 42 51 60 
226 158 391 123 93 90 
343 643 409 74 112 142 
234 932 419 118 97 78 
166 330 368 163 139 113 
356 593 437 98 119 140 
155 458 424 162 163 172 
179 679 398 91 104 154 
229 827 336 204 174 147 
301 721 337 165 170 183 
235 413 534 53 88 123 
233 631 300 101 119 136 
142 312 399 141 139 142 
327 788 504 200 132 100 
252 476 380 122 128 138 
175 354 495 120 117 126 
367 606 455 164 171 184 
314 267 509 78 109 138 
211 730 310 124 129 138 
267 594 375 106 106 111 
245 376 409 122 61 21 
195 723 449 121 91 92 
284 36 388 130 112 97 
239 874 511 106 73 54 
154 363 368 135 123 115 
269 839 386 220 169 138 
201 731 284 138 147 166 
283 581 542 124 144 167 
353 665 417 159 161 170 
234 139 386 169 85 7 
242 824 330 226 164 126 
241 129 384 144 129 117 
189 334 365 125 95 70 
340 497 413 99 119 143 
209 582 530 137 148 164 
156 206 432 65 36 42 
295 780 531 192 141 113 
135 295 477 136 138 145 
196 531 511 104 122 148 
356 537 437 138 148 165 
361 600 498 179 177 182 
249 283 463 107 112 121 
190 674 282 167 114 92 
283 454 404 69 103 134 
356 669 442 151 178 207 
225 652 364 91 89 125 
227 12 494 111 102 98 
223 689 282 47 75 114 
246 248 510 75 47 48 
228 576 549 144 148 159 
280 28 412 139 125 116 
182 467 491 92 106 136 
323 422 401 141 149 161 
360 563 478 105 101 111 
242 378 400 107 61 10 
306 565 540 164 164 172 
229 11 490 110 102 98 
146 206 400 51 46 50 
333 395 536 48 84 130 
165 242 473 87 73 64 
244 323 529 123 117 109 
339 903 475 139 114 92 
219 915 450 71 57 48 
317 627 588 77 115 150 
146 315 483 140 23 62 
272 121 515 125 59 0 
228 11 492 110 102 98 
261 57 376 135 105 83 
215 418 487 83 93 110 
258 199 454 102 42 49 
204 689 499 144 65 19 
253 217 518 84 56 82 
255 846 435 163 122 95 
283 264 478 108 103 105 
259 31 414 130 117 111 
358 647 465 145 160 181 
345 694 529 169 15 51 
254 363 540 91 106 134 
263 557 549 111 125 155 
357 668 445 164 181 203 
263 802 322 180 45 56 
317 624 563 19 60 111 
286 674 298 72 103 130 
205 737 265 130 140 205 
350 693 472 141 24 43 
264 953 419 106 75 49 
201 188 465 51 60 78 
233 10 480 113 103 97 
229 944 439 89 68 57 
166 179 442 60 39 53 
275 737 539 161 131 97 
249 945 509 170 132 113 
268 815 456 164 112 91 
177 376 497 176 151 126 
202 716 497 108 102 102 
339 700 421 114 135 157 
255 150 403 179 71 10 
346 417 497 129 142 161 
158 417 476 141 68 0 
181 614 473 51 66 107 
213 752 471 136 125 122 
321 356 482 78 99 121 
254 285 508 119 119 125 
189 654 293 163 113 89 
297 673 313 95 117 142 
166 147 448 90 66 47 
259 111 393 161 119 90 
203 293 368 151 146 146 
325 909 475 155 124 101 
256 266 464 93 74 85 
214 246 465 76 52 43 
264 762 504 185 131 104 
310 632 594 118 130 148 
