ply
format ascii 1.0
comment Created by CloudCompare v2.11.1 (Anoia)
comment Created 2/28/22 9:38 PM
obj_info Generated by CloudCompare!
element vertex 2009
property float x
property float y
property float z
property uchar red
property uchar green
property uchar blue
end_header
177 695 249 105 128 160 
161 746 294 144 139 166 
326 258 509 120 122 126 
369 661 538 133 149 169 
195 627 321 90 114 150 
175 235 493 59 48 49 
221 531 527 109 128 156 
187 490 354 162 157 159 
150 335 374 170 147 123 
242 287 443 107 107 113 
195 700 264 147 149 159 
278 229 475 58 44 81 
178 399 512 188 160 132 
229 530 541 77 102 149 
169 573 416 113 131 151 
184 361 365 133 27 56 
203 761 440 170 142 119 
174 449 479 59 74 109 
303 840 428 174 127 95 
223 934 478 171 135 108 
220 933 463 110 88 75 
171 747 275 136 147 199 
234 69 410 89 73 56 
332 603 384 146 145 150 
195 488 509 79 86 120 
265 671 548 153 179 207 
326 258 518 128 136 148 
234 70 409 90 74 58 
161 374 416 103 121 148 
155 451 374 84 108 139 
218 575 520 89 115 151 
313 606 513 56 61 68 
235 627 545 125 106 88 
349 500 476 112 130 155 
231 321 409 93 103 114 
274 601 331 128 118 110 
283 519 553 108 129 179 
268 977 469 98 71 45 
182 776 350 78 85 101 
343 652 391 157 158 165 
219 488 360 117 132 152 
236 66 410 87 72 55 
176 666 396 154 155 163 
289 532 349 132 138 148 
245 962 420 90 63 49 
165 527 386 99 117 137 
156 235 484 64 71 85 
233 795 437 182 129 109 
217 413 368 130 105 97 
170 542 411 194 178 169 
291 559 344 152 151 156 
364 646 553 121 137 155 
276 996 422 129 102 77 
263 487 549 165 164 171 
250 281 465 109 108 111 
308 903 462 116 74 53 
179 462 510 55 91 139 
314 281 490 144 142 146 
268 995 429 137 102 76 
239 67 413 87 70 52 
235 321 478 74 77 83 
175 328 371 177 149 120 
242 405 396 82 100 118 
184 314 514 129 25 68 
273 791 466 198 147 129 
183 164 467 58 66 75 
197 249 504 126 99 75 
335 785 496 198 129 99 
158 602 365 152 104 91 
176 524 441 135 147 164 
298 337 422 132 87 43 
190 743 442 132 101 86 
295 140 465 101 39 45 
317 702 363 173 174 184 
325 535 538 115 128 159 
304 838 429 178 129 100 
158 722 262 99 114 181 
144 693 256 166 113 89 
238 70 413 88 71 52 
355 708 574 157 160 179 
342 407 527 102 125 155 
161 682 243 154 111 74 
318 244 501 115 128 144 
337 534 522 108 124 149 
319 548 371 128 138 153 
167 710 388 91 97 107 
162 516 418 91 111 138 
235 216 452 26 26 27 
172 450 400 61 79 106 
160 703 420 104 125 147 
297 887 471 164 118 87 
311 281 482 125 133 147 
171 550 436 92 117 142 
178 765 386 184 148 128 
159 706 433 130 161 193 
261 391 531 55 84 115 
278 593 528 94 112 148 
198 644 497 145 111 97 
281 979 458 143 117 92 
264 67 380 115 92 67 
229 726 504 174 141 101 
244 459 378 69 92 112 
176 688 290 79 100 125 
200 708 311 97 117 144 
238 211 417 136 93 102 
234 73 412 90 73 56 
344 454 533 102 122 154 
193 771 424 182 161 147 
144 234 477 79 75 76 
355 740 490 153 136 123 
234 75 413 90 73 55 
156 367 440 44 81 127 
304 879 425 97 70 52 
316 774 402 173 153 137 
274 162 523 122 90 71 
232 76 411 92 76 59 
296 697 528 106 91 97 
276 258 529 128 118 121 
200 727 459 191 172 160 
272 413 392 63 87 108 
299 374 430 88 112 135 
236 751 292 55 50 141 
366 654 480 151 166 187 
273 648 571 145 108 83 
201 665 509 79 59 43 
145 643 297 116 89 57 
304 786 489 192 144 114 
353 664 424 141 166 195 
145 362 385 149 71 0 
265 668 299 83 113 148 
254 848 403 188 141 111 
256 420 402 21 71 107 
222 415 508 45 45 47 
259 183 491 34 38 53 
287 214 534 92 66 67 
337 364 519 87 106 139 
318 124 508 142 63 4 
247 808 438 178 120 103 
188 178 476 114 54 3 
240 357 420 87 89 94 
205 435 511 108 76 73 
211 351 379 120 103 93 
215 144 427 66 57 48 
198 260 507 116 52 68 
320 579 519 142 151 167 
337 708 422 174 122 81 
190 704 459 170 76 19 
278 695 522 44 26 78 
192 367 366 164 131 94 
340 679 386 96 154 198 
304 69 490 131 85 51 
156 426 491 103 104 131 
268 603 525 163 157 159 
158 417 469 113 126 152 
217 819 374 130 105 81 
312 720 387 148 108 118 
261 197 455 115 33 41 
226 588 527 179 176 181 
170 625 428 106 89 116 
259 870 410 171 130 97 
359 635 555 102 120 141 
347 470 525 160 162 171 
262 669 553 84 115 189 
255 862 414 177 137 108 
177 538 470 105 124 145 
304 633 534 18 43 71 
218 128 397 148 126 105 
242 724 506 136 107 76 
301 289 548 138 145 158 
138 668 280 134 96 67 
198 378 515 127 66 59 
369 675 598 116 131 192 
277 851 467 136 99 68 
300 459 556 100 129 170 
237 77 415 88 72 54 
261 583 542 131 147 168 
236 78 415 89 73 55 
176 309 376 127 76 42 
146 659 275 100 88 77 
207 725 267 166 170 195 
237 273 438 107 117 130 
176 509 366 132 144 161 
231 779 307 148 158 190 
345 711 460 71 90 122 
323 725 543 116 94 93 
346 585 416 122 67 77 
231 80 388 117 94 72 
289 602 335 82 120 152 
264 449 545 74 101 142 
279 680 523 122 71 82 
296 864 404 181 135 102 
169 451 506 106 132 159 
140 662 281 127 97 65 
176 423 399 105 119 147 
220 760 463 127 98 84 
164 620 416 177 120 115 
290 366 543 151 152 159 
297 194 530 98 85 105 
357 538 479 171 168 173 
364 605 463 187 189 201 
200 801 377 139 125 115 
239 214 419 132 111 116 
206 654 280 122 143 166 
177 613 465 146 143 149 
177 546 441 90 106 134 
225 695 275 107 127 148 
241 136 388 152 133 116 
228 894 482 169 132 109 
245 766 476 204 154 127 
279 267 469 99 101 107 
301 748 518 174 98 123 
273 769 339 172 52 43 
197 689 265 99 117 160 
355 532 475 163 161 167 
319 433 418 72 98 121 
371 656 570 90 113 137 
262 519 350 59 91 116 
368 651 598 46 59 108 
278 727 515 199 158 107 
354 686 462 164 64 77 
269 144 466 170 72 19 
293 479 555 93 120 151 
143 280 453 94 119 143 
150 321 374 129 78 89 
190 740 329 76 90 119 
368 669 606 192 200 220 
186 814 348 186 64 60 
161 422 423 100 107 122 
258 150 486 108 55 9 
275 677 316 65 106 164 
220 496 533 125 133 149 
220 590 521 76 99 153 
234 513 366 94 104 118 
312 302 484 96 109 123 
309 695 539 119 53 86 
264 971 483 104 83 67 
331 527 536 103 119 157 
261 863 403 174 132 100 
333 421 545 67 100 151 
260 33 361 121 106 91 
213 666 282 97 115 134 
188 752 438 145 106 80 
228 80 396 98 82 66 
277 650 313 80 84 94 
267 119 506 90 81 74 
192 646 374 45 65 98 
181 564 469 84 92 123 
283 671 573 62 111 184 
208 389 499 139 114 88 
301 400 554 78 114 147 
257 664 516 39 90 123 
345 721 562 188 125 125 
275 529 345 103 113 126 
222 918 479 165 128 102 
251 174 428 129 106 95 
271 705 519 160 132 112 
228 83 398 89 76 63 
156 364 415 76 101 142 
229 332 500 61 78 93 
239 163 436 62 49 33 
302 400 405 110 134 159 
171 422 505 138 123 111 
145 276 417 78 116 148 
342 433 534 107 126 155 
269 39 388 145 123 104 
345 658 601 130 103 80 
231 273 470 57 37 39 
225 252 415 82 115 143 
194 826 351 120 118 158 
258 189 453 126 45 38 
275 51 501 91 81 72 
285 888 495 180 134 107 
171 772 313 158 172 191 
256 967 487 96 78 61 
192 639 489 136 97 91 
159 397 394 86 109 141 
184 463 511 79 109 150 
256 665 526 94 126 154 
238 360 414 97 97 100 
176 329 370 175 149 123 
230 87 392 91 79 68 
244 874 499 134 91 76 
251 651 300 99 115 132 
264 596 532 122 137 157 
178 784 365 165 113 93 
228 84 398 86 74 63 
299 881 450 155 119 91 
298 805 384 147 124 108 
214 708 498 158 140 136 
318 651 364 166 153 149 
276 658 312 76 127 166 
182 280 508 100 108 119 
239 852 481 156 121 96 
235 771 466 205 153 128 
173 626 436 139 128 136 
349 500 471 105 122 145 
307 629 540 26 51 83 
224 731 498 197 151 103 
140 314 424 138 139 146 
290 513 353 147 148 155 
160 377 431 58 84 129 
196 689 293 88 106 142 
291 65 503 120 90 65 
229 89 391 103 88 74 
302 229 467 90 109 129 
144 273 412 77 115 147 
257 607 339 87 110 131 
331 539 391 119 141 165 
285 137 520 105 107 113 
297 272 451 145 151 164 
228 759 474 198 145 121 
232 716 277 72 98 144 
200 299 387 156 140 123 
189 391 360 189 158 127 
145 215 479 137 40 62 
209 685 275 119 128 141 
157 589 371 140 106 92 
232 176 442 61 45 35 
164 212 481 69 37 32 
183 637 472 67 58 74 
176 564 480 109 140 170 
256 157 444 101 82 67 
249 205 443 52 29 28 
240 788 322 178 8 41 
231 92 387 112 97 82 
279 820 444 177 130 105 
341 478 446 98 120 153 
221 380 511 150 131 113 
221 605 518 88 115 146 
259 155 437 142 92 39 
296 311 459 117 110 116 
283 252 535 147 145 150 
192 354 372 128 34 24 
178 243 391 88 123 152 
329 274 512 86 119 147 
225 430 520 57 84 117 
325 779 508 209 149 116 
332 795 483 208 135 106 
158 254 495 83 77 80 
189 728 447 127 114 116 
301 378 402 69 107 145 
207 719 348 33 67 99 
282 55 479 127 100 71 
265 60 391 109 93 78 
262 154 465 119 61 26 
202 277 391 141 141 147 
335 795 456 205 147 112 
365 591 454 145 156 172 
273 32 386 133 101 84 
166 619 407 133 83 89 
291 874 483 167 117 100 
250 831 415 182 133 109 
142 295 417 141 139 144 
274 153 520 63 92 115 
230 93 388 108 95 82 
351 516 490 76 110 152 
230 94 388 109 92 76 
165 740 304 95 105 151 
231 745 488 84 133 169 
197 652 369 69 90 121 
296 674 565 127 168 207 
139 239 483 101 87 74 
191 675 371 88 96 122 
265 167 519 103 84 81 
325 606 377 148 147 152 
350 621 510 121 128 138 
268 411 395 50 87 115 
259 956 410 101 78 59 
171 211 387 123 90 81 
186 772 403 176 145 134 
250 711 288 100 127 176 
255 502 549 137 146 162 
227 89 399 87 76 65 
251 934 506 203 162 142 
317 252 494 97 118 140 
317 666 370 67 98 124 
312 769 397 155 134 116 
272 732 334 109 130 167 
165 434 414 95 105 119 
296 677 345 149 150 157 
298 848 398 190 142 113 
208 644 508 153 103 97 
209 212 398 102 98 110 
174 499 508 116 138 172 
322 420 433 48 85 113 
268 434 379 76 99 120 
246 429 533 86 108 131 
167 482 371 103 130 170 
262 669 551 84 118 188 
367 649 481 137 155 181 
227 93 395 91 79 67 
303 551 354 143 147 157 
199 665 508 134 106 74 
288 551 548 172 172 181 
331 359 485 79 100 122 
191 191 477 96 76 79 
195 642 299 17 53 106 
295 392 397 58 100 133 
299 917 484 95 74 57 
333 325 511 148 149 156 
257 666 552 132 157 198 
225 889 477 179 137 112 
270 535 344 121 125 134 
294 693 529 149 77 100 
228 388 507 57 65 73 
154 424 460 108 122 146 
163 742 393 43 60 149 
185 692 378 70 91 124 
203 446 503 122 108 93 
223 907 429 114 63 45 
148 331 451 107 117 146 
226 94 396 87 75 65 
307 928 475 103 84 69 
292 54 490 128 117 109 
226 95 397 84 73 63 
305 911 402 73 51 48 
198 248 394 96 119 143 
181 750 274 80 127 212 
368 650 530 67 96 147 
268 962 492 91 74 62 
287 856 452 160 118 85 
351 667 412 143 165 190 
190 723 317 119 124 135 
195 409 504 108 79 44 
355 557 494 169 167 172 
311 881 440 106 82 63 
140 319 414 105 119 135 
371 669 556 112 135 160 
257 653 300 92 109 127 
346 457 500 63 96 150 
356 621 496 102 119 140 
281 862 392 150 122 98 
256 587 341 115 127 141 
276 250 529 103 61 74 
291 820 445 181 132 106 
315 636 571 93 80 70 
202 336 522 154 147 147 
216 535 523 74 94 140 
342 688 596 136 156 197 
203 657 275 82 114 152 
259 270 501 60 92 116 
222 907 436 98 71 54 
188 404 506 110 89 66 
305 304 538 158 153 155 
289 864 479 159 116 85 
176 535 470 102 123 147 
335 389 537 71 107 144 
222 908 480 147 110 86 
338 708 431 148 123 94 
345 413 504 72 97 136 
320 376 559 59 113 150 
307 653 590 127 99 71 
298 871 438 147 112 78 
169 721 378 107 121 138 
169 517 374 118 136 157 
205 359 376 166 143 117 
169 750 412 198 143 96 
228 956 448 87 69 59 
347 484 510 122 136 155 
172 662 460 119 82 44 
211 457 524 91 111 140 
344 441 531 169 171 179 
288 827 379 160 136 114 
262 219 519 24 58 101 
312 395 559 103 132 160 
180 657 470 169 129 116 
224 340 390 110 57 42 
196 745 271 161 158 210 
365 712 513 161 126 115 
237 478 370 131 131 135 
134 194 463 39 59 76 
308 874 437 112 85 63 
269 330 520 85 104 123 
290 349 541 128 42 73 
164 553 428 152 153 161 
342 462 535 146 151 164 
169 730 262 143 158 213 
162 750 295 103 119 164 
367 707 519 169 100 97 
141 664 296 152 108 81 
235 85 386 128 101 71 
172 456 475 83 105 151 
140 282 392 120 136 156 
183 627 385 139 144 173 
262 385 412 64 92 118 
265 42 385 141 112 91 
325 757 415 172 141 108 
341 488 438 83 112 148 
270 152 470 155 68 16 
332 735 425 146 139 137 
211 164 453 62 57 52 
191 668 286 81 109 136 
232 274 469 60 50 49 
318 721 365 170 185 206 
189 817 332 164 25 20 
153 266 483 105 61 62 
248 584 348 90 113 135 
230 945 427 117 99 81 
252 698 510 85 98 131 
229 750 289 55 104 186 
201 335 380 166 144 121 
220 915 456 93 75 61 
178 784 370 160 131 130 
228 270 476 60 28 36 
289 514 352 159 155 158 
278 290 528 128 129 136 
280 985 408 99 68 48 
200 705 356 48 44 94 
272 681 518 137 85 94 
318 413 432 53 80 103 
299 896 473 158 117 91 
244 406 400 26 66 93 
327 317 516 133 134 140 
169 432 390 107 122 145 
340 464 446 152 157 168 
152 424 441 124 133 147 
165 452 487 84 98 123 
322 493 389 86 103 122 
322 745 407 116 102 90 
140 319 419 89 111 134 
289 273 464 118 117 120 
183 688 380 82 98 132 
313 931 469 88 71 56 
253 843 401 194 144 116 
191 621 341 44 99 145 
227 940 426 93 74 63 
280 837 377 190 140 106 
320 363 557 80 107 143 
196 562 359 60 73 85 
269 33 489 104 90 78 
271 115 477 107 86 63 
220 466 363 93 114 139 
225 593 366 42 55 66 
268 463 364 47 83 119 
235 90 384 124 101 75 
259 996 446 117 85 43 
173 393 361 155 73 0 
216 828 365 179 158 141 
231 347 400 138 121 104 
159 470 447 180 170 168 
289 696 341 66 87 110 
154 636 295 103 92 82 
233 93 385 112 92 68 
204 369 371 164 141 118 
338 560 407 171 167 169 
329 676 374 164 165 175 
218 215 466 43 50 57 
232 95 385 121 98 72 
181 760 335 136 141 152 
212 253 492 90 76 74 
184 256 390 149 146 149 
366 594 467 111 102 116 
234 189 447 62 41 34 
176 282 511 144 145 152 
144 304 393 105 118 134 
163 610 384 167 112 103 
272 86 384 122 98 76 
234 733 502 145 144 149 
160 412 389 143 144 151 
316 303 493 104 114 127 
188 678 375 110 116 126 
258 33 406 113 91 71 
194 557 359 62 80 95 
140 651 300 144 103 76 
321 352 546 106 120 138 
260 162 486 95 33 27 
260 287 511 127 125 130 
210 689 506 152 75 40 
188 706 302 97 107 125 
227 87 400 86 74 63 
268 77 503 97 80 64 
227 87 402 89 76 63 
209 644 511 152 104 94 
284 531 346 98 115 134 
265 293 458 94 108 124 
184 590 488 98 119 179 
319 193 525 127 109 99 
207 689 486 75 85 106 
229 81 401 90 75 61 
329 730 546 122 111 121 
352 622 511 133 137 145 
212 442 361 106 119 135 
268 935 505 191 143 115 
293 973 450 84 65 45 
282 833 445 163 117 83 
200 234 395 111 92 104 
212 692 317 140 149 164 
182 799 353 151 38 61 
180 769 366 115 104 105 
339 637 572 67 73 82 
195 663 488 170 92 81 
300 790 477 193 142 114 
229 82 403 90 76 63 
139 233 402 132 131 136 
152 412 459 144 142 148 
229 807 416 186 130 112 
173 443 485 54 64 114 
263 40 405 110 84 59 
159 480 437 92 100 156 
341 513 426 150 158 172 
253 917 400 78 58 49 
273 626 526 61 75 88 
178 741 437 106 89 87 
165 401 397 112 125 147 
202 530 518 153 163 179 
295 322 452 115 128 144 
160 517 412 164 165 174 
308 923 407 95 75 54 
368 646 484 145 157 176 
267 349 433 123 121 123 
365 721 533 164 78 83 
195 352 516 123 101 79 
155 198 471 39 29 38 
284 312 533 108 32 39 
292 597 520 95 126 163 
211 618 341 49 89 128 
312 302 529 142 139 141 
240 817 419 175 118 100 
249 575 351 121 117 118 
318 792 406 96 119 140 
247 648 302 85 110 131 
308 768 388 142 122 103 
330 482 407 49 91 124 
292 661 581 127 144 198 
332 483 412 11 72 114 
174 770 297 157 168 199 
236 348 410 155 133 112 
216 780 436 138 129 124 
338 703 573 169 58 66 
176 489 382 65 90 129 
137 211 389 123 45 67 
145 329 431 117 132 151 
202 223 482 77 61 61 
171 490 379 68 85 132 
174 541 482 97 118 151 
348 503 458 108 132 158 
152 717 286 128 144 176 
276 849 480 138 101 70 
293 108 487 112 94 75 
272 34 400 135 111 87 
196 774 422 169 149 134 
347 456 521 177 172 176 
314 594 513 169 166 171 
306 731 377 109 119 131 
139 274 389 140 146 158 
251 222 450 47 40 56 
284 643 328 152 155 165 
209 685 302 107 123 156 
296 780 377 183 170 163 
234 322 472 83 74 78 
189 253 508 103 81 72 
146 240 425 117 125 138 
363 577 469 82 127 162 
209 360 503 124 85 69 
132 225 467 105 57 50 
230 82 409 92 76 60 
301 747 372 154 46 59 
177 660 464 187 139 76 
142 305 446 127 128 135 
292 675 344 151 153 162 
216 627 327 16 71 122 
310 944 464 125 105 90 
176 236 493 47 42 47 
301 355 417 174 175 184 
249 969 408 122 97 72 
174 168 482 127 59 0 
252 131 492 91 82 77 
188 740 366 97 120 143 
262 188 475 81 34 35 
218 531 524 93 113 141 
224 929 485 180 139 113 
334 770 428 140 140 147 
147 206 407 109 49 76 
351 660 407 90 130 174 
205 434 527 124 110 99 
166 746 382 161 27 39 
229 87 410 90 75 60 
230 84 408 92 76 61 
259 776 333 168 46 69 
230 85 409 92 76 60 
244 479 543 124 133 147 
319 139 500 108 74 69 
138 196 390 83 98 117 
211 721 490 142 123 107 
308 930 411 98 72 54 
342 750 534 195 148 83 
292 988 413 166 131 98 
338 640 564 59 72 87 
330 671 598 104 128 180 
327 467 551 155 159 171 
231 84 412 92 76 61 
220 358 382 135 125 117 
325 702 558 140 47 61 
317 227 495 140 138 143 
273 462 365 102 114 128 
356 738 539 120 99 88 
353 625 519 83 105 128 
146 335 387 172 147 122 
302 161 475 92 48 55 
227 88 400 86 75 64 
295 328 443 151 83 104 
276 85 478 127 100 69 
322 684 558 139 56 63 
312 602 358 108 132 159 
204 485 351 76 105 136 
266 303 516 92 109 128 
226 90 401 88 75 64 
272 111 505 99 83 68 
263 738 328 160 164 178 
351 757 492 160 148 142 
309 784 498 194 147 118 
140 302 433 142 139 141 
226 91 403 90 77 63 
158 425 496 130 78 49 
324 428 429 53 88 114 
179 557 447 141 146 157 
229 210 410 121 113 123 
295 353 423 127 135 148 
310 578 525 134 149 169 
311 577 358 103 126 152 
249 643 554 175 128 110 
161 740 395 82 84 117 
329 691 372 132 121 120 
323 358 544 73 100 125 
307 606 537 76 98 120 
203 431 502 100 87 80 
193 625 340 45 98 136 
298 310 466 105 107 114 
274 617 514 58 61 70 
325 565 382 167 167 175 
227 91 406 90 76 63 
304 902 468 118 81 57 
184 579 497 25 59 90 
178 447 393 71 84 114 
212 697 498 123 99 70 
239 224 423 158 102 79 
302 225 527 114 118 132 
301 977 442 129 99 73 
239 666 533 98 132 165 
221 495 362 154 152 157 
237 947 489 126 97 83 
308 794 482 198 147 117 
236 569 540 113 131 162 
272 367 420 80 95 110 
332 311 501 134 136 143 
223 528 533 76 102 155 
309 605 527 76 97 118 
332 454 424 55 93 123 
154 425 376 99 115 137 
300 778 381 138 119 100 
303 898 459 174 121 106 
195 732 360 108 117 130 
249 976 406 134 98 61 
300 572 534 105 113 158 
237 297 433 78 104 128 
159 431 488 115 123 137 
312 589 358 138 146 159 
306 769 387 126 118 116 
193 181 387 157 48 64 
271 824 357 195 143 86 
145 237 416 130 121 114 
230 227 460 47 24 25 
164 755 294 105 121 172 
183 546 462 173 164 162 
177 437 394 102 117 145 
169 765 308 111 121 166 
265 173 465 104 50 59 
321 293 499 130 135 144 
304 289 474 109 122 137 
238 335 419 110 117 126 
275 884 396 110 83 57 
283 977 406 156 121 83 
164 720 432 123 151 177 
254 469 372 99 119 139 
226 356 500 45 55 65 
253 972 466 145 112 81 
251 812 335 67 76 89 
308 195 529 151 113 88 
346 631 400 152 152 158 
266 256 469 133 52 6 
252 196 443 57 33 32 
229 900 426 154 93 72 
224 672 285 26 55 104 
300 483 367 78 100 124 
236 395 394 119 109 102 
154 443 375 103 125 150 
339 784 448 178 126 93 
211 676 279 100 117 139 
199 652 277 93 112 132 
208 789 304 163 166 213 
145 203 432 100 29 46 
301 644 581 122 98 72 
284 236 472 95 74 87 
238 598 362 51 67 81 
336 427 540 87 111 153 
272 839 450 151 108 79 
267 171 470 106 53 50 
260 751 328 109 134 169 
261 733 507 204 188 178 
286 927 400 71 51 33 
270 995 433 113 91 69 
342 404 523 71 104 142 
246 917 402 123 100 80 
265 849 490 161 123 97 
234 376 397 125 81 23 
229 91 413 90 75 61 
216 503 527 86 104 143 
158 454 455 144 144 156 
287 411 393 109 121 135 
197 543 354 91 103 117 
150 332 374 161 134 101 
318 911 468 120 98 82 
363 624 480 63 102 141 
213 654 518 100 113 150 
203 620 327 74 115 156 
301 511 360 142 145 153 
151 263 500 60 76 90 
171 505 486 139 146 160 
339 594 397 105 124 144 
219 612 376 66 60 56 
173 677 253 69 79 89 
369 706 537 180 54 76 
191 747 364 104 116 131 
295 832 389 178 134 103 
223 156 438 62 53 44 
256 972 405 131 97 62 
186 769 408 149 124 119 
337 594 396 113 130 150 
336 694 588 174 195 222 
228 94 410 88 74 60 
253 330 440 112 111 112 
228 95 410 88 74 60 
346 520 509 108 129 163 
165 622 427 184 134 125 
278 715 335 136 151 174 
277 86 479 128 102 72 
295 291 547 119 137 160 
275 554 548 163 173 190 
247 534 350 120 127 139 
198 486 351 76 106 134 
274 754 339 130 131 137 
194 822 358 131 115 108 
265 67 383 103 86 69 
186 671 260 79 103 124 
175 641 460 44 59 77 
314 600 510 150 156 170 
230 93 414 89 74 59 
230 93 415 89 74 58 
290 268 464 95 101 111 
254 523 350 100 117 136 
264 192 459 108 40 48 
201 638 294 89 117 142 
186 744 330 100 108 124 
172 450 478 98 111 139 
156 463 424 155 151 155 
195 680 263 130 141 158 
232 80 412 93 77 61 
238 640 547 176 124 108 
307 639 538 61 71 84 
211 750 461 160 144 133 
175 267 386 150 148 152 
172 528 485 92 118 153 
194 215 489 74 87 102 
301 356 446 98 109 123 
293 870 478 168 127 94 
294 900 486 176 129 103 
158 461 418 101 116 136 
205 702 314 95 108 147 
234 80 414 92 75 57 
329 607 381 150 148 153 
342 759 449 137 127 123 
318 797 408 158 126 96 
255 638 558 132 102 79 
259 248 514 79 67 88 
165 488 401 123 129 144 
208 797 403 172 134 98 
170 389 363 155 65 0 
303 434 380 150 155 165 
254 308 502 95 101 113 
333 608 487 60 81 100 
229 907 417 107 74 57 
233 84 414 90 74 58 
262 258 490 56 70 81 
367 666 508 132 145 165 
256 872 415 168 128 98 
162 462 372 114 133 157 
262 423 392 36 85 121 
233 813 326 178 1 51 
180 787 363 117 51 46 
189 548 511 113 125 144 
252 589 538 142 160 185 
198 254 504 131 98 85 
332 395 461 78 96 113 
196 794 379 140 127 119 
331 744 428 147 128 112 
234 87 415 90 74 57 
287 910 396 70 53 39 
175 328 513 146 98 77 
255 671 294 86 117 147 
245 878 428 126 97 71 
279 227 534 106 68 85 
182 243 496 45 31 42 
253 180 431 123 110 104 
345 619 535 16 55 95 
145 701 285 78 95 136 
282 341 533 99 113 134 
174 544 477 109 137 164 
335 642 546 65 77 91 
215 554 521 112 131 154 
241 64 413 86 70 51 
265 390 408 56 87 115 
275 667 543 122 145 171 
169 610 458 102 125 149 
365 695 582 121 143 183 
343 416 530 81 103 144 
259 434 387 63 96 123 
223 301 404 127 129 135 
174 699 247 142 156 186 
265 179 465 92 61 82 
188 538 511 130 151 176 
239 474 541 152 152 160 
231 310 414 112 115 121 
217 676 337 123 132 153 
231 914 408 127 100 77 
243 67 414 87 70 52 
233 232 458 46 24 25 
240 68 413 87 71 52 
221 606 517 97 120 151 
327 542 383 157 157 163 
312 429 410 107 119 134 
312 409 425 33 72 101 
209 655 302 101 118 163 
252 761 482 204 153 122 
226 940 430 84 69 60 
298 844 396 202 154 122 
349 567 427 176 175 181 
247 681 513 107 52 70 
229 197 407 166 73 76 
228 150 392 161 119 100 
224 937 435 104 88 74 
202 198 464 69 54 47 
285 402 547 52 91 140 
197 303 385 129 3 46 
197 512 517 119 139 167 
318 910 440 82 69 57 
208 625 319 82 120 163 
304 184 473 47 48 73 
292 565 541 121 133 161 
180 789 348 150 23 36 
173 312 375 146 114 89 
236 297 466 78 43 19 
300 435 555 109 135 174 
358 734 510 133 115 100 
228 619 377 77 71 68 
261 370 525 144 109 70 
337 432 540 145 151 164 
216 382 520 163 141 121 
309 123 478 176 77 9 
223 601 370 49 65 79 
263 218 488 64 28 42 
193 475 503 27 48 73 
246 66 414 89 72 54 
225 457 368 65 92 116 
250 344 510 88 103 120 
325 746 413 178 164 156 
238 902 494 77 55 46 
197 232 394 86 108 125 
252 438 393 72 91 109 
351 658 398 94 134 168 
301 688 534 158 105 92 
193 751 353 104 116 132 
146 684 294 161 106 86 
244 71 415 87 70 53 
290 71 475 159 109 91 
307 950 429 107 86 65 
260 605 338 92 113 133 
250 438 537 131 136 147 
208 627 522 146 109 97 
153 718 287 134 153 175 
157 740 287 125 130 169 
246 70 415 88 71 53 
246 71 415 88 71 52 
188 544 358 18 66 109 
361 642 448 111 132 162 
340 521 416 126 146 168 
253 383 524 126 128 136 
242 644 308 93 114 135 
145 228 470 115 67 51 
233 135 385 146 129 115 
271 565 340 96 81 71 
318 484 553 174 173 181 
263 275 516 59 90 115 
295 651 344 86 134 171 
200 158 449 56 58 63 
248 341 505 123 123 128 
349 614 488 126 130 139 
345 614 495 87 105 125 
201 427 504 112 69 47 
169 483 455 75 93 153 
174 751 323 61 87 140 
278 799 353 164 122 76 
347 623 550 113 126 142 
229 932 417 104 82 64 
351 762 503 180 151 129 
238 617 521 43 59 76 
172 489 484 88 102 138 
368 700 568 179 184 197 
297 635 556 80 75 72 
270 426 544 107 126 146 
157 373 407 90 112 145 
279 736 513 136 134 138 
211 828 336 204 157 169 
155 455 448 176 166 164 
343 466 464 162 166 176 
236 227 453 44 26 26 
346 491 468 153 159 171 
287 262 541 134 143 157 
344 742 455 119 99 80 
338 423 537 150 156 169 
248 64 413 95 77 58 
257 116 381 186 127 108 
346 901 443 119 98 86 
295 271 444 111 138 165 
345 441 488 109 126 154 
316 677 552 118 155 189 
249 66 413 94 75 56 
261 820 438 175 121 100 
213 176 396 69 51 82 
291 295 538 146 149 159 
332 302 510 162 159 163 
206 635 342 69 124 163 
318 476 554 150 162 180 
266 994 427 105 71 49 
218 726 272 167 175 194 
251 65 412 98 78 56 
276 51 501 113 104 98 
280 870 394 131 107 85 
202 690 270 129 136 149 
154 388 473 93 104 139 
196 625 507 172 121 115 
181 453 511 54 86 143 
182 802 323 166 191 219 
261 844 381 221 163 125 
247 819 337 124 119 121 
259 833 361 234 207 189 
207 759 284 153 148 207 
222 205 461 43 53 63 
176 422 399 99 112 146 
197 226 394 130 80 97 
307 509 367 66 98 124 
181 591 482 162 169 183 
229 934 494 196 148 125 
171 676 406 63 80 101 
260 952 409 114 80 57 
334 528 531 132 132 156 
300 769 379 143 114 81 
284 916 396 69 53 43 
184 742 329 63 84 118 
330 304 501 138 138 142 
258 289 499 100 99 103 
361 680 492 164 147 158 
275 365 423 91 103 117 
251 524 549 148 157 172 
174 642 409 83 100 132 
292 870 462 140 107 78 
216 293 504 138 138 144 
255 64 410 101 80 58 
233 714 278 65 90 147 
305 978 430 155 129 106 
337 674 380 112 133 156 
163 583 399 91 83 76 
248 742 302 139 140 166 
187 619 338 96 117 150 
167 253 501 71 101 126 
299 369 408 53 106 145 
319 448 409 81 101 121 
296 637 547 41 49 59 
252 66 412 96 76 55 
238 666 533 104 136 169 
219 918 447 75 61 50 
252 842 414 182 139 109 
186 519 511 74 109 166 
241 555 352 147 147 154 
271 393 402 65 89 110 
245 549 350 107 124 144 
196 691 366 69 86 112 
293 456 370 144 145 151 
167 630 416 138 91 79 
314 918 427 89 73 61 
266 740 331 87 113 169 
358 634 556 95 115 136 
289 707 342 120 127 140 
272 753 498 160 119 91 
255 492 358 133 135 143 
312 639 550 64 70 79 
320 294 499 139 139 143 
226 812 323 138 41 82 
315 334 545 125 124 127 
265 26 368 121 104 88 
300 232 453 87 126 156 
353 577 437 81 119 149 
225 259 477 44 59 72 
348 507 504 109 129 154 
211 693 317 132 145 163 
254 69 412 102 82 59 
263 139 464 120 104 93 
255 150 499 99 86 82 
264 642 308 82 103 122 
301 985 434 128 94 69 
178 690 387 143 139 141 
162 255 385 83 114 141 
278 648 573 139 105 81 
335 433 441 135 141 151 
263 587 540 106 127 155 
260 201 513 88 34 46 
306 737 526 197 152 92 
262 184 516 123 44 36 
148 633 308 120 93 61 
250 73 414 99 79 58 
248 796 451 178 127 108 
287 128 480 92 79 68 
197 809 318 228 69 82 
167 661 430 95 91 91 
256 127 409 110 87 62 
190 523 513 109 131 167 
256 474 366 124 133 146 
210 682 512 170 91 33 
299 750 516 156 160 169 
139 695 271 150 106 78 
360 682 486 82 68 90 
262 740 504 174 170 173 
224 765 461 200 148 121 
219 445 364 127 137 153 
226 875 467 155 111 87 
320 267 519 102 119 139 
348 534 507 135 149 168 
140 295 432 88 79 87 
254 742 500 149 145 148 
215 818 326 157 4 50 
302 343 455 121 125 134 
190 526 355 32 93 142 
277 244 530 102 87 103 
278 312 528 141 77 90 
251 822 425 163 113 90 
318 173 525 119 85 97 
325 485 398 76 104 131 
337 612 502 52 79 101 
342 440 534 111 130 153 
188 773 403 175 146 127 
174 515 470 104 115 144 
187 798 314 181 197 217 
162 332 509 145 0 62 
160 477 442 102 118 153 
255 74 409 120 95 76 
255 75 409 122 96 77 
226 647 313 26 94 139 
254 967 486 92 75 63 
202 675 507 202 163 119 
233 645 312 117 130 146 
205 597 508 110 136 171 
243 418 529 72 103 131 
222 217 464 33 32 35 
314 567 362 116 134 154 
218 633 318 48 99 148 
348 494 480 139 146 160 
270 918 394 79 60 44 
252 471 378 98 113 130 
233 344 477 65 70 77 
275 310 525 129 53 74 
137 225 386 100 109 128 
295 669 345 172 164 162 
297 441 375 101 118 136 
371 674 545 89 115 161 
349 500 473 139 149 165 
253 78 411 119 94 75 
203 600 505 93 109 155 
252 317 501 108 113 122 
160 480 438 98 108 153 
230 375 489 66 70 76 
336 768 432 106 117 131 
210 825 332 240 193 114 
303 193 531 126 90 96 
254 77 410 120 92 74 
159 288 503 121 123 130 
279 783 343 142 26 59 
345 669 403 125 153 182 
192 654 283 100 80 74 
230 481 367 148 145 149 
158 596 394 161 108 100 
255 78 409 122 94 75 
146 226 433 138 60 10 
181 603 472 101 120 142 
241 718 283 75 106 144 
179 696 453 155 82 21 
327 587 383 144 153 169 
168 728 432 164 93 91 
169 462 368 86 110 145 
261 288 481 108 109 114 
292 55 501 91 82 72 
340 385 484 92 120 145 
203 436 357 59 91 126 
148 259 473 71 112 143 
328 803 434 195 139 107 
220 913 441 87 71 60 
176 788 337 75 119 160 
325 808 429 189 135 104 
278 600 522 122 140 162 
197 714 315 128 136 150 
230 937 418 115 95 76 
355 629 578 117 130 147 
306 904 470 96 72 52 
267 813 347 145 138 138 
331 302 511 138 139 145 
249 645 550 141 100 83 
230 179 450 67 36 17 
296 760 505 176 130 100 
275 528 346 83 104 124 
194 521 514 72 93 142 
163 550 384 79 99 128 
317 390 559 129 147 170 
343 696 435 167 51 67 
193 658 504 114 92 68 
184 594 486 102 125 167 
265 841 449 126 93 67 
251 261 466 89 39 42 
134 240 479 158 119 121 
144 700 282 168 122 96 
168 510 426 156 156 163 
151 259 479 67 107 137 
171 486 457 95 107 146 
235 318 478 76 78 85 
167 481 370 142 152 172 
276 691 329 112 144 176 
265 251 480 107 32 22 
248 83 415 96 78 58 
249 82 414 101 82 61 
226 244 415 106 113 130 
193 670 475 166 83 54 
285 843 386 198 147 114 
322 741 403 155 128 104 
207 380 370 160 140 120 
254 914 402 69 56 49 
142 261 456 71 79 89 
333 567 397 169 171 180 
294 812 451 209 156 129 
254 845 442 150 117 88 
216 671 348 63 107 140 
167 465 370 126 140 162 
147 385 395 106 112 132 
142 681 261 145 105 79 
353 594 427 86 110 132 
193 137 443 86 74 62 
210 139 421 109 82 61 
142 697 282 176 119 96 
283 277 531 137 138 145 
153 334 486 165 120 64 
261 176 514 118 60 60 
238 636 322 106 123 142 
354 707 484 60 47 80 
346 539 510 90 114 149 
163 201 475 83 46 31 
292 823 381 192 163 137 
289 136 471 98 79 56 
183 730 321 38 67 114 
367 703 518 164 133 108 
265 58 347 154 137 125 
261 163 442 74 75 92 
272 561 547 114 131 165 
304 900 459 172 128 115 
190 598 365 85 79 74 
348 488 483 121 140 163 
204 240 396 84 105 126 
265 626 317 107 112 120 
210 645 511 153 104 95 
254 154 422 153 77 8 
251 666 520 69 104 132 
322 801 473 208 148 119 
177 572 458 104 125 148 
252 847 427 168 125 97 
357 734 541 87 106 124 
295 87 494 103 80 66 
308 388 437 69 91 113 
306 865 424 120 86 63 
344 421 501 94 119 155 
162 636 329 148 101 87 
336 501 538 108 118 155 
188 739 328 109 120 134 
192 764 285 155 168 221 
173 472 468 150 150 158 
183 763 337 131 139 153 
314 163 488 69 41 47 
351 624 533 24 60 97 
296 334 435 157 82 108 
317 729 536 168 147 132 
274 970 402 97 76 56 
299 281 547 106 92 93 
277 154 522 65 94 118 
316 676 367 123 130 141 
180 309 378 171 147 121 
251 859 425 159 122 92 
252 87 411 101 82 60 
248 991 434 172 151 136 
216 554 523 115 134 158 
276 545 341 163 161 167 
145 340 415 142 125 108 
184 290 511 86 102 119 
192 680 469 157 95 46 
193 392 361 180 152 123 
260 799 455 183 134 116 
150 336 445 130 139 152 
259 853 492 151 117 96 
283 793 466 194 144 121 
205 674 511 175 109 42 
276 286 462 126 122 122 
163 435 418 93 104 119 
215 610 375 61 67 74 
244 791 452 180 131 111 
156 370 496 165 145 127 
314 637 563 83 76 72 
173 456 363 73 104 143 
265 413 396 58 99 129 
344 417 500 117 130 151 
159 367 504 123 131 145 
196 487 516 43 68 127 
203 252 497 100 98 101 
225 277 485 98 96 96 
324 355 481 74 94 114 
301 943 476 83 65 52 
261 95 475 104 81 56 
321 224 511 139 135 136 
366 654 476 111 121 141 
309 546 544 120 137 163 
178 524 504 108 131 168 
274 325 524 104 98 108 
267 198 460 94 33 43 
250 88 414 99 81 62 
189 394 506 113 94 74 
194 352 374 125 54 42 
239 670 522 132 157 184 
274 629 555 91 82 76 
218 240 478 79 44 38 
194 624 319 64 92 114 
335 411 455 80 96 114 
341 634 553 66 78 91 
158 369 435 69 100 134 
240 575 359 94 106 122 
292 503 357 107 122 139 
327 807 438 202 145 114 
195 697 468 83 99 122 
263 926 508 182 138 113 
277 507 353 141 141 147 
175 661 398 168 160 159 
341 697 428 139 37 78 
284 141 522 97 89 89 
217 233 474 77 41 36 
253 977 432 90 69 52 
317 681 590 125 134 177 
277 154 475 112 110 109 
294 142 528 122 78 74 
246 246 443 100 68 78 
242 298 441 77 102 126 
348 493 497 162 165 177 
263 842 482 123 89 59 
312 506 553 105 124 171 
164 563 382 61 85 106 
153 348 371 131 131 138 
286 812 452 186 132 110 
243 604 527 146 144 148 
164 702 396 106 114 126 
143 681 293 164 111 87 
223 811 322 85 79 132 
196 795 377 82 46 46 
221 920 474 160 124 97 
195 188 392 126 42 57 
305 639 544 59 68 79 
144 231 460 67 60 76 
178 685 290 54 77 122 
373 680 554 120 134 159 
155 298 492 150 110 55 
205 660 292 68 102 128 
162 292 515 154 153 160 
176 299 378 130 27 49 
236 180 403 120 94 121 
152 348 474 90 105 122 
312 892 456 162 105 83 
313 743 527 151 129 111 
157 302 496 158 114 53 
166 465 487 76 107 137 
281 662 535 106 136 165 
343 725 456 139 130 127 
260 720 309 115 127 175 
342 435 477 167 168 177 
318 588 368 108 129 153 
261 633 313 29 54 88 
243 691 284 110 134 164 
157 723 412 100 98 112 
156 713 256 116 154 197 
253 92 410 101 80 56 
225 898 446 124 89 69 
299 283 441 142 155 172 
353 575 438 87 124 154 
253 94 411 101 80 58 
234 636 323 111 130 150 
294 978 409 167 131 94 
306 422 403 69 94 121 
183 670 262 44 96 129 
269 485 359 125 129 139 
163 582 399 82 79 77 
139 262 385 140 148 162 
231 822 331 156 136 127 
211 130 404 104 91 78 
340 443 537 142 154 171 
344 638 556 64 79 94 
242 631 324 38 83 117 
178 569 375 69 82 96 
166 511 391 110 119 146 
254 94 411 102 81 58 
170 701 392 94 100 109 
307 889 462 168 121 94 
344 618 531 22 64 105 
316 144 519 113 89 79 
296 561 542 128 134 160 
267 57 346 150 134 123 
198 798 377 134 117 111 
235 347 478 62 69 78 
269 34 484 99 89 79 
273 584 536 136 137 146 
355 680 600 99 134 216 
163 435 500 85 107 143 
338 616 557 106 118 133 
245 611 356 26 57 77 
315 114 501 114 104 95 
251 448 390 87 99 112 
333 518 537 116 125 154 
185 369 364 178 149 120 
231 94 416 89 73 57 
235 349 406 153 132 110 
266 66 392 110 93 77 
158 409 390 81 97 137 
259 842 485 122 88 64 
181 634 465 69 105 133 
327 569 385 165 165 172 
183 697 293 110 121 136 
205 293 513 128 129 135 
156 243 385 84 118 147 
196 202 393 53 45 55 
236 80 416 89 72 54 
263 232 476 66 34 60 
296 335 436 156 80 108 
309 674 360 68 124 165 
180 729 369 113 124 138 
206 643 313 90 107 155 
161 374 503 199 168 137 
193 697 369 10 49 86 
343 522 427 120 141 166 
337 590 396 100 127 156 
182 800 355 164 76 81 
164 514 417 99 117 141 
290 351 429 91 105 126 
245 623 528 89 78 70 
295 186 457 57 43 43 
196 420 358 118 106 94 
319 791 495 206 148 121 
296 889 476 160 113 83 
173 636 445 149 155 167 
241 835 361 202 173 147 
316 791 403 102 91 85 
239 557 544 135 147 168 
270 16 414 146 132 126 
339 640 554 33 62 83 
280 665 575 106 142 178 
165 479 380 155 156 165 
302 952 471 85 68 52 
236 526 364 66 88 108 
293 218 453 104 38 49 
209 163 391 115 80 79 
214 492 356 160 157 162 
315 638 534 53 67 81 
309 433 399 59 89 119 
245 332 434 123 121 123 
187 182 483 111 56 24 
328 798 420 175 130 96 
158 730 396 174 83 92 
179 147 468 117 69 15 
240 513 546 108 121 149 
307 293 531 93 101 119 
168 733 311 113 132 153 
262 874 408 158 118 86 
159 710 398 114 132 152 
319 232 524 167 71 3 
149 240 385 88 116 141 
168 396 408 59 83 134 
283 196 531 57 76 98 
319 139 501 106 70 61 
267 693 517 113 105 101 
217 358 380 115 122 132 
338 378 525 104 122 145 
323 386 457 87 105 125 
166 652 458 81 87 95 
189 311 515 76 54 59 
183 506 513 82 110 160 
228 896 483 157 125 104 
164 423 500 141 22 73 
319 139 510 110 81 62 
159 295 502 93 69 73 
233 93 417 88 72 56 
211 649 347 24 53 117 
238 883 437 100 71 34 
284 622 327 152 153 160 
168 245 388 81 116 145 
198 175 389 172 81 76 
233 95 418 87 71 55 
252 838 373 135 146 160 
254 975 433 97 74 56 
304 874 432 110 83 58 
198 140 438 83 58 28 
305 831 400 185 140 110 
307 150 482 41 66 107 
362 656 459 182 182 192 
157 471 443 154 151 158 
337 346 497 137 141 151 
260 111 477 105 82 56 
158 250 384 86 123 154 
259 339 516 142 108 64 
345 770 467 161 136 112 
316 733 388 159 126 80 
206 807 377 162 135 107 
342 458 460 125 138 156 
338 710 435 52 55 88 
270 105 477 121 95 66 
178 483 512 85 110 151 
229 696 513 107 78 80 
288 664 527 30 78 109 
216 598 515 86 125 163 
248 475 381 113 116 124 
241 646 539 102 71 69 
205 283 510 84 103 121 
274 637 314 101 113 127 
208 625 520 131 104 88 
340 393 477 112 124 139 
193 751 275 115 141 214 
247 935 404 73 59 46 
297 401 552 40 85 140 
291 143 465 83 43 28 
305 885 456 108 79 58 
284 167 474 125 25 31 
326 558 381 118 141 168 
298 263 451 166 167 175 
257 591 341 114 126 142 
228 290 414 82 86 97 
329 646 382 72 106 136 
349 642 564 48 67 91 
344 440 497 131 143 161 
238 92 419 85 69 53 
316 526 547 131 137 164 
181 788 359 98 36 67 
357 577 444 86 125 157 
173 519 490 94 108 165 
165 644 317 138 98 85 
256 203 505 83 28 37 
213 615 366 85 75 67 
239 95 419 83 67 50 
310 934 416 88 68 61 
320 634 366 79 116 146 
237 929 502 189 147 125 
272 12 398 123 110 102 
339 388 526 68 99 143 
271 95 370 162 114 76 
318 188 500 145 85 59 
261 659 299 111 125 142 
342 680 403 161 175 195 
292 770 369 117 120 126 
366 650 549 109 130 154 
184 192 491 100 95 96 
232 289 472 78 41 16 
349 714 569 163 72 90 
310 529 366 107 124 143 
323 609 548 7 51 85 
267 694 518 88 82 82 
351 548 503 113 133 157 
252 612 341 89 111 132 
242 79 416 86 70 52 
271 263 469 124 58 18 
260 409 536 44 84 121 
141 294 434 78 116 145 
288 269 467 117 117 122 
315 434 412 98 113 129 
301 226 456 147 147 152 
156 450 374 85 106 135 
336 638 545 73 82 93 
169 609 444 136 101 106 
216 682 329 107 126 151 
250 542 348 125 131 141 
217 427 520 96 88 82 
354 685 465 177 39 63 
296 330 428 143 111 90 
245 77 416 89 72 54 
258 10 417 126 113 107 
332 388 544 81 107 142 
161 606 380 159 111 98 
262 868 404 165 123 92 
188 707 367 78 87 96 
246 77 416 90 73 55 
181 576 369 66 78 91 
180 504 361 54 86 136 
324 630 555 48 63 78 
257 247 502 106 54 72 
202 556 512 93 113 145 
287 619 533 63 88 115 
245 169 434 57 50 44 
227 881 450 148 111 83 
256 974 404 136 96 62 
265 549 343 120 122 126 
245 625 544 100 89 81 
269 428 382 73 98 121 
298 271 537 100 114 139 
324 671 597 124 131 177 
343 619 562 92 110 128 
282 755 342 160 167 181 
275 255 528 107 90 93 
263 186 483 45 29 33 
177 461 391 79 91 112 
308 608 354 128 139 155 
361 639 450 129 146 168 
232 784 450 192 140 119 
368 658 520 76 97 117 
181 587 486 94 121 174 
341 785 470 198 136 103 
204 673 496 159 132 103 
250 535 349 86 107 129 
209 650 313 76 102 155 
366 719 535 169 44 56 
321 726 540 91 90 100 
142 351 393 129 117 113 
242 85 417 85 69 51 
363 669 473 170 181 199 
322 720 543 105 96 90 
138 684 270 142 103 78 
167 749 407 180 62 86 
162 284 380 153 152 157 
244 307 470 88 76 80 
273 923 505 175 133 102 
187 748 367 85 107 129 
172 267 505 110 96 92 
163 351 508 113 120 141 
274 318 449 68 76 84 
263 314 514 110 118 130 
206 690 357 68 88 117 
228 642 323 66 110 142 
218 834 351 182 158 141 
237 444 377 93 110 130 
145 325 394 172 148 126 
143 206 476 80 37 40 
217 619 511 61 57 56 
346 708 464 75 83 94 
311 685 582 159 188 218 
204 661 509 139 118 122 
291 771 490 191 143 111 
154 397 468 136 145 159 
277 346 436 97 104 113 
254 842 480 116 84 60 
292 720 522 185 169 161 
327 737 540 132 115 99 
147 321 379 140 30 58 
208 676 275 119 134 153 
350 677 434 173 8 42 
342 731 455 150 137 129 
168 412 363 148 129 110 
159 711 415 114 141 167 
263 827 440 170 122 98 
223 786 306 148 170 198 
162 647 294 105 93 83 
340 436 459 114 133 156 
183 523 507 140 154 176 
337 666 382 156 158 167 
190 557 509 55 78 140 
174 494 377 74 98 125 
179 297 512 92 123 151 
179 476 358 81 108 143 
259 277 507 107 97 100 
165 267 503 70 98 121 
172 446 506 49 83 142 
144 215 404 125 36 69 
236 301 431 83 93 106 
266 222 473 42 64 97 
168 208 387 123 80 70 
240 189 410 123 109 112 
205 443 527 145 64 109 
309 950 460 90 74 62 
186 628 374 153 157 171 
356 739 537 168 131 100 
247 970 426 73 53 33 
199 731 332 127 136 150 
253 971 429 102 80 54 
372 680 588 158 175 199 
314 390 442 54 83 107 
236 313 421 112 121 134 
277 334 443 125 121 122 
164 493 402 81 98 138 
157 208 480 70 37 32 
158 456 453 153 151 159 
290 866 479 164 122 90 
364 639 528 41 66 120 
153 402 376 174 152 128 
207 739 272 121 146 195 
242 95 418 84 68 50 
242 95 419 83 67 50 
182 536 454 141 147 158 
227 557 530 87 104 143 
171 653 429 90 91 96 
244 89 416 84 68 51 
277 158 523 94 101 112 
214 635 309 66 105 140 
198 255 393 98 105 117 
258 11 423 122 108 102 
278 166 475 115 27 23 
320 785 407 126 134 146 
220 911 451 81 64 51 
188 287 386 99 118 137 
164 663 301 136 98 84 
270 179 473 95 65 85 
147 237 480 57 69 81 
205 417 510 136 77 59 
144 368 397 129 115 103 
296 710 527 102 64 56 
337 483 423 85 116 146 
312 351 469 106 114 125 
211 702 329 93 111 148 
180 689 291 59 81 123 
244 94 417 82 67 51 
241 315 435 107 115 125 
297 853 435 175 131 97 
273 896 390 98 77 60 
233 907 497 110 93 76 
316 799 478 201 146 116 
359 698 494 146 27 47 
208 166 453 58 52 49 
177 659 463 170 140 110 
279 870 493 162 121 91 
219 789 306 169 180 207 
265 645 306 116 126 140 
303 336 462 116 71 77 
177 512 364 130 138 152 
215 670 345 117 122 132 
294 374 413 50 92 125 
357 686 482 163 16 50 
212 653 353 35 61 103 
264 723 512 156 129 100 
282 871 396 138 114 92 
160 738 295 164 160 170 
227 97 391 100 86 71 
297 407 389 35 76 124 
227 98 390 102 87 71 
174 566 377 41 67 87 
322 514 547 141 149 164 
299 435 377 111 125 141 
227 768 463 199 147 120 
173 645 426 58 61 66 
170 595 451 141 130 125 
234 142 426 67 55 42 
144 247 445 114 110 109 
161 627 337 154 105 84 
196 676 264 94 117 142 
320 237 523 156 64 24 
252 630 319 72 97 118 
307 742 523 144 130 120 
169 587 437 62 95 121 
232 155 437 63 52 40 
145 199 417 55 63 87 
230 377 488 61 66 74 
256 26 410 117 104 101 
328 804 435 198 142 110 
259 190 460 122 44 39 
334 352 491 100 114 131 
309 763 389 178 162 151 
185 435 511 98 87 76 
216 491 357 155 154 160 
317 409 558 133 149 172 
230 99 387 124 97 69 
201 509 519 144 158 179 
164 456 487 124 134 150 
367 657 514 71 93 142 
228 97 389 106 90 73 
254 141 407 128 112 100 
364 633 504 98 112 129 
301 271 472 107 121 138 
165 539 375 98 121 147 
160 584 382 116 97 78 
157 350 500 142 11 60 
165 685 447 134 157 183 
162 525 422 107 126 154 
228 282 484 89 90 94 
261 139 509 128 64 14 
349 623 406 145 150 161 
338 635 551 76 81 89 
270 987 404 131 99 70 
264 375 528 102 82 66 
253 848 453 112 85 54 
193 328 519 110 116 126 
327 731 542 65 61 67 
342 389 489 77 113 152 
364 579 469 77 123 159 
327 361 480 75 101 126 
185 658 475 161 111 92 
342 498 441 139 152 170 
157 691 296 93 120 152 
327 555 383 142 156 175 
344 905 458 168 136 111 
274 985 403 104 76 50 
225 605 520 100 119 152 
264 120 504 98 88 79 
232 682 282 79 97 123 
313 640 542 52 67 83 
299 111 500 105 94 85 
347 622 555 86 111 134 
205 151 442 85 78 72 
190 605 488 93 94 118 
164 679 446 132 156 182 
342 469 461 170 169 176 
355 630 541 50 57 88 
280 649 320 142 145 156 
184 605 481 108 132 161 
156 337 495 144 53 81 
314 796 485 199 144 118 
149 320 475 158 124 93 
138 665 286 136 99 69 
325 252 507 146 143 147 
168 731 312 47 92 143 
301 261 472 143 141 146 
243 978 413 164 139 116 
234 252 430 98 93 96 
294 737 518 142 124 109 
283 987 454 114 84 61 
161 373 418 87 104 141 
239 522 546 55 83 134 
229 345 498 47 58 71 
320 718 389 102 39 69 
157 472 376 166 168 178 
286 586 530 101 117 152 
301 402 390 95 116 139 
337 615 552 82 104 124 
177 728 443 159 44 52 
257 637 523 52 49 48 
317 516 376 106 120 139 
239 730 504 197 176 162 
178 303 512 147 146 149 
251 627 322 88 104 121 
170 463 466 104 116 155 
340 906 462 175 146 117 
187 247 504 97 81 71 
181 768 388 126 119 113 
225 96 399 84 72 61 
164 704 297 79 98 128 
225 97 399 83 72 60 
287 793 467 196 147 122 
316 774 512 194 143 116 
176 428 359 136 117 97 
177 565 450 122 133 148 
225 99 396 86 74 63 
169 514 427 84 99 126 
224 99 398 82 71 61 
235 339 497 51 63 75 
187 660 475 159 101 74 
234 188 448 65 36 25 
235 869 486 160 123 100 
226 96 396 86 75 64 
291 187 466 50 44 63 
315 263 488 70 111 145 
327 690 587 141 176 211 
268 72 388 120 101 82 
209 383 504 130 98 75 
334 371 530 66 95 133 
293 492 554 80 108 164 
253 145 409 156 70 6 
225 100 395 87 75 64 
225 101 394 92 78 63 
315 284 520 112 131 153 
221 257 411 81 113 141 
188 583 502 44 83 131 
227 244 471 68 45 27 
185 212 498 89 87 93 
198 376 515 122 0 60 
202 427 512 115 80 38 
170 768 302 118 137 185 
268 921 508 177 133 105 
258 971 479 84 64 46 
266 167 519 108 87 78 
158 611 323 111 99 89 
271 577 540 157 152 155 
282 977 458 131 105 81 
303 754 517 131 120 116 
262 171 461 87 62 65 
318 403 440 60 88 112 
200 635 362 110 121 151 
319 731 391 129 50 79 
328 285 505 79 99 119 
237 610 368 60 89 114 
267 208 522 43 51 69 
193 224 497 64 78 94 
343 463 473 140 149 165 
181 575 369 52 68 82 
201 457 514 100 110 134 
183 540 458 119 131 150 
303 610 347 115 138 163 
267 662 533 115 141 169 
342 760 449 150 134 121 
178 776 376 150 115 109 
225 102 398 80 69 58 
148 323 379 142 17 54 
202 672 271 79 104 145 
310 940 422 94 70 56 
352 613 475 99 116 135 
143 289 452 87 77 91 
232 375 392 131 71 14 
181 156 472 105 77 52 
176 783 336 122 142 165 
166 426 417 48 74 103 
273 620 322 115 122 133 
253 152 417 157 74 8 
295 577 532 159 160 168 
356 537 472 152 152 160 
184 727 445 57 43 66 
293 80 498 113 83 66 
211 665 296 81 100 153 
226 110 391 106 87 67 
196 657 368 92 106 128 
165 553 432 160 159 167 
175 501 480 127 137 152 
269 697 317 81 109 145 
150 358 458 45 92 127 
229 311 411 105 110 118 
173 717 254 149 161 213 
256 337 512 112 108 107 
309 735 369 175 39 72 
173 461 397 96 104 124 
327 365 539 159 157 163 
164 398 365 136 124 115 
308 452 383 162 166 177 
238 478 541 164 159 161 
324 514 385 117 127 143 
297 633 561 87 79 74 
284 309 534 107 8 40 
315 726 363 169 187 211 
249 234 454 43 36 42 
299 344 546 141 95 111 
298 475 555 103 125 159 
283 197 532 46 68 94 
207 151 440 87 81 77 
231 105 388 133 98 68 
173 446 400 51 73 107 
334 453 430 161 158 160 
167 479 370 122 138 162 
198 148 444 84 56 17 
348 665 405 101 138 169 
245 579 353 110 111 116 
262 750 495 164 124 94 
152 257 497 109 110 114 
191 656 279 92 108 130 
181 531 462 119 129 151 
231 369 483 70 73 79 
208 414 507 134 80 61 
174 644 477 79 68 91 
169 612 425 100 99 107 
143 303 451 150 147 151 
205 637 347 48 58 93 
147 321 383 142 49 61 
205 639 318 123 141 163 
231 108 389 128 97 63 
183 610 357 114 90 85 
251 728 298 100 127 183 
245 512 547 123 133 156 
154 450 435 128 132 145 
318 751 402 74 77 83 
259 111 374 177 109 96 
269 589 534 105 118 150 
321 492 388 115 124 138 
212 285 504 133 133 138 
295 402 393 53 102 144 
305 742 361 178 116 123 
264 202 480 38 34 46 
156 606 354 157 109 94 
167 482 451 83 103 161 
142 230 472 102 67 55 
365 638 579 108 130 153 
169 570 442 136 140 151 
332 578 513 101 133 165 
138 272 393 103 53 68 
169 509 430 92 107 150 
189 771 414 115 106 117 
310 320 544 117 128 142 
242 128 421 70 60 49 
253 842 391 204 153 124 
229 737 282 114 144 178 
300 765 380 133 116 103 
232 715 277 69 96 140 
260 82 402 122 98 77 
208 534 517 118 128 144 
338 783 492 193 124 94 
279 470 363 100 117 136 
158 382 500 186 156 126 
279 415 547 64 95 140 
345 704 450 151 111 114 
303 594 518 125 141 162 
262 40 364 134 118 106 
337 511 534 103 119 153 
142 293 403 145 145 151 
363 618 444 160 185 222 
322 373 468 65 94 119 
174 552 438 113 133 154 
