ply
format ascii 1.0
comment Created by CloudCompare v2.11.1 (Anoia)
comment Created 2/28/22 9:38 PM
obj_info Generated by CloudCompare!
element vertex 2011
property float x
property float y
property float z
property uchar red
property uchar green
property uchar blue
end_header
241 948 409 126 97 69 
273 559 545 178 184 197 
218 776 444 140 135 134 
241 978 416 132 104 73 
274 814 358 161 119 76 
230 59 388 92 79 66 
178 640 472 64 65 70 
349 565 423 171 168 173 
230 58 391 93 79 67 
166 433 368 84 109 140 
245 714 508 188 169 155 
264 151 450 118 70 25 
197 776 298 147 168 215 
235 156 435 62 52 40 
346 615 503 51 82 105 
363 628 511 81 101 121 
243 170 435 57 50 44 
338 452 461 117 132 151 
209 720 480 173 158 148 
239 908 408 106 81 64 
201 771 436 133 104 83 
336 481 439 89 113 143 
209 159 447 63 53 43 
334 396 477 115 132 153 
161 275 522 79 114 142 
139 645 289 99 90 81 
266 113 504 99 81 62 
309 618 534 37 57 108 
229 61 391 90 78 66 
229 62 388 93 80 68 
297 349 440 89 109 129 
361 718 474 101 90 83 
185 597 373 55 60 66 
236 278 429 112 115 123 
289 201 460 92 40 46 
316 649 365 81 127 163 
229 63 391 91 78 66 
198 223 509 54 77 95 
293 649 570 136 105 77 
269 812 352 141 123 107 
284 805 367 112 84 63 
151 700 253 120 144 188 
234 488 357 102 115 131 
188 694 273 119 128 142 
364 734 497 137 121 110 
305 476 377 136 137 144 
309 456 554 155 167 186 
162 771 330 128 145 165 
186 706 459 182 81 44 
353 761 475 150 138 131 
219 922 435 73 61 52 
192 400 522 180 154 127 
159 275 379 155 154 160 
276 572 540 133 150 171 
368 671 593 154 167 220 
204 630 328 21 74 116 
284 539 346 97 121 145 
145 225 384 104 123 138 
329 344 529 49 83 107 
176 433 359 126 114 103 
201 740 454 152 133 123 
286 593 337 143 137 138 
154 419 444 115 125 142 
355 618 483 101 111 126 
340 907 454 153 129 106 
155 677 300 113 84 79 
208 396 524 129 107 83 
181 466 486 85 108 145 
135 723 280 116 143 186 
267 18 413 163 146 139 
363 583 443 111 129 152 
318 281 540 78 104 127 
343 379 535 77 110 146 
155 716 420 115 136 159 
234 273 426 98 107 119 
154 220 481 118 21 58 
213 692 278 68 112 146 
294 427 379 122 129 139 
328 639 566 109 90 72 
308 897 408 64 51 45 
167 366 435 101 118 143 
228 147 389 197 80 8 
220 944 444 73 57 51 
251 913 505 168 131 108 
185 435 514 127 56 72 
249 751 485 210 159 127 
196 791 308 156 162 210 
159 444 464 89 103 151 
304 504 552 108 130 168 
151 711 306 82 94 123 
314 330 475 145 123 99 
215 524 360 102 117 136 
174 682 264 81 111 153 
196 199 497 119 71 63 
146 252 406 99 71 79 
232 200 452 34 36 40 
289 668 540 120 144 171 
249 993 436 186 157 132 
283 575 536 187 171 162 
159 713 396 95 103 113 
187 680 293 88 109 140 
349 479 515 107 127 165 
162 770 300 123 142 191 
209 806 396 191 159 125 
259 374 407 79 97 115 
343 419 486 136 148 165 
165 624 439 181 128 123 
230 61 396 91 77 64 
308 563 533 129 131 160 
311 272 530 137 140 149 
189 222 395 109 69 98 
246 866 493 135 88 76 
260 879 404 116 86 65 
231 60 398 89 75 62 
237 231 454 47 29 39 
297 316 458 101 89 92 
352 550 439 161 160 166 
146 639 299 104 91 79 
234 585 358 91 94 99 
165 193 394 126 83 97 
126 669 278 118 91 64 
234 735 294 104 130 182 
229 743 489 130 149 170 
296 789 379 100 84 68 
239 950 486 118 94 82 
256 692 307 126 145 172 
323 433 422 96 116 139 
323 294 494 132 137 146 
319 588 512 132 142 160 
343 688 423 178 22 58 
259 765 333 138 106 97 
244 279 441 121 122 127 
153 460 381 118 137 160 
192 178 473 82 72 63 
340 467 457 155 158 168 
183 333 520 183 153 120 
227 330 518 91 54 67 
146 322 389 134 35 61 
308 405 417 52 88 116 
169 773 342 131 144 161 
168 552 377 54 74 107 
232 51 398 88 73 57 
139 239 491 126 132 145 
238 615 515 121 121 127 
179 650 300 82 97 113 
168 403 506 147 107 78 
201 649 350 32 52 95 
306 228 470 80 114 143 
154 225 447 141 60 0 
385 684 568 137 149 197 
172 424 392 81 107 135 
286 713 343 146 152 164 
235 49 399 87 72 55 
171 750 277 216 207 223 
351 557 431 149 151 158 
156 765 301 209 203 206 
266 717 506 171 158 153 
317 164 501 111 67 77 
225 468 364 96 111 128 
175 813 342 123 66 93 
315 904 454 130 82 60 
192 709 269 83 105 127 
328 344 524 101 123 146 
353 502 478 59 100 135 
327 607 517 92 109 128 
176 769 348 122 134 151 
241 570 352 120 126 136 
179 752 341 111 124 141 
318 163 516 109 87 102 
315 806 450 215 159 129 
318 194 524 126 120 122 
241 567 535 95 116 156 
310 761 391 135 122 114 
355 700 570 158 182 210 
244 426 385 98 105 116 
162 516 428 87 109 134 
231 59 401 89 75 61 
230 61 400 89 75 62 
168 305 509 77 39 57 
249 837 417 179 131 105 
255 137 486 100 90 82 
231 61 401 88 75 62 
255 142 423 133 106 92 
223 887 459 152 111 83 
281 570 538 136 149 167 
285 331 530 133 31 68 
160 260 384 89 108 128 
168 368 433 71 97 136 
139 620 327 110 89 66 
202 674 484 136 91 57 
344 697 440 145 36 45 
204 678 485 145 114 85 
236 830 395 186 137 115 
328 341 530 68 89 109 
257 159 505 87 50 50 
247 852 485 159 120 102 
304 203 471 97 43 45 
154 412 388 81 102 127 
355 603 419 153 155 164 
226 830 376 121 119 121 
268 137 510 121 62 5 
363 734 533 103 98 114 
154 335 460 131 136 147 
356 721 465 131 106 79 
185 253 511 73 63 73 
191 421 521 130 110 90 
251 130 394 125 96 66 
170 326 369 169 145 120 
256 27 361 116 100 84 
335 759 516 140 154 170 
278 209 466 99 30 46 
375 692 575 133 147 194 
251 471 539 167 165 170 
218 458 530 120 136 159 
166 414 498 112 101 93 
231 870 447 145 112 82 
179 463 476 127 137 155 
207 624 339 52 103 139 
236 152 432 63 51 39 
181 485 490 99 113 135 
282 410 542 64 94 139 
235 52 403 86 70 54 
240 665 529 153 175 202 
349 765 457 116 109 106 
322 811 439 212 156 119 
265 363 412 64 85 104 
344 384 538 105 130 155 
339 472 455 143 148 160 
254 622 316 81 102 122 
149 330 374 123 119 125 
235 54 404 87 71 55 
195 672 295 75 96 138 
193 633 339 65 111 143 
264 37 381 143 120 98 
293 670 341 92 126 153 
178 628 466 123 115 117 
237 48 401 86 70 53 
150 753 305 99 109 158 
341 617 399 99 116 135 
183 573 494 92 120 174 
158 742 413 124 142 164 
277 209 468 92 30 41 
236 51 402 86 70 53 
258 383 401 67 92 114 
176 245 393 78 114 145 
336 407 477 103 119 138 
142 697 252 168 118 101 
152 227 460 88 104 123 
321 625 367 76 108 135 
167 538 425 166 152 143 
217 132 421 70 61 51 
308 958 432 139 114 92 
246 466 538 94 117 144 
154 430 440 95 112 134 
302 418 391 141 147 160 
217 464 529 106 129 157 
279 44 490 101 90 80 
249 460 360 78 100 123 
327 542 395 150 157 170 
377 686 518 158 95 111 
186 402 357 155 70 2 
279 832 374 185 143 105 
172 768 342 111 130 152 
275 329 438 124 122 123 
332 682 580 99 129 182 
205 611 377 56 67 79 
353 657 424 112 149 188 
232 509 352 100 111 124 
134 213 452 50 45 75 
230 746 487 151 131 119 
236 54 404 86 70 54 
301 374 426 57 89 116 
360 617 416 102 124 146 
162 258 514 91 72 81 
196 791 403 179 153 130 
221 633 332 41 96 130 
248 255 450 88 89 98 
371 640 475 135 151 171 
259 643 552 178 130 111 
151 443 384 99 128 160 
229 915 407 119 87 68 
311 563 532 133 145 168 
176 785 363 126 61 58 
267 609 323 138 134 133 
379 670 533 132 144 161 
249 667 529 135 163 191 
200 710 337 82 104 147 
345 426 486 131 142 158 
336 611 537 13 62 89 
367 734 515 146 135 130 
348 773 467 166 115 77 
208 679 500 119 84 80 
143 256 401 78 106 131 
132 702 261 174 122 97 
332 722 419 132 119 110 
339 451 540 83 105 153 
258 783 464 204 153 130 
223 904 472 154 120 94 
339 482 535 165 164 172 
224 275 409 144 142 146 
218 710 500 127 110 97 
229 416 381 118 124 134 
271 207 467 91 33 38 
317 787 489 198 147 118 
274 615 325 157 151 151 
171 725 322 86 98 112 
329 634 536 65 79 97 
334 351 509 152 152 157 
223 951 442 98 79 62 
318 803 405 170 127 94 
232 346 496 46 62 77 
242 560 538 163 168 178 
271 313 446 71 91 113 
225 371 389 124 70 12 
358 645 433 120 142 167 
318 220 502 117 35 59 
244 959 414 100 70 45 
136 228 389 69 105 134 
166 527 417 104 124 147 
310 205 525 143 89 88 
342 742 442 128 110 94 
235 58 405 86 71 55 
170 357 514 121 110 132 
305 973 438 131 105 77 
223 415 520 108 98 101 
224 702 512 159 94 47 
221 430 528 124 116 113 
125 662 288 119 92 62 
247 626 316 59 67 76 
207 256 398 88 122 152 
181 386 512 186 158 130 
233 60 404 87 72 58 
291 300 449 122 21 48 
286 805 454 197 142 117 
232 62 404 88 74 60 
168 619 461 117 135 156 
151 587 387 122 99 77 
240 515 541 108 119 152 
168 627 425 51 32 44 
233 62 406 87 72 58 
219 698 279 19 66 119 
218 789 432 129 114 102 
307 471 380 149 147 151 
185 547 467 122 127 142 
231 779 454 201 150 126 
235 60 406 86 71 57 
280 607 331 94 132 165 
278 242 468 112 34 42 
339 514 430 105 128 153 
294 857 433 165 123 91 
234 62 407 87 73 58 
352 636 419 87 123 159 
226 177 453 66 38 22 
244 830 405 186 139 117 
172 652 439 125 123 129 
295 445 376 79 101 126 
326 412 441 150 149 153 
177 762 373 110 50 62 
184 489 514 156 162 175 
292 684 519 118 64 67 
307 398 421 25 68 107 
192 356 371 121 47 38 
236 58 407 86 71 55 
335 689 395 155 102 118 
245 721 301 123 132 174 
304 647 573 135 103 80 
235 437 527 44 80 112 
286 118 510 122 109 100 
318 914 439 88 72 59 
313 499 380 127 135 149 
244 656 540 134 154 177 
200 233 511 83 76 83 
235 62 408 86 72 57 
252 635 550 146 110 95 
257 739 329 70 103 164 
237 716 290 87 129 174 
199 131 402 107 94 82 
332 603 386 128 142 160 
140 655 282 96 87 79 
162 579 399 49 74 97 
200 226 507 59 82 102 
296 968 412 128 99 65 
257 842 439 151 118 90 
263 726 504 119 104 92 
163 697 406 111 117 128 
334 414 467 168 166 170 
184 592 372 65 69 75 
325 246 509 115 118 125 
377 712 537 181 94 111 
161 609 346 98 90 84 
281 774 355 101 110 125 
266 91 366 146 108 56 
191 318 521 132 13 64 
186 487 354 76 105 140 
171 397 508 175 81 6 
193 644 490 98 64 60 
193 700 466 155 94 84 
357 570 436 95 132 164 
209 271 516 98 80 92 
147 270 424 72 102 127 
247 438 375 51 89 116 
375 642 553 98 116 136 
346 610 407 135 137 144 
205 817 327 200 24 38 
271 601 327 87 114 137 
164 734 436 172 62 70 
183 195 490 75 58 72 
231 330 513 68 110 141 
330 912 462 148 121 92 
202 636 312 66 103 139 
189 316 382 134 77 61 
166 574 441 84 107 130 
243 735 309 131 144 179 
258 806 445 185 135 117 
141 738 292 104 115 159 
168 753 418 206 160 138 
159 397 392 114 122 137 
258 66 503 112 92 72 
301 298 536 117 127 141 
265 143 459 134 93 71 
345 749 444 157 136 119 
247 180 419 122 105 93 
302 315 465 110 73 81 
252 128 490 88 73 59 
179 527 447 125 138 156 
186 746 363 103 115 130 
242 33 399 91 71 52 
325 312 502 152 150 156 
243 33 399 90 71 54 
211 511 524 181 184 195 
296 512 551 128 142 181 
314 209 484 60 74 97 
153 229 424 115 95 70 
149 244 460 127 126 132 
200 665 287 121 133 149 
178 700 458 146 116 73 
228 902 482 101 69 68 
272 662 558 164 178 200 
354 626 405 85 110 133 
369 727 513 96 110 125 
240 38 398 89 71 53 
259 898 398 62 49 38 
155 586 375 119 101 84 
297 378 410 107 134 161 
334 611 471 46 65 84 
139 196 475 39 64 84 
306 293 474 91 111 132 
176 725 269 144 148 172 
282 944 491 138 104 85 
160 472 411 77 97 122 
175 613 356 97 74 74 
251 980 401 140 106 70 
313 568 528 180 174 177 
184 578 471 86 103 141 
178 767 363 109 128 149 
242 37 400 88 70 51 
150 209 445 119 10 52 
243 37 400 88 70 51 
235 807 428 181 126 109 
209 504 525 103 127 177 
246 806 333 139 122 118 
258 146 485 100 57 16 
159 730 266 129 139 210 
237 835 358 170 126 77 
236 855 466 143 111 82 
216 728 281 147 157 196 
349 616 519 30 79 112 
342 693 427 156 64 57 
384 688 549 158 172 191 
155 475 422 110 115 138 
291 974 449 88 67 49 
164 303 499 157 113 60 
220 938 438 77 62 51 
161 262 383 119 96 88 
339 526 422 109 128 150 
318 481 395 87 113 140 
276 814 360 190 146 86 
184 503 511 145 155 173 
191 764 288 129 142 206 
192 223 397 109 52 77 
175 696 459 117 99 88 
168 346 515 139 115 129 
319 304 523 98 125 151 
323 606 501 47 58 70 
259 866 399 168 125 96 
290 850 390 193 147 115 
316 137 487 85 66 81 
193 471 352 112 127 148 
260 155 508 38 56 80 
151 315 450 152 151 156 
150 675 259 97 87 78 
284 598 335 90 120 145 
182 396 357 162 107 68 
200 679 305 121 134 152 
335 392 550 103 128 154 
336 636 548 54 69 86 
311 446 392 58 91 122 
297 356 430 119 126 137 
349 525 510 87 111 151 
287 709 343 127 143 164 
340 611 482 77 91 109 
319 728 388 160 138 118 
174 613 357 99 76 70 
256 404 388 39 92 124 
303 374 542 83 108 146 
300 962 459 87 67 54 
247 39 403 86 68 47 
352 510 470 126 138 154 
240 40 400 89 71 52 
250 984 406 156 129 103 
317 921 441 82 67 55 
369 718 551 171 44 58 
253 707 313 134 145 169 
228 954 434 103 82 63 
209 134 413 77 69 62 
329 544 397 173 173 182 
327 716 400 186 141 95 
285 230 529 121 35 64 
141 615 333 112 90 67 
299 849 399 184 134 100 
293 898 392 92 71 55 
235 287 424 82 109 135 
151 590 361 120 104 90 
353 568 430 131 116 115 
167 659 460 144 153 167 
323 716 390 154 26 43 
285 363 411 115 127 143 
169 550 442 113 130 150 
297 423 548 66 99 146 
243 42 402 86 69 50 
245 168 407 147 87 80 
226 913 408 103 76 61 
322 316 523 145 138 136 
337 406 478 117 128 144 
297 249 532 154 152 157 
260 600 529 173 166 168 
319 499 390 167 162 163 
192 503 518 91 119 165 
248 256 460 89 69 79 
331 659 586 97 122 152 
164 416 427 69 89 109 
240 47 403 85 69 52 
184 539 501 87 107 146 
153 317 476 168 134 96 
324 331 549 160 114 54 
167 465 386 113 124 140 
154 605 410 168 116 109 
158 375 459 105 120 138 
226 137 429 67 56 45 
159 728 387 122 148 175 
266 174 464 105 45 55 
149 209 388 144 100 89 
243 45 404 85 68 49 
149 306 373 134 33 55 
187 431 354 130 114 99 
236 946 413 152 118 82 
285 415 543 40 81 133 
203 200 474 82 48 50 
258 331 435 82 71 61 
359 620 482 95 114 136 
251 837 427 167 122 96 
228 141 387 167 109 46 
245 40 403 86 68 49 
247 594 337 123 131 143 
316 191 495 150 93 72 
258 15 484 89 76 63 
228 639 527 176 128 113 
134 198 392 145 121 110 
264 239 516 107 29 65 
246 533 342 137 142 152 
153 405 389 136 141 151 
238 663 533 118 138 192 
229 941 418 108 89 76 
245 42 404 83 66 46 
203 781 428 210 183 160 
287 153 524 59 76 93 
229 876 478 159 118 93 
355 621 531 18 57 96 
232 248 418 83 114 142 
246 43 404 84 66 47 
287 414 544 78 109 149 
353 759 512 153 140 133 
235 658 533 125 139 181 
163 725 383 111 127 144 
214 727 488 156 126 95 
212 585 513 113 140 170 
173 649 442 65 85 106 
335 515 417 146 153 167 
151 733 270 150 159 208 
132 682 303 162 109 90 
265 36 367 146 133 125 
377 710 524 177 34 57 
179 421 356 151 138 131 
224 447 524 35 47 68 
336 434 547 173 169 173 
228 820 406 173 122 103 
245 46 406 83 67 49 
218 245 405 93 100 112 
325 741 521 150 120 85 
205 635 322 64 99 136 
231 242 468 57 32 28 
317 625 364 77 107 134 
161 166 480 137 62 2 
177 776 297 166 170 214 
156 740 404 127 75 92 
286 392 541 69 100 139 
300 918 479 92 72 56 
158 620 344 105 89 83 
181 569 478 100 128 156 
141 252 399 125 135 150 
228 614 515 143 145 154 
206 218 488 84 87 93 
259 558 547 165 170 184 
226 168 452 59 53 47 
230 649 520 84 69 71 
361 665 455 176 185 202 
328 380 461 73 98 120 
299 967 446 83 67 53 
274 972 475 93 72 57 
196 492 521 97 128 169 
249 35 403 92 70 51 
308 221 474 106 53 70 
174 401 407 82 102 135 
179 675 465 160 113 45 
243 737 312 80 100 121 
337 757 431 145 139 140 
310 665 574 161 177 207 
143 651 283 99 88 78 
226 948 432 79 65 58 
345 907 451 172 144 116 
253 832 359 198 167 137 
249 304 440 78 100 123 
151 241 447 105 104 109 
366 631 514 76 89 110 
286 240 462 104 59 70 
181 337 519 191 162 134 
255 225 500 40 32 44 
190 299 386 143 135 131 
231 930 407 97 77 59 
348 444 510 138 149 165 
190 723 363 63 91 115 
290 564 538 137 147 169 
168 754 281 226 219 223 
246 898 410 82 65 46 
366 624 478 147 147 153 
239 583 531 138 146 167 
158 246 507 106 25 36 
237 710 288 173 181 199 
266 996 451 154 126 97 
349 769 500 144 140 141 
328 510 403 117 130 146 
157 697 301 82 91 115 
160 429 428 102 114 129 
195 240 397 95 117 139 
124 667 285 122 93 65 
313 898 422 83 65 56 
335 723 538 120 100 98 
184 824 357 70 89 134 
298 895 400 95 74 57 
287 345 419 114 120 130 
314 581 521 101 127 154 
167 542 426 154 144 139 
150 308 451 152 149 152 
246 333 428 120 119 122 
262 18 481 96 82 69 
261 241 487 71 29 32 
336 370 497 69 107 138 
178 482 359 80 104 145 
176 551 364 64 87 109 
255 155 440 128 74 26 
158 505 400 102 115 133 
259 348 424 117 119 124 
157 771 309 79 104 177 
165 308 500 166 122 73 
259 51 403 111 89 67 
147 341 405 121 112 116 
183 480 513 134 150 172 
219 727 283 63 63 148 
182 532 358 111 125 149 
216 721 279 119 137 175 
167 456 406 86 100 124 
282 725 509 151 128 104 
254 38 404 100 78 54 
240 401 391 62 85 106 
314 118 484 107 97 89 
269 943 398 130 98 69 
351 494 478 103 128 157 
255 39 405 101 80 56 
248 40 404 86 69 49 
222 371 528 174 148 124 
194 403 521 156 115 51 
282 77 477 144 113 86 
154 340 464 105 117 133 
303 975 437 128 105 82 
150 310 458 143 142 148 
248 43 405 87 68 48 
308 701 522 48 53 84 
174 239 505 106 32 60 
182 470 355 111 129 152 
284 780 363 139 124 115 
349 527 446 72 105 142 
201 733 458 110 103 106 
287 207 453 96 35 53 
294 803 378 154 139 129 
338 723 437 164 125 78 
192 657 493 190 134 66 
231 303 501 129 131 140 
186 424 517 123 106 87 
153 760 304 98 125 181 
186 204 505 96 100 108 
204 655 348 59 81 146 
250 854 423 165 123 96 
224 408 518 122 108 94 
216 498 526 106 125 159 
218 211 470 35 48 60 
196 638 358 32 54 118 
196 152 450 99 67 42 
305 802 390 107 97 90 
261 628 544 112 96 81 
293 282 532 99 120 142 
174 596 470 120 141 165 
249 669 296 69 107 143 
234 262 428 126 123 125 
169 651 464 74 69 82 
250 46 407 92 73 52 
294 810 448 207 148 123 
197 720 345 104 123 145 
181 756 282 156 162 213 
292 211 533 107 82 72 
274 494 352 95 109 124 
223 218 469 35 38 41 
234 739 296 67 108 178 
153 586 380 117 98 82 
174 765 344 117 128 143 
164 360 434 50 83 122 
236 244 427 131 24 62 
337 394 484 108 125 151 
222 896 465 168 125 99 
208 240 502 111 87 85 
156 484 431 96 112 144 
327 321 548 181 151 116 
174 447 402 75 88 110 
332 511 410 172 168 170 
161 357 422 73 96 137 
196 716 353 41 71 106 
250 257 475 104 40 39 
171 267 501 135 137 146 
273 23 386 153 140 132 
160 239 481 55 67 83 
169 441 474 72 94 146 
244 262 480 55 39 45 
216 600 370 45 64 81 
164 369 506 190 162 135 
289 143 464 100 58 35 
185 464 354 99 122 152 
225 881 457 151 111 84 
345 404 495 47 89 136 
158 285 482 114 126 143 
166 674 417 93 103 115 
254 654 546 45 62 112 
227 577 358 79 100 120 
266 163 515 81 74 81 
226 263 411 131 121 118 
165 212 394 116 81 66 
236 210 412 138 93 103 
312 269 519 117 130 147 
267 487 354 99 111 127 
358 719 552 173 86 83 
148 346 404 134 124 124 
255 46 405 108 86 64 
276 146 516 61 61 74 
231 223 461 41 27 30 
254 47 406 106 85 62 
161 781 319 154 156 175 
308 481 378 124 131 143 
246 376 411 112 103 95 
348 617 531 21 70 102 
164 683 426 101 130 157 
260 890 497 159 113 91 
207 654 309 3 63 104 
174 694 297 69 85 129 
339 780 436 162 119 81 
175 303 378 137 58 64 
146 305 391 76 105 133 
240 51 406 85 69 52 
143 633 308 105 95 87 
220 931 467 129 105 88 
176 769 395 76 57 76 
250 506 349 83 102 120 
167 336 504 119 56 75 
220 917 466 159 121 93 
154 734 409 104 97 117 
223 890 456 150 109 81 
232 958 430 102 85 71 
166 685 455 124 149 176 
148 655 284 97 87 77 
353 751 464 146 139 138 
364 724 478 179 142 100 
323 556 529 111 135 162 
321 299 515 87 121 149 
170 585 436 126 69 88 
348 772 471 173 121 84 
278 550 545 135 152 177 
318 812 410 184 140 107 
267 489 546 85 110 140 
241 53 407 86 69 52 
152 600 400 153 105 96 
224 888 455 148 109 80 
302 169 468 102 33 45 
303 506 368 103 117 134 
224 919 416 87 66 59 
294 533 353 108 126 146 
244 49 407 85 68 49 
202 431 359 140 141 147 
245 48 407 84 67 48 
344 624 398 100 114 131 
223 829 376 151 138 128 
328 772 504 199 144 117 
256 229 471 56 46 60 
367 706 563 154 171 192 
381 680 536 150 161 178 
334 614 392 136 142 154 
191 828 358 163 116 114 
374 695 510 151 86 101 
229 567 526 99 122 162 
268 32 380 140 109 91 
138 649 287 99 88 77 
304 638 563 116 96 75 
139 632 317 118 93 64 
265 335 514 142 106 64 
234 911 497 105 89 73 
323 585 512 178 171 172 
159 230 390 122 91 86 
241 426 382 92 98 107 
306 799 390 100 126 150 
291 186 460 49 41 42 
292 902 485 187 139 112 
318 696 527 133 80 91 
278 293 525 138 136 141 
162 417 430 88 102 118 
279 868 489 160 119 89 
337 716 431 197 174 155 
192 647 372 68 85 109 
316 194 497 140 92 72 
318 419 552 118 136 163 
247 272 446 95 102 113 
270 998 444 102 73 53 
330 443 445 85 113 150 
365 636 566 127 135 147 
228 150 434 64 54 42 
322 568 382 111 125 147 
142 676 255 98 85 72 
317 672 551 129 152 178 
250 846 402 191 143 114 
318 306 530 82 92 107 
222 324 522 73 64 77 
144 705 301 93 101 135 
312 126 479 163 75 9 
244 55 410 89 71 50 
265 564 546 152 158 171 
245 55 410 90 71 51 
202 710 472 108 112 122 
188 779 405 112 112 116 
256 752 330 164 166 176 
196 279 393 145 143 147 
291 933 489 128 96 76 
279 445 367 79 100 123 
250 766 330 168 174 188 
164 622 394 149 96 89 
205 673 354 66 108 139 
244 312 476 100 87 93 
199 551 358 145 140 141 
361 661 453 177 185 200 
241 56 409 86 70 52 
238 935 498 200 155 135 
136 229 472 117 104 137 
147 304 432 148 147 151 
292 253 444 166 166 173 
240 59 410 85 69 52 
309 758 507 138 110 88 
296 365 406 89 121 157 
335 605 394 115 143 171 
339 731 437 122 113 108 
225 538 525 96 110 135 
141 735 292 109 123 162 
204 620 346 46 102 137 
355 621 499 123 126 134 
247 297 469 97 88 93 
326 321 518 148 143 146 
256 319 506 99 109 122 
323 455 414 78 106 139 
233 316 503 105 92 96 
306 419 550 59 97 145 
300 388 413 102 118 136 
254 276 453 106 105 108 
149 237 384 92 137 174 
248 526 545 180 177 181 
261 160 510 85 45 55 
308 903 405 78 62 51 
334 428 549 117 135 158 
169 546 372 51 68 110 
197 129 390 178 148 120 
299 819 439 192 140 107 
247 271 459 111 96 93 
270 670 541 172 190 213 
166 793 322 149 177 207 
144 613 351 164 117 98 
166 325 518 176 152 124 
321 524 385 111 128 149 
253 153 419 148 70 7 
288 937 399 113 91 69 
286 374 398 62 100 130 
261 142 450 120 89 71 
226 268 496 101 23 49 
332 446 450 152 159 172 
263 178 459 101 77 96 
385 678 578 113 133 203 
331 352 527 81 102 126 
174 775 351 116 131 148 
168 623 394 141 93 86 
194 184 484 118 65 1 
230 547 528 114 126 145 
192 346 374 131 39 40 
201 785 304 154 172 206 
300 236 535 144 141 144 
268 431 369 49 81 107 
260 309 508 88 107 128 
246 267 464 92 67 73 
292 471 368 141 140 145 
228 608 367 65 89 110 
297 741 360 58 51 122 
286 965 402 114 87 50 
247 59 411 93 75 55 
244 59 412 89 71 51 
176 414 408 68 95 130 
176 644 392 94 97 105 
218 771 301 90 120 185 
277 735 338 148 145 151 
346 440 482 128 139 156 
151 225 459 82 99 119 
288 742 341 173 180 193 
223 890 458 154 112 87 
353 614 411 79 110 137 
160 345 492 110 124 142 
344 615 545 103 114 127 
213 584 513 99 126 167 
348 615 519 40 84 114 
322 300 513 70 106 135 
247 60 412 94 76 57 
282 692 335 150 150 159 
307 833 421 181 131 98 
280 561 339 155 153 158 
172 665 394 74 91 125 
301 897 462 166 121 92 
320 293 492 109 122 137 
363 575 465 88 120 148 
185 574 475 87 99 131 
254 908 504 136 110 87 
173 401 403 84 95 134 
324 274 499 80 112 139 
150 227 416 106 117 132 
293 664 569 97 136 181 
317 152 491 40 64 92 
261 310 447 73 91 110 
278 997 428 96 75 52 
268 92 369 151 109 76 
257 602 528 176 170 173 
260 316 444 78 98 121 
238 183 405 122 109 123 
218 558 363 88 104 127 
278 972 398 132 106 78 
327 732 412 155 121 83 
297 569 350 103 123 145 
346 587 492 163 163 171 
270 644 556 172 124 104 
356 661 438 153 173 197 
155 702 303 96 106 124 
218 932 456 96 78 66 
219 208 403 163 103 86 
172 467 496 69 100 124 
295 317 427 183 138 84 
219 468 527 91 110 136 
267 245 467 112 74 70 
331 440 449 100 124 150 
155 735 393 131 148 168 
254 229 458 55 60 80 
252 514 346 125 133 145 
275 19 395 143 132 126 
170 435 411 83 96 113 
289 136 520 127 63 17 
300 634 552 90 81 74 
273 30 396 148 134 126 
283 284 527 131 131 137 
358 566 442 89 131 165 
168 619 382 131 92 86 
337 600 473 118 126 140 
154 426 444 114 124 140 
324 767 408 117 116 119 
187 824 336 184 85 57 
285 617 518 72 91 119 
292 542 350 128 137 150 
166 479 456 179 177 181 
337 693 410 175 44 48 
349 772 470 169 118 79 
172 459 470 154 152 158 
205 585 367 62 75 88 
197 458 521 73 100 145 
300 622 529 36 61 109 
204 433 517 72 35 22 
192 192 500 111 105 104 
279 493 354 86 100 116 
305 802 456 208 156 129 
132 226 468 119 102 127 
270 916 389 73 54 38 
165 521 432 57 85 131 
300 506 552 130 148 177 
287 629 548 89 81 76 
225 731 497 202 170 138 
326 689 379 98 140 175 
273 274 522 128 118 121 
166 534 417 196 181 173 
178 199 485 73 47 46 
153 234 442 107 70 13 
338 588 398 165 161 165 
199 613 371 88 81 76 
295 989 416 201 172 146 
257 59 338 153 136 123 
251 847 428 169 127 100 
252 50 408 101 80 60 
142 620 324 113 100 88 
200 275 520 78 115 146 
144 207 386 132 82 66 
152 603 390 152 113 99 
177 799 316 180 200 223 
373 675 590 159 173 218 
314 898 423 73 60 53 
278 628 544 91 82 76 
252 54 408 104 82 60 
252 54 409 103 82 61 
170 644 411 101 109 136 
253 189 441 89 48 42 
293 749 505 90 117 141 
325 331 525 164 160 164 
254 53 408 106 84 62 
264 416 376 57 90 117 
320 710 384 94 69 94 
282 631 532 46 44 44 
148 423 385 141 152 168 
161 278 492 120 127 140 
348 591 416 78 113 143 
263 600 529 162 155 157 
350 686 446 90 73 95 
215 220 403 81 118 149 
218 240 492 77 73 81 
183 285 388 118 95 86 
286 592 337 157 155 159 
263 947 402 111 75 41 
304 819 397 181 142 106 
282 578 535 125 128 137 
236 825 341 210 156 106 
175 698 265 62 101 162 
366 722 484 102 95 92 
249 616 326 141 143 149 
254 863 404 187 141 110 
322 401 441 50 79 102 
227 484 362 76 96 119 
223 629 338 37 84 116 
189 195 503 72 76 84 
163 625 407 159 107 97 
164 321 498 164 128 88 
251 59 410 101 78 58 
341 526 428 115 137 160 
240 405 389 35 71 96 
268 690 328 71 121 168 
369 634 542 94 114 134 
202 820 371 156 132 109 
201 423 515 95 40 14 
324 934 472 119 98 81 
271 379 530 115 124 137 
316 221 494 128 47 75 
181 563 363 64 79 94 
271 431 369 120 124 130 
188 817 328 208 38 52 
158 459 457 157 158 167 
180 716 271 117 127 145 
254 882 413 128 94 69 
164 548 432 137 134 137 
223 932 476 168 133 109 
263 279 458 106 107 111 
249 60 412 98 78 58 
368 634 531 69 100 129 
295 416 382 132 136 144 
178 513 490 87 89 124 
235 675 290 89 113 137 
196 674 281 102 119 139 
215 697 506 158 65 48 
159 599 414 102 78 61 
165 530 378 55 84 107 
234 624 331 31 90 128 
295 792 463 197 149 124 
208 409 370 112 74 55 
185 277 390 163 153 148 
188 404 357 151 70 0 
359 710 474 63 73 84 
166 615 371 135 90 81 
329 655 372 146 145 149 
229 521 533 69 95 154 
182 699 377 71 86 121 
216 751 468 183 117 122 
355 634 402 142 150 163 
288 706 516 162 126 123 
153 246 468 132 130 135 
327 610 539 35 68 90 
193 640 301 112 132 152 
276 953 491 95 73 55 
317 638 362 86 133 169 
139 659 317 161 111 89 
210 444 517 120 56 76 
253 828 427 160 114 90 
262 235 483 85 28 25 
239 151 429 66 52 37 
264 757 335 148 153 164 
183 534 455 126 135 150 
291 583 343 120 136 155 
231 933 492 194 148 126 
355 506 492 118 138 162 
356 743 463 204 168 131 
146 633 312 105 94 84 
204 694 333 150 151 158 
142 317 401 162 138 114 
326 314 514 154 149 152 
164 304 520 143 152 168 
262 854 489 153 118 96 
254 854 397 193 145 113 
278 729 339 112 128 148 
181 690 379 118 127 141 
246 673 295 112 133 157 
249 217 445 61 50 63 
190 703 363 36 53 92 
251 200 433 125 72 71 
239 292 492 63 53 56 
314 185 484 131 62 45 
182 638 308 66 91 126 
302 662 346 78 124 160 
283 620 520 76 94 112 
271 780 470 210 156 132 
264 505 348 115 123 136 
162 673 437 111 116 124 
205 759 446 177 146 123 
234 133 386 140 120 105 
273 428 541 120 135 153 
307 350 541 146 105 118 
321 295 513 73 112 143 
281 804 364 155 129 100 
311 135 524 99 100 109 
153 418 452 159 153 153 
237 937 496 205 159 140 
161 396 479 94 115 144 
227 954 433 100 83 65 
214 508 359 74 99 131 
261 368 522 152 118 74 
206 13 460 95 77 62 
245 729 306 169 171 181 
258 209 509 84 42 45 
240 371 505 61 69 77 
290 181 460 56 40 46 
342 572 506 173 168 172 
206 12 463 96 80 68 
294 763 488 201 151 121 
171 450 404 88 101 118 
206 14 460 94 75 59 
245 525 344 98 112 127 
373 675 499 155 171 192 
294 567 348 90 112 133 
234 620 337 83 104 125 
274 449 365 130 133 140 
221 548 356 109 113 120 
203 12 467 102 89 80 
274 284 522 132 128 131 
239 664 533 135 157 205 
239 888 425 112 82 50 
159 600 420 84 70 56 
165 393 503 173 73 4 
229 555 351 125 129 139 
242 506 542 139 144 155 
343 605 405 84 76 79 
287 629 546 87 79 74 
264 80 503 101 85 69 
278 264 524 135 131 132 
254 326 437 65 68 73 
247 971 457 80 62 47 
326 536 393 108 130 156 
158 617 342 102 92 86 
228 335 401 139 121 103 
318 913 465 114 95 82 
349 698 456 156 15 49 
239 300 466 96 84 84 
185 521 462 151 153 161 
323 672 579 123 138 184 
161 225 495 85 63 76 
253 305 498 66 76 86 
242 872 490 170 124 106 
328 373 465 61 97 125 
278 833 374 189 142 110 
291 122 470 119 81 42 
217 641 519 177 126 116 
137 625 331 134 99 77 
227 786 442 198 146 127 
153 444 439 143 143 149 
264 990 455 108 74 51 
253 747 327 125 140 173 
278 255 465 99 98 104 
312 678 575 126 155 195 
133 217 472 78 69 80 
263 181 462 102 69 94 
249 274 466 113 100 98 
332 368 484 94 133 166 
147 194 389 135 106 112 
161 601 346 96 90 87 
277 738 503 171 156 148 
265 807 346 122 107 95 
263 147 443 135 79 34 
155 744 317 119 125 157 
145 290 405 116 129 147 
201 736 277 78 119 180 
156 234 478 93 90 95 
234 758 310 118 132 162 
180 675 269 125 138 160 
248 982 438 135 110 82 
366 690 487 113 61 88 
270 963 401 91 73 53 
321 532 537 109 126 162 
211 407 521 137 113 87 
245 631 313 35 50 83 
169 497 369 107 122 143 
323 652 369 82 108 135 
288 944 401 83 62 49 
129 668 306 157 109 84 
205 11 472 99 78 59 
167 517 433 98 113 138 
184 206 396 45 64 93 
325 292 503 100 112 130 
266 872 385 135 107 88 
168 379 508 181 152 122 
185 752 356 117 130 146 
229 191 403 146 66 84 
195 758 285 140 145 204 
197 364 371 159 139 118 
180 534 481 80 100 137 
156 236 482 98 86 87 
150 211 389 135 105 90 
234 772 321 155 157 172 
377 689 519 153 90 94 
221 707 509 147 112 116 
287 289 530 106 119 136 
163 690 413 126 140 157 
205 15 473 121 90 72 
327 345 483 158 156 160 
260 180 509 98 49 61 
228 290 413 82 101 121 
230 234 414 152 61 88 
206 13 475 101 76 54 
335 333 540 106 118 133 
228 403 385 105 86 85 
258 242 465 101 43 55 
313 709 373 137 142 154 
233 587 361 95 97 102 
289 549 347 113 128 147 
348 536 436 107 134 161 
207 12 476 97 74 57 
272 514 346 97 106 117 
272 48 501 87 72 57 
320 726 391 138 96 53 
161 247 505 99 31 56 
236 517 350 119 125 135 
302 827 432 189 133 104 
327 635 535 59 73 92 
289 202 458 95 39 57 
310 501 377 72 102 128 
299 250 464 81 74 87 
154 416 454 153 149 152 
205 17 459 96 72 53 
263 965 401 112 86 53 
210 791 422 160 152 149 
311 903 455 153 105 83 
206 17 457 98 75 53 
328 788 409 166 137 112 
248 209 428 108 84 86 
342 622 397 123 131 143 
204 598 507 110 130 158 
321 753 405 151 132 116 
355 528 482 106 122 159 
214 704 492 88 79 72 
219 577 519 155 169 193 
206 19 458 104 80 56 
308 127 524 137 67 4 
364 578 451 97 136 169 
159 549 397 99 124 151 
217 720 279 104 119 170 
306 929 473 107 87 70 
278 503 550 115 131 165 
154 337 458 135 136 145 
277 557 338 155 154 159 
261 825 434 171 119 97 
315 180 526 112 98 108 
199 790 408 167 141 119 
123 683 279 141 102 77 
314 818 406 184 139 105 
315 284 520 150 152 161 
221 919 474 164 126 99 
293 56 488 124 112 103 
300 772 485 197 149 118 
291 154 459 130 27 12 
199 663 303 103 113 156 
249 200 428 107 67 65 
221 591 516 127 149 174 
163 241 500 52 58 65 
270 744 499 114 136 158 
202 313 526 157 159 166 
239 828 402 186 135 113 
218 761 459 111 97 86 
283 115 503 105 95 85 
178 583 373 64 73 83 
355 528 469 127 140 157 
363 689 483 151 41 56 
255 419 531 64 93 126 
281 78 499 115 95 76 
275 500 351 137 136 140 
205 21 460 115 87 65 
165 397 505 150 77 13 
218 201 467 52 39 32 
302 961 454 104 85 66 
173 707 384 72 86 100 
203 412 363 111 74 71 
175 427 394 92 109 138 
286 747 340 169 178 194 
204 259 397 86 120 149 
246 705 295 82 116 172 
145 692 303 75 94 131 
151 342 372 141 112 106 
272 767 480 207 158 126 
168 617 456 93 114 139 
327 419 440 102 120 141 
319 501 389 158 156 159 
272 811 446 194 148 130 
213 588 368 39 48 57 
245 440 379 59 84 108 
270 997 439 96 70 55 
293 760 375 168 145 124 
207 24 462 140 101 89 
331 358 486 98 119 145 
333 680 381 97 169 220 
281 52 501 126 116 110 
199 239 513 88 86 93 
155 716 415 125 141 161 
145 340 404 149 82 38 
327 476 416 154 157 167 
168 626 401 148 93 93 
265 594 533 106 122 153 
324 602 493 133 135 142 
257 98 391 127 98 69 
129 660 284 110 87 61 
171 391 426 76 95 135 
157 282 375 151 153 162 
348 667 414 136 167 199 
279 728 339 105 122 143 
168 494 392 77 90 109 
199 769 293 118 133 201 
261 976 464 99 76 59 
256 360 514 112 69 9 
126 675 270 116 92 64 
314 624 538 121 120 126 
322 596 379 103 115 130 
254 128 399 115 90 62 
286 865 481 161 116 85 
225 176 398 61 93 125 
257 181 463 91 51 62 
198 659 307 115 114 162 
247 161 410 122 43 63 
205 17 470 127 103 84 
257 67 503 118 99 81 
255 143 415 131 116 104 
365 703 568 164 175 194 
335 611 533 29 55 71 
288 456 550 101 127 163 
275 831 440 159 113 84 
208 401 370 118 106 96 
275 19 402 127 113 105 
286 784 470 207 158 132 
289 866 451 165 123 90 
306 567 532 129 136 163 
191 698 307 91 106 138 
318 926 440 72 56 48 
207 19 471 129 97 78 
269 971 480 91 72 56 
319 905 450 91 77 64 
328 605 488 107 108 115 
184 772 413 179 141 136 
132 195 396 126 103 91 
153 329 449 127 136 151 
148 205 432 100 30 45 
263 46 358 134 119 109 
205 387 514 111 76 46 
247 704 297 117 140 169 
210 750 289 99 136 196 
308 826 403 182 139 109 
223 694 514 174 62 46 
226 770 310 107 110 124 
181 505 470 99 115 143 
184 622 332 76 107 132 
327 802 420 185 136 102 
275 701 512 119 111 107 
310 166 529 76 113 142 
282 254 466 98 106 118 
170 286 511 138 136 140 
339 378 495 61 97 127 
300 591 350 107 129 154 
165 604 440 130 87 82 
198 209 397 101 85 92 
284 578 339 131 140 153 
182 814 328 110 78 133 
161 655 286 102 93 87 
154 218 445 143 64 8 
182 643 297 71 103 131 
200 184 466 96 42 12 
378 677 588 180 194 228 
332 800 434 200 145 112 
204 292 391 142 141 144 
324 696 365 195 191 195 
158 370 400 135 120 108 
375 718 528 203 172 136 
246 479 540 167 164 167 
209 679 490 157 116 113 
211 617 373 82 75 70 
170 263 499 136 133 135 
207 18 473 136 104 86 
223 311 403 109 116 127 
153 662 281 97 86 77 
199 751 283 129 143 195 
207 18 475 129 100 83 
255 707 316 163 165 176 
311 918 409 66 50 45 
353 636 398 133 140 151 
263 844 375 227 158 114 
260 424 534 106 121 139 
181 622 339 84 111 153 
182 570 466 143 144 152 
208 14 459 98 77 61 
208 15 458 99 76 57 
166 705 258 130 141 172 
192 787 305 143 159 216 
329 659 370 149 150 158 
296 728 342 184 182 190 
274 915 502 175 133 107 
149 647 327 152 105 86 
265 320 512 80 101 121 
338 724 540 121 134 148 
196 196 494 111 60 62 
300 353 539 136 34 76 
318 328 480 142 110 77 
321 802 464 214 158 129 
186 690 372 45 74 118 
313 936 466 97 79 66 
140 351 391 107 125 145 
315 117 509 115 99 84 
233 698 285 126 146 172 
162 276 513 125 131 142 
156 612 373 158 105 92 
148 301 462 133 134 142 
258 144 482 91 73 51 
204 523 355 137 147 162 
164 787 337 141 162 187 
162 622 402 160 100 93 
236 801 434 182 131 112 
178 796 313 176 197 220 
197 448 353 78 110 142 
257 694 310 62 111 165 
157 678 299 118 89 82 
162 605 349 95 89 86 
158 376 398 134 105 110 
228 404 511 45 45 46 
330 325 539 107 114 124 
214 14 459 106 81 63 
309 573 528 107 111 157 
167 560 444 142 142 149 
157 335 485 152 115 62 
212 13 461 101 79 63 
324 806 417 184 134 104 
339 792 455 202 137 106 
156 440 460 93 108 146 
307 363 449 57 80 100 
302 532 361 119 131 147 
159 614 338 104 94 87 
264 11 401 129 117 109 
149 224 412 130 129 133 
285 232 528 125 37 78 
243 660 297 86 105 127 
291 421 379 110 124 140 
245 248 449 84 66 74 
286 502 355 112 117 126 
229 314 408 125 126 131 
228 160 394 82 77 106 
214 13 463 101 79 63 
271 74 474 140 114 86 
268 385 530 144 142 146 
165 684 429 135 147 163 
250 851 428 166 125 96 
232 346 510 102 110 126 
339 417 545 156 157 166 
214 808 403 161 138 129 
124 661 298 140 102 72 
155 411 464 136 137 145 
151 319 455 123 133 148 
353 520 497 90 117 146 
245 875 498 114 68 58 
260 418 376 81 99 117 
252 237 458 74 41 54 
256 155 441 125 80 39 
335 542 524 89 116 155 
352 525 459 96 122 149 
343 607 404 117 116 120 
170 647 474 64 55 118 
228 468 365 99 110 124 
218 13 463 107 85 69 
262 94 384 134 109 90 
300 639 564 121 99 75 
166 651 415 177 178 187 
248 971 454 85 57 43 
163 725 263 148 152 207 
275 428 371 96 109 125 
290 717 343 110 121 139 
160 777 325 153 166 184 
277 946 405 119 84 41 
193 727 270 160 164 199 
236 253 470 46 36 33 
291 279 456 146 148 156 
302 368 436 50 82 109 
292 199 531 70 80 101 
274 518 548 155 164 181 
256 220 460 44 53 76 
364 629 542 59 88 114 
221 14 462 115 94 80 
221 14 463 115 94 80 
323 681 578 107 137 194 
222 14 461 118 97 84 
219 913 424 94 71 46 
213 380 380 139 66 0 
236 332 496 66 68 73 
222 14 462 118 97 84 
133 666 310 161 112 89 
286 817 441 186 137 112 
223 14 463 117 98 86 
255 274 484 98 95 99 
314 458 554 163 175 193 
214 816 386 176 157 144 
299 286 467 110 118 130 
269 985 459 148 117 82 
337 453 458 152 156 167 
235 870 442 130 98 65 
248 983 438 140 114 89 
134 720 278 121 153 200 
312 582 364 173 167 168 
248 949 494 118 89 78 
260 365 520 143 106 66 
250 953 407 148 116 79 
209 11 468 96 78 64 
213 639 328 70 99 136 
138 635 308 107 91 75 
306 794 390 115 127 143 
201 509 353 97 123 155 
140 658 320 160 108 90 
269 195 520 103 43 57 
288 945 400 98 77 61 
291 865 466 153 116 84 
305 204 472 94 42 40 
228 868 463 156 114 85 
210 11 471 96 76 60 
247 857 488 128 103 78 
268 78 473 128 103 75 
317 126 492 151 71 7 
304 303 470 102 105 112 
307 872 430 109 81 54 
325 320 520 163 159 163 
245 944 404 94 70 42 
318 370 547 93 120 152 
342 553 418 139 145 157 
211 12 466 96 78 63 
272 255 465 122 56 24 
164 724 263 140 147 204 
174 406 402 131 134 143 
286 660 519 59 109 144 
235 180 446 68 32 17 
174 417 359 136 119 104 
364 713 558 172 60 73 
259 329 436 66 58 61 
262 152 443 135 84 44 
212 11 470 96 76 60 
266 628 532 82 75 70 
304 974 426 114 92 75 
246 649 534 66 63 98 
214 11 468 97 77 62 
340 573 407 140 142 150 
317 819 431 209 148 116 
219 620 513 53 50 49 
286 177 470 55 36 36 
193 518 353 130 142 164 
353 619 523 14 57 90 
388 660 571 104 129 162 
156 608 413 154 99 94 
153 231 424 110 102 95 
298 855 402 180 133 96 
186 349 369 129 56 56 
271 763 482 203 152 121 
172 631 441 165 153 149 
321 474 403 114 132 155 
151 312 468 105 125 146 
181 741 372 99 121 145 
319 584 375 121 137 157 
229 177 399 100 106 134 
299 740 350 168 130 130 
230 740 493 162 98 115 
158 512 403 159 163 176 
331 414 461 145 154 169 
347 409 505 86 110 148 
158 354 458 100 121 147 
324 758 514 128 114 104 
312 360 458 81 97 113 
254 969 402 120 89 58 
330 405 460 89 116 146 
159 477 413 99 112 131 
342 733 443 151 135 125 
164 388 503 173 73 4 
155 258 474 69 108 138 
269 78 503 96 80 63 
157 278 478 146 142 145 
234 374 400 112 105 98 
364 694 578 174 203 236 
343 697 559 66 81 134 
307 734 514 194 155 109 
335 654 581 133 105 75 
245 284 443 121 120 124 
303 238 468 75 110 139 
246 486 354 81 100 121 
198 220 397 79 83 102 
235 616 341 57 90 120 
247 647 533 76 55 67 
298 966 452 95 69 56 
257 201 505 85 19 35 
254 697 304 145 161 184 
269 634 519 51 52 55 
311 159 482 59 45 62 
231 960 437 96 77 63 
210 11 479 102 87 77 
320 907 461 127 99 78 
211 11 479 102 87 79 
166 441 472 108 124 153 
318 352 547 147 130 115 
223 704 512 140 93 72 
260 843 482 124 92 65 
207 481 526 125 141 163 
284 868 485 163 121 89 
216 388 510 139 114 91 
208 13 478 97 78 65 
175 566 368 67 91 112 
319 171 523 115 87 83 
152 340 412 141 91 76 
183 685 272 112 128 149 
280 618 331 122 132 145 
217 207 402 175 99 73 
224 756 471 179 169 165 
184 753 361 140 142 149 
311 606 507 68 81 96 
193 719 459 163 69 40 
168 647 425 68 97 120 
262 564 546 174 175 184 
262 347 425 128 126 127 
345 609 458 39 48 62 
148 720 262 144 151 208 
272 86 504 108 90 71 
306 873 428 118 91 66 
275 305 521 100 109 123 
382 670 546 88 121 151 
155 711 309 88 99 127 
259 246 493 67 31 41 
231 682 287 92 117 144 
159 692 298 71 87 107 
170 379 415 86 103 130 
275 836 443 157 115 85 
267 337 433 120 119 121 
238 907 496 110 91 71 
150 333 415 131 125 126 
166 500 389 71 83 97 
268 92 374 145 107 92 
161 545 434 150 149 154 
312 157 482 59 45 61 
284 634 337 158 158 165 
299 517 361 27 63 110 
206 798 408 99 85 77 
376 657 532 130 142 161 
312 160 528 99 107 118 
256 93 401 113 90 65 
360 732 466 114 102 92 
159 259 515 70 96 118 
262 750 489 190 142 111 
215 11 478 104 92 85 
244 218 422 104 96 107 
161 744 422 163 22 53 
208 252 507 124 96 69 
167 511 372 92 111 132 
249 553 542 130 143 164 
231 889 432 132 35 18 
331 593 387 95 116 137 
248 420 528 58 93 126 
168 656 413 185 181 184 
217 12 466 102 82 67 
203 721 466 97 99 105 
218 13 464 106 85 70 
339 694 553 155 50 65 
262 943 399 98 71 43 
302 485 371 71 97 122 
310 421 407 92 107 125 
324 637 544 62 67 77 
167 559 416 103 35 54 
263 163 445 68 82 102 
226 620 519 42 41 41 
165 783 309 138 144 184 
214 132 415 74 65 56 
324 684 363 112 135 163 
170 429 388 127 134 147 
205 660 351 55 76 135 
366 733 510 150 136 127 
204 680 355 72 105 132 
180 549 482 95 125 155 
351 481 481 145 152 165 
179 465 476 134 143 159 
318 559 377 165 162 166 
159 401 392 130 133 143 
219 12 469 104 86 74 
171 665 277 117 117 136 
364 591 467 94 140 176 
331 775 415 98 89 83 
241 370 506 66 75 85 
134 710 296 104 137 175 
318 918 467 132 108 84 
243 659 539 108 137 191 
347 462 475 115 128 146 
236 471 366 89 106 124 
220 13 466 106 87 74 
149 389 378 131 116 103 
214 613 379 61 71 84 
250 363 511 140 113 87 
152 282 375 143 144 152 
293 204 449 92 50 40 
187 496 354 110 127 150 
302 980 420 155 129 103 
269 170 519 120 85 70 
306 858 415 129 95 64 
223 13 467 111 95 84 
155 468 439 107 117 137 
246 886 503 195 145 128 
223 14 465 115 97 86 
315 426 553 158 165 178 
206 639 316 73 123 171 
209 301 523 137 136 141 
221 12 469 106 89 78 
233 650 302 87 109 130 
323 695 363 187 183 188 
297 572 532 125 136 161 
188 780 404 112 99 105 
221 12 471 105 90 81 
368 675 481 165 156 160 
276 799 456 195 146 125 
200 198 397 154 71 65 
235 326 499 57 62 75 
258 210 465 64 39 55 
271 630 531 61 57 54 
179 398 509 166 66 6 
264 116 504 97 80 62 
189 723 455 190 101 37 
323 329 482 123 88 45 
300 66 500 108 77 51 
303 885 446 122 92 69 
186 652 488 168 112 86 
217 11 473 100 83 73 
353 619 499 107 115 126 
159 621 337 102 91 84 
314 921 429 70 57 51 
194 635 357 45 65 132 
221 697 280 64 100 141 
268 702 329 116 143 176 
183 483 513 151 160 177 
323 582 383 112 129 149 
369 629 489 97 109 125 
338 599 477 89 116 144 
216 11 478 105 93 87 
362 626 511 71 96 120 
301 804 386 92 121 147 
172 533 440 118 132 150 
179 555 483 110 136 165 
289 716 513 174 159 151 
310 593 514 120 136 157 
143 669 315 159 110 94 
296 442 550 68 100 152 
217 707 498 88 94 118 
260 229 491 74 28 28 
258 249 506 121 117 116 
303 964 447 82 67 56 
157 714 426 118 138 160 
331 406 463 57 92 137 
325 373 460 65 95 120 
204 676 356 53 97 127 
173 649 438 118 117 123 
227 193 456 53 40 38 
294 56 501 92 83 74 
219 12 474 104 90 83 
183 193 503 45 83 110 
352 767 492 112 128 146 
355 668 445 180 190 207 
320 673 539 158 58 77 
371 702 502 177 151 119 
353 552 443 170 169 175 
156 270 473 64 104 134 
175 744 274 151 155 213 
334 535 409 161 166 177 
305 638 352 81 119 150 
153 607 335 105 95 88 
343 438 535 115 134 159 
228 374 390 137 69 0 
344 728 540 135 118 110 
220 12 472 104 89 80 
145 289 423 126 133 144 
221 12 472 105 91 83 
221 12 473 105 93 85 
271 208 464 100 36 32 
261 34 474 71 58 49 
334 562 404 86 106 128 
230 884 441 136 105 77 
387 663 592 103 133 195 
289 296 444 60 87 112 
223 12 472 108 95 88 
275 235 523 124 30 70 
175 632 395 107 117 146 
237 556 533 149 156 170 
161 545 437 124 135 153 
176 802 367 114 107 103 
269 57 474 118 97 75 
294 633 526 34 52 67 
236 304 496 49 40 39 
212 349 530 117 126 140 
122 675 289 139 98 72 
223 12 477 108 98 93 
183 566 467 98 114 137 
222 12 479 109 99 94 
223 12 478 109 99 94 
155 732 419 181 10 57 
161 572 390 84 101 120 
268 654 556 99 108 151 
341 591 493 147 155 170 
138 239 393 153 149 152 
304 854 411 149 113 83 
156 248 385 88 121 151 
124 689 289 162 115 89 
254 149 493 108 46 12 
225 903 434 125 88 63 
197 269 518 104 64 85 
238 149 427 65 53 39 
297 754 502 127 93 66 
209 19 456 111 85 60 
174 432 392 101 117 140 
157 733 427 108 145 173 
312 677 528 78 84 143 
193 735 357 105 111 122 
321 808 443 210 154 119 
256 239 475 91 42 44 
238 426 380 109 111 117 
167 332 367 178 153 128 
279 99 481 113 90 61 
153 429 386 103 116 132 
261 160 472 107 54 34 
286 965 471 94 74 61 
180 473 478 103 114 151 
249 933 382 110 93 78 
168 657 461 111 129 148 
209 22 457 118 86 60 
164 550 441 105 122 142 
160 501 378 114 138 169 
285 843 440 157 111 80 
257 286 498 94 93 97 
294 600 344 148 153 163 
358 714 557 121 121 147 
190 444 519 61 94 140 
153 606 392 157 114 102 
155 399 454 94 117 139 
280 135 473 113 98 88 
283 769 356 128 111 101 
325 417 436 87 109 130 
176 436 505 84 106 140 
167 649 409 83 95 110 
266 77 473 120 96 68 
168 745 380 116 133 153 
318 269 494 81 111 137 
211 23 458 124 91 72 
278 589 333 93 93 98 
146 670 268 97 86 77 
248 840 396 195 146 119 
234 305 415 127 124 126 
162 339 366 153 127 94 
286 662 515 66 109 142 
363 598 433 111 132 154 
285 354 534 86 114 139 
305 440 387 115 126 142 
212 18 456 114 86 61 
245 817 339 175 133 107 
314 528 542 182 182 190 
198 225 397 50 74 107 
311 445 394 70 100 128 
260 16 477 93 80 67 
217 703 502 90 77 110 
263 70 378 111 91 70 
140 712 260 137 157 197 
162 654 278 98 89 82 
221 781 314 168 181 201 
255 143 428 124 97 84 
143 307 399 156 138 123 
146 210 450 97 0 50 
248 733 502 120 120 132 
221 580 519 112 132 178 
137 724 276 173 180 199 
184 804 372 100 112 126 
309 781 490 190 146 116 
332 801 440 207 150 116 
307 266 474 111 126 143 
306 757 506 138 109 84 
262 217 487 57 29 46 
270 142 461 148 111 81 
206 465 356 78 106 136 
215 795 318 173 139 145 
140 626 320 111 95 79 
259 456 540 131 139 152 
283 886 492 175 130 103 
174 729 375 105 116 131 
312 271 533 139 142 150 
166 284 380 97 116 136 
278 875 394 142 112 87 
336 520 420 130 147 168 
242 663 537 79 104 168 
317 189 525 116 110 126 
311 935 470 105 87 72 
367 730 504 153 136 123 
309 453 389 116 126 140 
334 615 546 97 118 139 
208 24 460 135 99 81 
310 234 521 143 71 5 
266 195 468 105 49 37 
173 503 447 116 135 163 
146 640 334 164 116 96 
169 760 378 57 60 76 
250 224 448 40 45 64 
145 607 340 111 96 82 
270 827 439 159 113 87 
341 419 484 110 129 151 
327 387 552 66 101 152 
209 153 443 80 77 76 
264 173 515 92 71 81 
235 174 445 62 50 38 
305 836 404 180 135 105 
197 655 368 75 95 117 
272 38 484 104 91 82 
317 171 525 86 88 99 
203 499 523 44 66 114 
235 178 445 68 37 19 
303 360 540 127 141 160 
351 471 483 82 113 149 
129 708 282 178 127 105 
166 434 416 79 95 115 
212 24 462 111 74 61 
267 241 468 102 50 56 
342 624 552 134 139 151 
149 360 375 177 151 125 
194 237 511 82 71 87 
214 24 461 133 90 76 
203 834 352 169 143 121 
185 725 324 111 119 134 
279 418 542 66 100 142 
303 675 522 102 90 90 
330 624 385 158 154 157 
232 799 432 182 127 109 
248 160 412 127 111 112 
178 541 447 112 125 142 
221 631 335 53 97 128 
303 436 387 161 159 163 
180 482 470 107 124 145 
217 16 459 116 90 75 
269 516 345 98 111 127 
234 829 394 183 136 107 
192 668 292 88 105 123 
320 812 439 209 150 115 
217 18 457 125 98 79 
340 547 418 109 127 148 
276 901 496 98 62 61 
201 247 516 117 66 64 
205 225 495 63 74 86 
291 875 481 162 116 88 
323 442 415 76 105 133 
291 993 431 141 115 88 
230 475 365 114 117 124 
258 276 501 85 55 55 
262 801 342 131 120 112 
158 261 517 74 110 140 
195 830 358 150 140 134 
166 430 476 121 130 149 
