ply
format ascii 1.0
comment Created by CloudCompare v2.11.1 (Anoia)
comment Created 2/28/22 9:38 PM
obj_info Generated by CloudCompare!
element vertex 2000
property float x
property float y
property float z
property uchar red
property uchar green
property uchar blue
end_header
159 163 453 94 49 45 
168 229 455 142 61 9 
223 957 435 110 90 71 
183 699 357 118 126 142 
285 762 366 129 104 76 
328 384 479 86 110 133 
264 37 479 72 61 53 
239 765 324 154 140 143 
243 413 358 61 93 121 
223 286 405 87 112 137 
252 230 438 52 57 72 
152 375 370 209 167 116 
187 802 392 188 170 158 
282 946 484 147 111 88 
203 294 529 101 128 157 
370 625 484 48 77 100 
166 620 350 7 84 125 
318 798 456 210 156 125 
149 718 418 114 135 158 
306 581 364 129 138 151 
185 447 516 128 143 163 
219 725 485 138 115 99 
339 601 441 125 126 131 
352 483 471 116 130 154 
277 705 503 150 127 132 
176 650 383 62 76 102 
322 393 451 122 133 148 
291 190 449 85 40 39 
185 809 327 188 181 198 
160 153 459 78 37 52 
148 174 400 124 89 102 
333 685 512 150 36 59 
383 711 482 156 76 50 
243 446 525 90 105 125 
287 360 531 135 57 86 
303 175 464 110 45 49 
190 270 499 119 124 135 
270 741 327 166 168 181 
310 418 414 77 114 153 
368 623 459 89 104 121 
402 687 543 136 157 210 
315 259 507 85 84 87 
355 603 400 94 121 145 
178 359 434 77 100 134 
255 785 338 118 104 96 
319 585 504 108 117 151 
150 175 400 122 103 116 
151 174 400 119 99 111 
269 853 451 128 92 62 
260 830 428 173 124 100 
155 708 318 94 109 131 
187 479 509 99 122 162 
300 708 358 160 160 169 
148 610 362 89 83 79 
153 167 400 140 101 97 
246 173 435 76 45 42 
184 651 324 24 72 127 
153 168 400 136 98 99 
230 895 422 143 63 23 
201 515 516 138 153 173 
153 240 410 139 137 141 
223 695 497 159 133 105 
244 806 340 143 109 74 
229 151 385 199 81 7 
223 447 533 75 55 50 
210 555 518 93 108 139 
346 391 498 62 101 132 
179 339 519 144 10 55 
154 170 400 129 108 115 
276 923 381 79 60 44 
289 459 541 166 170 180 
222 257 534 130 85 78 
175 706 376 19 43 77 
241 655 523 107 126 154 
284 487 361 62 98 132 
168 373 396 141 123 105 
228 733 492 176 120 63 
326 799 404 196 144 112 
171 741 349 111 122 141 
160 476 386 129 136 148 
301 612 498 45 61 80 
292 877 467 163 111 90 
330 775 483 202 150 122 
231 501 528 113 131 163 
184 780 307 138 145 207 
268 441 359 134 136 143 
198 526 513 81 101 147 
174 423 401 66 92 131 
138 596 400 150 112 98 
152 738 284 182 172 176 
306 590 507 131 137 149 
228 163 443 63 50 37 
206 384 527 188 158 126 
265 740 326 185 184 194 
311 373 428 103 126 150 
174 794 392 110 113 123 
202 159 472 75 76 81 
273 667 514 120 145 171 
279 696 329 155 156 165 
241 621 311 120 122 129 
354 680 557 129 141 181 
272 598 331 97 125 154 
346 610 492 48 84 110 
192 570 371 98 110 126 
124 649 346 158 109 90 
237 441 529 96 71 89 
256 220 455 46 42 52 
226 253 398 89 122 151 
271 851 377 193 145 109 
342 639 381 166 188 214 
196 609 491 127 147 173 
241 335 500 59 84 105 
187 314 515 95 92 91 
183 289 376 154 153 159 
294 873 400 108 80 61 
282 147 512 107 105 109 
322 385 459 107 128 150 
211 617 507 123 99 85 
171 618 470 87 116 144 
142 323 386 120 100 112 
241 246 492 86 52 45 
295 717 363 134 132 142 
144 176 399 131 106 115 
147 268 388 134 137 146 
189 178 499 76 36 42 
258 516 537 110 120 155 
131 737 330 42 59 114 
213 168 470 66 62 59 
235 251 502 87 85 89 
184 321 508 106 61 80 
235 831 404 184 136 113 
307 117 509 115 104 96 
351 460 489 146 150 161 
317 373 457 60 104 136 
316 577 512 152 155 166 
180 243 392 88 112 133 
186 662 348 72 97 153 
242 881 415 142 109 82 
164 700 463 132 158 186 
193 345 368 115 116 119 
251 559 527 120 129 154 
150 259 398 140 141 148 
153 466 430 97 112 137 
249 853 444 117 87 59 
162 146 485 81 37 25 
247 844 368 229 163 120 
325 462 539 98 126 163 
151 480 439 98 104 140 
193 361 367 180 151 121 
206 641 315 90 116 141 
188 645 491 53 46 71 
374 639 452 159 162 173 
292 994 418 138 115 93 
298 850 410 154 113 80 
237 902 410 107 83 53 
198 547 370 104 113 126 
330 346 501 64 84 113 
239 548 524 174 175 183 
146 183 397 71 96 121 
147 182 397 79 97 119 
240 575 327 103 69 71 
267 504 341 115 123 135 
249 202 442 93 40 42 
195 668 485 179 126 46 
169 326 408 170 141 107 
208 133 398 123 104 86 
163 318 368 195 164 131 
193 479 516 76 107 166 
150 179 399 101 103 124 
349 775 481 209 148 111 
297 910 467 119 90 72 
167 369 365 163 100 69 
278 632 541 133 109 88 
262 785 350 147 122 95 
186 260 513 98 73 74 
157 709 414 107 116 128 
193 263 390 84 114 143 
281 947 391 132 106 78 
284 840 428 163 118 86 
159 661 306 59 72 108 
240 737 321 60 103 175 
283 763 475 204 152 119 
306 228 466 86 112 136 
231 583 333 77 107 132 
268 757 480 204 149 118 
153 546 415 119 134 152 
178 209 487 88 27 17 
168 647 397 56 66 104 
273 461 536 124 135 151 
150 182 399 97 99 117 
284 778 367 149 134 123 
260 344 394 124 133 146 
226 552 347 109 123 141 
266 671 324 132 89 84 
215 741 307 125 136 186 
247 802 442 188 137 121 
262 49 475 99 85 69 
285 978 444 101 82 65 
254 627 533 139 115 98 
142 690 309 69 90 115 
312 253 522 96 112 131 
174 649 466 80 131 169 
283 912 382 59 46 33 
366 749 459 173 143 113 
345 416 484 79 107 136 
187 494 508 143 152 168 
181 361 516 187 159 129 
169 326 465 118 130 146 
205 630 503 140 104 90 
142 719 279 169 164 178 
313 258 478 100 118 138 
302 926 393 115 94 75 
235 831 402 183 135 112 
264 604 325 83 123 155 
289 123 479 108 86 58 
197 500 498 52 64 111 
304 254 463 157 153 155 
345 364 504 90 109 129 
301 630 533 96 85 75 
144 790 344 202 207 219 
145 189 394 104 102 106 
316 607 505 55 88 114 
298 751 490 166 138 114 
360 592 450 133 88 102 
142 766 343 124 130 154 
236 177 437 58 44 32 
174 423 413 100 113 132 
314 267 493 88 79 93 
251 130 495 89 77 64 
266 127 506 91 82 76 
160 425 384 119 124 135 
320 670 355 126 143 163 
248 985 392 156 117 82 
248 161 416 107 91 90 
315 138 498 100 119 139 
115 653 304 97 88 79 
350 615 473 96 106 118 
148 187 394 109 95 94 
167 318 422 103 123 145 
173 236 528 62 79 96 
206 608 503 48 73 121 
185 685 478 123 108 96 
176 144 495 76 73 70 
353 602 400 99 122 144 
232 601 333 84 100 117 
298 228 522 131 21 69 
225 903 418 163 104 85 
335 491 530 177 172 176 
266 801 355 152 134 119 
149 186 396 110 90 100 
223 640 515 173 121 113 
280 627 515 65 57 52 
287 816 435 187 131 109 
293 806 376 138 113 88 
164 293 451 82 107 128 
238 508 335 146 148 157 
180 349 519 151 0 62 
159 692 307 61 90 134 
148 770 351 120 136 156 
356 532 455 74 113 157 
390 670 481 139 158 181 
263 720 323 140 157 186 
177 265 536 75 115 148 
222 669 296 74 104 134 
172 677 383 104 112 124 
307 335 442 109 68 65 
185 515 473 86 110 144 
279 616 506 122 121 124 
314 684 350 110 154 191 
303 161 458 68 48 76 
268 707 324 127 148 176 
274 770 359 129 117 111 
110 697 318 158 112 93 
273 494 349 93 111 132 
202 173 520 139 70 4 
322 525 532 116 122 170 
296 69 474 157 122 88 
275 503 540 185 179 182 
328 581 498 124 142 163 
354 539 440 162 163 171 
387 717 525 124 60 70 
136 773 315 121 137 189 
139 744 338 144 151 163 
192 818 332 217 185 131 
155 440 456 94 107 137 
267 980 458 94 63 40 
238 607 515 119 140 163 
380 733 488 95 114 149 
382 685 556 168 185 216 
269 944 491 192 140 114 
362 654 558 137 107 81 
173 279 530 143 141 145 
191 644 491 74 51 76 
237 564 330 158 155 160 
182 267 534 78 118 152 
313 141 478 86 72 89 
303 545 369 117 134 153 
259 672 323 149 152 162 
180 295 373 110 128 147 
189 601 378 68 76 85 
168 320 432 140 142 150 
238 202 481 41 40 43 
159 754 426 188 81 96 
301 132 459 182 71 15 
266 1001 426 112 88 63 
234 603 330 107 111 118 
183 177 497 64 33 28 
284 774 468 209 153 122 
152 783 311 143 149 196 
154 184 399 132 83 71 
267 322 414 134 127 124 
292 392 392 65 96 123 
164 364 367 151 24 55 
158 223 385 101 57 60 
210 456 358 125 140 166 
352 669 429 158 157 171 
314 716 380 200 159 103 
243 909 491 122 98 72 
159 750 395 149 158 172 
164 684 464 140 157 178 
146 140 483 103 75 45 
155 519 440 109 127 153 
314 273 494 76 106 133 
102 663 327 150 106 80 
186 683 351 92 108 152 
326 475 539 137 147 169 
219 505 346 134 140 151 
153 241 407 132 132 139 
153 188 396 126 80 73 
235 227 403 150 95 82 
145 281 375 154 153 159 
257 242 451 81 53 61 
263 241 454 96 32 42 
286 751 366 54 70 86 
379 658 460 168 172 184 
286 232 441 66 36 50 
152 196 493 87 82 85 
243 199 439 74 45 51 
383 642 480 45 73 108 
341 390 490 76 100 124 
169 422 422 67 86 107 
187 406 494 59 75 126 
265 870 376 139 113 95 
282 814 437 182 123 98 
187 350 512 60 52 57 
259 695 322 79 90 106 
240 815 425 185 129 110 
402 692 528 160 175 197 
258 66 379 112 94 77 
282 90 479 121 91 58 
149 783 355 135 146 162 
153 541 377 90 124 152 
318 911 435 122 85 71 
179 709 339 145 153 166 
406 683 529 152 166 196 
198 197 512 98 51 70 
197 791 421 188 158 126 
247 921 497 178 137 114 
255 525 535 153 159 171 
358 771 468 194 141 96 
140 401 374 167 79 0 
288 683 334 150 146 149 
144 167 474 108 96 88 
188 565 476 101 116 149 
278 627 514 66 59 54 
283 114 477 111 87 59 
268 341 511 123 92 54 
173 601 471 129 132 140 
157 189 397 129 71 76 
219 217 398 110 109 115 
324 242 516 120 64 18 
288 885 395 94 69 50 
163 725 387 109 119 132 
377 732 475 159 138 120 
332 705 407 140 38 61 
175 350 363 143 44 66 
317 791 389 135 119 107 
176 323 520 174 151 130 
142 637 351 102 83 76 
149 216 491 93 74 86 
271 487 348 74 99 124 
292 964 461 86 69 55 
250 384 370 84 104 123 
260 743 492 115 85 79 
332 739 410 134 120 111 
158 751 291 171 178 217 
226 306 519 104 111 124 
240 970 410 77 55 42 
168 798 318 197 207 225 
282 862 441 161 121 87 
311 427 417 144 153 169 
178 226 483 103 101 104 
261 951 489 169 131 108 
139 194 404 121 111 125 
208 785 323 152 170 193 
206 414 527 116 99 82 
289 711 362 127 139 157 
310 397 416 69 105 135 
398 701 512 170 181 199 
165 232 389 114 64 77 
260 928 498 190 153 129 
292 427 539 76 103 143 
271 15 413 124 102 91 
150 178 400 106 103 122 
150 179 400 105 104 126 
303 826 420 194 138 109 
281 242 447 100 50 64 
272 341 514 140 104 62 
283 484 541 92 113 158 
387 668 474 54 79 106 
268 785 460 216 164 139 
166 441 417 91 104 119 
107 662 332 157 111 87 
291 995 434 140 110 85 
338 612 459 16 58 86 
229 873 443 150 116 85 
145 591 382 103 97 93 
265 323 415 145 139 137 
314 265 506 136 137 145 
360 769 467 118 125 137 
168 417 427 69 87 108 
295 646 342 137 98 106 
218 304 530 77 84 99 
173 659 322 97 122 154 
136 606 355 107 99 93 
299 405 394 55 90 119 
170 830 362 136 156 182 
322 320 535 154 106 36 
327 579 388 125 137 153 
164 686 404 111 127 158 
168 275 376 139 141 147 
256 511 333 87 104 121 
346 584 479 117 136 160 
285 525 541 109 127 167 
313 333 469 167 123 68 
245 256 438 102 104 109 
141 622 375 149 101 85 
206 625 353 83 102 124 
193 599 376 56 70 84 
157 733 337 60 80 117 
235 554 333 124 123 127 
215 201 507 110 56 68 
359 609 411 132 173 213 
187 697 474 158 80 25 
373 746 482 153 138 128 
247 230 494 46 29 30 
168 214 394 59 84 116 
228 577 339 72 101 126 
366 623 466 111 126 144 
195 169 521 125 67 0 
354 503 465 132 143 160 
263 321 417 134 130 129 
304 770 381 147 124 101 
243 196 407 109 102 110 
164 384 389 131 116 105 
140 401 373 164 70 0 
184 610 383 52 60 69 
246 793 334 97 103 117 
140 776 313 111 126 192 
395 638 540 143 147 158 
183 500 362 144 152 168 
251 396 515 86 91 100 
164 653 300 57 96 128 
294 513 369 136 140 150 
308 901 422 79 68 60 
190 294 502 121 66 41 
125 626 362 162 114 94 
181 283 521 144 145 151 
172 657 451 143 136 138 
249 198 460 111 49 58 
155 448 438 141 140 146 
164 547 446 161 153 153 
372 746 498 175 150 127 
243 332 516 71 106 134 
264 273 507 60 83 106 
183 182 500 51 38 40 
197 233 521 76 49 52 
248 999 410 166 135 102 
248 985 432 131 104 79 
237 434 528 118 113 113 
280 656 542 69 127 169 
292 236 521 96 91 105 
324 571 510 112 118 152 
241 969 462 83 70 59 
183 525 462 112 130 152 
345 557 413 159 156 159 
300 458 389 78 111 143 
148 190 413 109 108 115 
183 819 378 26 31 47 
270 271 513 60 93 121 
216 922 424 89 73 60 
345 667 410 174 183 200 
394 696 499 143 106 107 
188 540 478 119 130 148 
260 871 488 165 130 103 
201 157 385 168 116 101 
396 706 510 165 166 174 
184 387 495 71 89 131 
341 392 525 135 147 165 
221 689 294 119 138 177 
254 777 331 187 160 127 
145 162 480 109 98 87 
238 297 521 137 139 147 
152 178 401 113 98 113 
199 298 385 132 138 148 
105 722 296 131 165 210 
337 687 408 121 78 106 
182 648 322 33 75 108 
166 575 454 97 122 146 
274 959 482 98 80 65 
247 634 311 101 128 159 
188 148 510 94 60 12 
157 768 299 173 168 212 
154 179 401 123 88 100 
284 658 332 95 100 113 
186 325 511 92 68 81 
338 426 532 158 158 166 
205 635 502 157 106 101 
311 397 420 104 124 145 
320 673 547 60 99 170 
189 462 486 61 89 129 
230 785 447 204 154 132 
293 231 521 129 35 71 
197 302 527 120 137 158 
264 1001 426 101 80 56 
260 377 514 91 81 72 
275 800 448 196 145 125 
155 180 401 138 85 94 
279 625 333 161 155 155 
149 285 401 107 125 146 
162 565 436 70 111 145 
208 633 327 75 103 127 
247 916 497 164 127 105 
327 670 532 114 142 171 
163 672 418 95 117 145 
157 176 401 122 91 118 
143 199 391 111 89 94 
309 401 414 76 109 140 
379 730 484 151 145 143 
304 589 359 104 121 139 
231 713 505 133 106 87 
189 770 438 41 25 56 
254 905 493 142 109 85 
158 176 400 129 94 121 
317 217 487 119 14 48 
139 423 377 155 131 106 
308 423 409 87 117 157 
283 812 370 111 98 89 
147 415 382 123 23 65 
174 327 446 122 134 152 
250 354 398 100 108 119 
212 350 385 153 130 106 
304 341 436 86 95 104 
253 151 490 103 64 38 
196 506 515 159 168 185 
194 365 522 98 123 148 
204 535 516 80 104 155 
203 809 404 127 121 120 
170 452 360 67 105 148 
175 387 403 96 115 136 
251 350 502 80 83 88 
202 837 365 176 149 123 
185 157 515 116 102 88 
173 634 468 172 164 168 
180 699 370 33 74 120 
285 869 392 165 123 94 
108 677 275 101 88 75 
159 181 400 151 76 80 
261 127 473 95 77 56 
141 448 382 77 107 139 
125 607 364 103 85 66 
178 669 318 71 96 152 
164 302 412 155 152 156 
225 365 381 113 117 125 
316 384 447 96 117 140 
130 656 301 102 91 80 
302 967 436 87 70 56 
264 355 510 113 80 38 
237 186 437 72 33 20 
370 626 453 156 156 161 
349 481 457 144 151 164 
312 288 497 72 104 131 
175 555 367 83 103 125 
251 636 531 184 137 125 
142 162 417 115 68 86 
111 666 290 99 89 81 
190 178 512 45 51 86 
375 737 478 151 131 120 
338 446 530 84 111 159 
295 713 358 136 145 160 
213 829 345 203 174 162 
179 649 471 78 101 122 
289 896 386 121 93 68 
195 619 489 149 105 100 
194 592 499 127 150 190 
293 154 466 119 54 35 
274 343 517 145 111 65 
167 250 386 82 114 145 
275 805 445 190 142 120 
194 369 367 170 150 134 
198 166 389 136 65 71 
143 167 416 113 54 72 
160 482 389 90 109 141 
267 15 419 124 91 82 
190 371 507 78 82 98 
312 266 504 146 142 145 
174 535 453 111 128 147 
275 625 520 79 71 66 
154 272 413 82 121 153 
143 172 416 133 74 77 
191 491 492 70 92 139 
331 428 449 124 129 138 
155 734 440 160 53 68 
290 766 368 140 120 106 
163 707 279 109 123 140 
247 625 529 130 110 94 
312 213 529 132 91 88 
283 505 542 127 141 172 
173 629 332 78 117 161 
128 655 342 143 100 86 
248 189 465 124 64 62 
321 408 441 59 98 133 
192 364 522 179 161 146 
204 298 386 115 127 143 
193 449 495 61 90 142 
205 168 479 63 64 67 
156 723 442 118 142 167 
235 789 329 161 31 46 
202 491 505 57 73 106 
359 617 524 97 115 135 
264 44 479 69 59 49 
334 769 488 204 154 115 
400 670 563 111 137 190 
234 492 528 66 81 122 
147 162 421 117 57 69 
171 716 331 92 109 146 
333 527 408 112 131 152 
155 331 393 173 145 116 
287 415 380 137 138 144 
142 623 374 140 93 77 
250 157 423 139 73 5 
195 409 364 123 110 100 
165 663 441 49 55 82 
189 575 480 98 122 150 
353 511 481 97 123 151 
279 627 508 57 54 53 
305 402 404 62 93 128 
202 207 524 111 71 72 
354 709 445 88 102 117 
161 628 377 62 84 155 
304 394 541 93 122 153 
173 450 359 82 116 155 
174 635 376 140 154 176 
266 796 355 143 127 116 
274 240 515 114 43 72 
125 739 322 114 131 167 
203 627 358 86 103 121 
123 658 298 98 87 78 
352 478 482 89 118 145 
218 723 301 144 154 185 
210 618 508 130 98 85 
179 282 376 146 138 134 
181 251 489 112 114 121 
148 160 423 115 56 67 
167 437 417 64 86 111 
268 667 523 93 125 153 
361 568 453 171 169 174 
168 318 420 104 122 143 
347 354 513 27 81 137 
127 676 326 115 82 75 
148 164 422 122 56 71 
267 277 511 64 83 107 
317 427 544 130 144 164 
298 181 450 94 57 56 
149 164 423 123 58 72 
256 768 327 72 69 129 
111 719 280 88 128 195 
284 280 520 135 134 139 
316 583 373 135 135 140 
248 799 341 148 128 110 
224 288 407 85 107 132 
334 625 377 55 95 124 
336 800 439 206 147 112 
308 923 410 80 63 52 
226 695 506 133 90 81 
253 613 514 157 143 149 
165 270 450 95 116 138 
215 589 365 87 86 89 
377 738 489 164 138 115 
99 661 310 118 91 57 
176 226 483 99 96 98 
168 668 455 83 110 136 
267 583 327 122 137 156 
340 363 526 101 117 146 
257 354 387 101 112 124 
351 529 435 125 136 152 
276 432 532 88 108 139 
143 309 388 148 135 127 
219 483 529 60 82 119 
246 288 429 97 103 111 
315 477 543 116 136 163 
321 480 410 102 117 134 
150 162 426 121 49 64 
150 163 426 130 53 69 
272 123 467 93 75 55 
157 170 455 90 22 38 
187 548 489 74 101 149 
247 190 469 125 51 43 
263 573 326 155 154 160 
224 174 459 60 56 52 
363 617 517 95 108 124 
183 737 460 180 102 113 
342 609 506 69 93 115 
175 238 528 65 82 98 
198 456 361 122 136 154 
372 750 487 172 150 133 
262 946 491 192 144 119 
173 811 328 126 148 196 
164 711 391 25 62 90 
261 804 352 103 95 92 
207 446 358 80 112 143 
294 483 377 108 124 144 
150 166 425 138 55 74 
238 436 522 34 55 80 
306 570 367 125 136 152 
249 186 482 71 45 40 
144 282 376 154 152 157 
169 331 414 103 124 148 
313 333 471 155 110 44 
366 646 548 110 91 71 
324 783 393 98 105 114 
314 288 490 88 72 88 
199 209 400 147 79 45 
344 440 521 114 132 157 
144 170 417 128 61 70 
144 171 416 134 73 76 
173 237 517 138 76 86 
247 140 399 118 105 94 
168 231 510 119 69 106 
287 424 379 82 100 118 
329 323 508 136 131 131 
241 235 411 120 87 79 
179 618 478 126 127 133 
223 405 535 92 69 46 
291 242 444 75 119 154 
293 630 520 34 43 51 
175 681 378 99 110 125 
293 435 381 129 139 155 
339 674 557 119 146 181 
338 455 446 137 143 154 
320 370 470 79 115 145 
326 699 395 153 35 48 
315 164 500 97 89 107 
189 426 521 116 86 124 
146 545 393 63 81 101 
209 579 514 87 115 141 
236 807 335 52 52 52 
271 941 390 97 71 36 
304 158 523 117 111 111 
220 277 536 78 120 154 
300 617 347 91 79 75 
145 174 417 137 75 75 
277 341 391 105 113 124 
239 193 439 70 47 47 
146 172 418 135 66 71 
248 218 420 89 75 90 
236 580 329 84 118 146 
204 273 528 134 132 136 
256 319 502 71 79 89 
202 327 383 126 127 133 
254 781 460 217 165 138 
245 542 328 116 136 158 
335 396 482 36 78 118 
300 499 381 137 139 146 
344 734 430 99 92 86 
246 285 430 99 104 111 
207 576 514 23 66 116 
222 917 474 172 133 108 
175 683 314 111 126 145 
305 137 456 126 120 116 
190 247 522 70 56 54 
308 824 395 197 146 115 
276 130 473 93 77 58 
169 409 430 64 86 110 
207 772 317 65 76 124 
223 383 536 126 99 75 
232 772 461 202 154 128 
141 733 337 70 89 110 
255 418 359 102 112 127 
236 529 334 100 129 162 
388 653 491 113 128 146 
98 702 305 173 121 98 
290 203 439 99 48 36 
123 635 357 162 112 94 
367 645 548 108 90 72 
163 190 502 30 59 89 
330 571 504 115 135 158 
212 717 294 59 104 172 
226 814 334 51 47 55 
370 744 466 143 127 113 
260 63 470 117 95 71 
165 673 427 62 51 70 
123 636 322 108 97 88 
283 133 475 98 86 77 
259 829 358 147 137 133 
149 173 421 133 50 69 
257 906 382 79 63 47 
169 713 328 0 10 83 
222 899 440 142 100 76 
189 816 331 156 121 144 
148 175 420 138 76 78 
150 581 410 75 100 146 
286 847 428 163 118 86 
280 733 495 203 187 177 
378 627 532 95 113 132 
150 173 422 134 52 70 
226 878 443 153 114 85 
323 688 379 163 180 202 
193 719 467 181 57 26 
175 274 534 61 103 136 
158 241 431 89 109 131 
196 132 418 85 73 63 
272 600 331 120 136 156 
170 508 453 122 131 154 
220 321 535 121 122 127 
177 152 508 113 101 89 
295 63 475 160 118 62 
135 651 344 106 80 71 
182 634 475 102 55 59 
328 717 402 63 84 108 
151 169 424 139 38 70 
259 307 431 75 91 107 
270 129 466 94 78 60 
216 545 347 150 149 155 
232 902 479 123 91 86 
233 841 383 201 145 117 
327 803 411 198 147 114 
244 341 511 74 71 85 
300 494 382 132 134 142 
146 160 470 112 22 14 
323 286 510 85 118 151 
263 367 377 83 104 123 
259 181 506 79 63 75 
270 416 526 94 118 143 
145 671 304 79 93 108 
210 310 391 144 148 158 
164 544 445 171 162 159 
301 538 370 111 124 140 
263 816 435 191 139 121 
339 519 417 100 121 144 
153 216 408 114 64 82 
106 682 322 160 111 88 
354 504 471 148 156 170 
166 259 381 143 136 134 
248 226 424 42 69 91 
230 950 411 94 68 55 
229 801 330 171 129 64 
210 379 532 180 151 120 
337 673 557 106 135 174 
339 479 525 85 104 160 
194 185 510 77 62 69 
152 167 427 140 55 73 
376 693 550 168 196 227 
230 946 404 131 101 78 
153 164 429 136 44 64 
270 726 326 181 180 190 
267 680 512 96 50 88 
339 569 497 130 144 163 
156 259 375 83 120 151 
325 456 423 139 138 142 
350 605 395 85 110 133 
153 535 416 98 123 150 
235 897 414 109 81 46 
180 441 358 79 113 155 
154 164 430 136 44 65 
258 46 475 104 89 74 
308 587 509 111 121 139 
356 562 431 91 108 126 
209 227 526 90 26 59 
234 778 326 152 166 186 
238 277 418 135 134 136 
214 207 520 97 99 104 
273 266 447 82 89 99 
154 497 406 91 107 133 
331 702 403 172 138 91 
206 168 511 80 73 68 
199 805 404 203 172 143 
254 448 528 72 99 140 
189 260 497 116 118 126 
226 834 352 197 163 124 
158 758 409 174 35 57 
247 920 383 87 71 58 
218 769 454 129 143 161 
191 782 426 200 179 167 
244 916 495 161 126 102 
294 700 336 119 143 171 
315 678 352 109 135 162 
152 170 424 137 46 72 
372 740 470 114 105 101 
169 504 363 87 110 135 
311 933 463 98 80 66 
121 618 360 144 106 82 
146 210 498 82 81 89 
248 753 482 198 174 156 
343 483 519 171 170 177 
313 294 485 102 122 144 
180 311 370 134 37 57 
119 690 267 77 97 117 
231 300 405 85 106 132 
222 336 532 100 73 48 
153 168 429 136 43 67 
313 300 488 138 138 143 
239 881 420 142 110 83 
334 564 400 155 152 153 
180 426 486 110 119 139 
297 690 499 141 107 91 
367 709 457 77 65 69 
192 385 362 161 67 0 
233 892 478 156 119 98 
166 621 350 21 88 128 
244 371 388 93 91 94 
242 286 501 127 125 129 
168 691 292 53 84 117 
275 101 478 111 88 61 
226 715 306 133 141 181 
174 737 349 109 122 146 
290 876 440 157 119 87 
163 300 370 136 28 58 
257 11 421 106 88 75 
145 159 471 115 25 26 
310 364 539 126 136 151 
154 519 427 108 117 165 
173 715 332 81 100 138 
268 328 407 136 135 138 
260 37 375 144 120 98 
163 202 395 90 75 95 
366 619 524 100 114 130 
159 271 422 77 120 153 
300 706 342 146 169 198 
272 387 521 131 133 139 
208 674 294 57 94 125 
153 174 424 137 58 70 
312 192 520 88 110 132 
245 695 319 65 128 177 
293 901 386 94 74 57 
287 773 469 207 151 123 
235 158 433 62 48 33 
367 756 466 163 125 93 
173 535 364 125 135 151 
320 347 484 136 135 141 
206 543 358 76 95 115 
163 715 325 104 120 149 
205 173 487 97 86 76 
229 933 484 186 144 120 
154 172 428 140 40 70 
400 656 522 87 103 121 
154 173 428 139 43 67 
363 582 437 90 133 168 
316 818 406 192 140 106 
237 182 399 164 109 84 
265 438 358 105 117 131 
216 428 360 105 112 122 
250 266 461 81 71 71 
177 671 377 77 93 110 
309 155 469 42 63 96 
333 458 533 97 116 160 
240 794 446 197 151 131 
337 688 406 153 34 49 
251 380 511 79 85 93 
101 701 309 171 117 97 
341 610 485 83 103 123 
272 529 540 117 132 171 
156 174 430 138 63 59 
299 375 536 72 100 129 
296 119 479 123 109 97 
194 418 362 132 81 60 
268 218 513 45 60 89 
273 332 399 130 133 140 
136 690 273 55 105 152 
313 555 525 125 149 176 
277 360 384 88 112 138 
155 161 433 108 18 45 
164 199 449 127 48 50 
227 596 514 109 135 185 
287 66 501 128 97 77 
282 341 399 178 129 63 
296 212 455 140 20 34 
162 651 433 65 95 119 
210 244 396 124 51 66 
229 266 403 144 142 146 
155 162 434 115 38 58 
151 561 411 146 146 154 
278 665 328 88 131 167 
333 370 535 96 124 152 
185 347 514 59 60 63 
162 784 371 127 66 77 
315 564 381 151 148 153 
149 619 392 152 106 92 
240 988 411 140 111 87 
266 495 538 150 157 170 
282 233 454 76 35 46 
288 716 363 131 115 121 
152 378 370 211 167 110 
180 405 491 63 82 129 
245 230 452 41 46 61 
360 604 422 206 205 213 
168 341 400 135 88 64 
274 429 531 94 107 134 
326 421 541 108 123 155 
360 755 496 186 163 144 
206 670 491 184 123 47 
189 546 491 76 103 149 
253 148 487 97 62 39 
260 614 514 70 103 131 
156 619 366 112 92 87 
331 704 405 152 70 56 
157 161 439 111 35 57 
300 290 527 97 121 146 
240 195 466 66 49 46 
155 216 412 116 55 85 
163 568 437 73 119 155 
265 78 473 124 99 72 
357 612 403 106 140 191 
343 725 429 128 104 80 
291 355 414 129 126 127 
230 590 334 89 112 134 
162 497 366 73 106 139 
157 752 424 167 33 58 
141 407 372 126 99 63 
195 212 400 146 88 51 
220 937 459 123 99 82 
178 469 475 91 103 149 
264 374 376 41 82 114 
316 812 427 208 151 118 
279 377 387 57 86 109 
244 433 521 71 79 90 
410 667 537 109 134 181 
257 109 474 88 70 50 
259 336 406 136 137 141 
236 796 441 197 149 130 
281 473 540 173 173 180 
342 720 507 136 114 102 
209 136 419 73 64 55 
155 285 408 144 143 148 
241 367 522 68 92 116 
157 165 436 134 45 65 
342 591 478 128 143 163 
190 464 362 101 122 150 
170 704 323 135 142 155 
196 148 474 114 60 2 
290 806 374 126 131 140 
256 395 517 139 134 136 
277 308 421 124 121 124 
222 314 524 97 86 83 
323 366 483 111 123 139 
263 47 385 139 115 94 
397 699 532 169 178 196 
320 876 423 130 97 67 
189 563 488 108 138 168 
383 672 470 149 166 187 
254 158 491 83 68 54 
195 802 404 189 160 135 
304 444 397 82 115 152 
223 447 354 78 102 126 
355 549 433 163 162 168 
252 886 400 97 69 53 
157 160 442 100 26 39 
283 482 361 147 148 155 
359 569 435 98 98 114 
200 526 515 102 122 160 
176 410 487 151 147 150 
314 437 545 94 122 163 
296 393 395 39 77 105 
208 497 362 120 126 138 
159 623 379 39 50 89 
159 214 388 104 88 89 
289 913 479 170 130 103 
272 784 460 216 163 136 
249 258 496 53 40 47 
192 221 517 49 34 49 
197 615 489 132 126 139 
319 634 364 147 149 156 
249 353 400 111 117 127 
186 589 374 60 71 85 
330 738 499 167 130 93 
267 872 486 168 129 102 
302 450 393 88 113 138 
224 943 468 160 122 100 
267 430 362 127 132 141 
188 552 490 91 124 156 
311 488 397 130 135 145 
100 697 310 165 115 91 
262 92 505 110 91 72 
167 687 393 113 121 144 
313 710 500 161 125 94 
298 177 447 62 56 81 
335 369 533 100 124 152 
296 365 534 46 81 125 
159 270 423 72 114 146 
242 563 525 101 125 168 
361 663 563 187 195 212 
251 988 394 180 145 111 
276 565 538 95 119 155 
194 790 320 158 176 199 
241 925 387 110 90 72 
100 672 289 103 87 69 
172 374 401 141 118 101 
337 287 519 98 130 159 
318 273 526 78 116 146 
113 651 307 103 92 81 
253 142 462 123 103 92 
168 697 391 56 78 139 
169 359 473 77 105 136 
291 59 502 138 126 118 
291 873 453 153 117 87 
180 668 323 99 112 153 
323 493 408 91 109 131 
159 164 445 101 24 32 
157 294 370 155 151 151 
247 1001 414 164 137 109 
273 529 341 127 138 153 
159 164 447 96 40 27 
209 635 320 91 110 129 
166 694 397 93 106 148 
171 328 484 168 121 61 
292 598 511 101 119 140 
289 292 441 118 128 142 
248 973 463 102 84 72 
273 786 459 216 162 139 
157 766 393 93 64 57 
148 708 317 48 69 118 
293 130 475 101 86 70 
207 325 530 166 145 120 
226 540 522 124 146 181 
374 744 486 148 138 133 
227 829 400 188 135 114 
150 452 370 69 105 145 
210 785 437 175 92 99 
157 170 433 138 44 61 
331 712 407 103 97 99 
362 587 427 91 139 176 
157 170 435 144 79 76 
213 536 521 143 160 188 
226 489 344 99 110 124 
292 65 472 165 118 78 
337 608 512 31 66 97 
126 759 318 68 64 132 
350 471 506 120 126 153 
315 627 515 36 56 75 
187 551 484 99 126 153 
182 710 284 114 152 197 
304 642 549 142 111 86 
191 429 361 119 132 159 
250 596 320 87 113 137 
158 169 439 134 68 49 
288 415 382 120 128 139 
331 390 481 35 80 119 
158 171 436 137 58 55 
272 693 507 142 123 107 
273 625 513 71 64 61 
208 373 531 165 137 103 
300 679 344 154 158 168 
267 367 378 70 95 116 
167 236 449 107 86 58 
159 171 438 132 48 48 
179 789 398 124 88 73 
287 696 332 172 171 179 
192 132 461 99 91 84 
223 482 531 163 170 184 
126 736 326 95 112 160 
275 833 372 176 131 98 
225 814 334 61 57 61 
157 174 432 137 57 50 
312 275 502 83 64 65 
292 600 509 106 123 143 
264 411 365 84 102 122 
190 510 493 157 158 166 
340 787 474 205 142 112 
362 705 528 133 73 117 
202 721 469 120 109 103 
356 687 532 118 156 190 
181 255 516 117 17 67 
280 125 477 106 84 57 
311 606 490 73 81 92 
293 722 352 139 164 192 
310 398 418 85 113 140 
159 431 439 99 111 130 
240 308 518 89 105 122 
196 322 376 138 107 77 
159 175 435 141 73 67 
158 172 436 141 75 68 
159 283 413 130 129 132 
159 172 437 139 67 64 
200 289 387 151 148 152 
161 402 463 85 103 127 
412 662 544 164 174 190 
281 436 370 128 134 143 
286 384 390 83 107 131 
161 204 432 97 57 80 
310 368 429 91 113 136 
159 174 437 137 50 48 
244 850 464 115 86 59 
273 207 463 92 32 39 
161 244 435 107 79 93 
216 313 397 112 125 140 
336 399 482 42 83 121 
325 520 531 100 122 167 
276 748 340 174 25 59 
160 756 419 157 96 109 
269 764 350 93 34 66 
261 48 475 99 84 68 
311 746 385 78 61 48 
151 536 381 71 73 83 
168 378 457 96 111 128 
248 701 321 89 133 169 
287 829 377 164 129 95 
300 132 520 139 71 10 
306 831 404 181 129 97 
159 171 442 120 49 40 
255 522 535 85 103 149 
159 172 441 121 52 37 
261 325 415 131 127 126 
172 247 534 108 56 74 
315 403 434 98 124 149 
253 144 482 91 80 73 
314 215 502 116 97 107 
224 252 531 122 78 73 
180 718 347 134 151 168 
244 167 434 66 47 38 
178 834 363 174 148 124 
313 326 471 152 106 39 
207 837 368 195 164 133 
239 370 531 165 141 118 
221 219 511 88 88 92 
179 296 530 159 162 172 
145 177 417 134 73 75 
287 117 480 115 89 56 
237 301 523 148 145 149 
223 316 398 108 120 133 
146 176 417 134 72 74 
164 563 450 128 103 112 
157 195 469 71 32 39 
337 318 525 139 144 154 
229 593 516 153 176 205 
335 780 409 148 124 98 
156 475 386 133 137 148 
218 581 361 94 94 97 
146 179 416 136 70 73 
311 292 470 151 151 158 
173 663 318 107 129 159 
298 378 404 68 102 130 
270 650 535 49 51 95 
145 180 416 144 75 80 
308 933 407 75 57 48 
352 693 524 63 45 97 
396 677 504 118 135 157 
331 685 395 144 143 157 
257 854 373 188 139 97 
236 639 522 188 139 126 
250 895 401 74 56 40 
325 418 541 67 105 153 
146 540 409 157 156 162 
358 566 470 145 156 174 
179 802 320 199 215 228 
166 696 397 72 91 147 
164 274 442 94 116 139 
199 388 522 160 134 105 
344 666 559 121 130 196 
178 436 358 80 112 148 
328 600 481 100 113 129 
361 699 453 142 86 54 
353 524 481 63 92 143 
238 887 418 110 84 60 
302 60 489 137 127 122 
236 510 527 76 98 144 
294 993 421 127 101 77 
206 708 289 100 128 173 
330 761 405 144 134 131 
279 859 444 154 116 82 
236 924 492 180 137 116 
240 391 375 54 90 117 
233 967 432 92 72 60 
302 670 530 155 174 198 
175 269 490 124 122 126 
161 733 450 158 38 85 
299 602 351 129 131 138 
164 216 492 68 36 36 
190 572 492 99 126 158 
337 720 504 110 102 100 
331 438 444 119 126 137 
310 129 467 158 74 8 
148 181 417 136 69 69 
161 650 421 112 112 121 
273 838 434 157 115 83 
165 576 456 94 122 149 
332 600 450 109 111 118 
212 531 520 137 155 184 
114 672 332 157 108 90 
289 780 463 212 157 127 
148 183 417 138 78 67 
352 671 431 166 83 99 
247 243 430 82 51 59 
196 496 362 163 163 170 
311 815 394 187 142 111 
216 400 367 127 112 98 
139 781 318 171 176 195 
218 649 505 134 97 91 
303 159 458 60 52 81 
313 327 533 167 126 78 
168 643 398 114 119 138 
122 655 342 152 105 84 
166 257 460 136 133 135 
285 331 421 116 72 77 
383 694 550 172 198 228 
174 424 484 98 111 136 
182 135 480 97 88 79 
315 229 498 152 146 148 
317 601 491 76 96 127 
147 184 416 121 94 96 
264 680 323 168 164 171 
361 768 465 90 135 170 
290 253 442 90 131 167 
278 588 528 109 134 161 
277 607 334 92 114 138 
137 705 317 83 92 104 
248 266 437 112 53 8 
199 485 360 151 150 160 
305 890 422 103 83 66 
233 347 536 103 117 134 
248 620 313 155 153 157 
168 313 443 127 128 135 
266 974 472 125 105 88 
134 682 276 76 99 120 
265 377 516 143 102 39 
162 758 354 92 119 143 
263 294 437 116 112 111 
282 69 472 151 114 95 
241 302 512 104 119 138 
231 407 538 158 121 97 
297 427 387 95 117 139 
164 672 425 58 90 142 
331 390 539 62 99 143 
322 629 367 160 160 167 
161 179 500 82 65 77 
333 616 453 47 73 96 
272 554 336 147 150 160 
338 614 520 77 121 154 
308 275 466 119 134 154 
322 331 500 117 121 129 
301 525 540 110 128 170 
190 486 362 173 168 171 
181 807 386 64 73 87 
149 548 391 58 60 70 
180 766 299 150 167 208 
244 679 316 75 85 99 
180 238 498 56 90 120 
286 248 433 167 158 157 
164 539 438 189 173 165 
282 668 534 125 148 213 
150 190 416 117 110 118 
319 554 387 94 111 132 
229 255 520 123 107 92 
330 290 510 83 118 150 
329 794 467 211 153 125 
239 620 512 65 60 68 
208 443 358 116 130 153 
189 310 509 92 24 45 
309 703 368 142 96 106 
180 336 521 138 86 107 
284 478 363 141 143 149 
175 764 433 104 112 139 
296 918 471 115 89 65 
266 626 535 114 100 87 
289 633 543 135 111 86 
287 298 430 92 107 124 
329 393 474 46 83 114 
187 259 387 92 122 150 
288 274 443 146 146 153 
299 961 456 81 63 52 
213 657 511 74 60 48 
319 550 524 147 155 170 
271 25 401 166 147 139 
259 798 449 201 155 134 
216 927 439 73 57 49 
190 369 507 85 91 106 
285 627 534 102 88 78 
306 365 422 70 93 114 
331 437 444 116 122 132 
291 223 435 120 54 65 
294 213 448 147 24 38 
146 798 336 176 203 234 
154 212 499 83 42 61 
191 349 523 131 115 129 
154 182 422 140 90 66 
148 251 388 97 105 122 
250 802 443 189 140 123 
129 683 317 91 71 62 
195 242 396 112 65 73 
219 429 532 118 89 76 
374 657 455 103 121 161 
210 600 510 103 135 184 
139 389 379 166 79 0 
289 348 417 112 90 81 
248 207 440 79 34 36 
104 688 319 162 111 89 
313 915 435 104 83 70 
300 170 525 104 96 110 
354 520 462 83 114 153 
162 220 509 101 57 50 
281 514 541 169 172 183 
201 233 397 57 82 110 
198 150 472 112 60 7 
269 574 534 150 157 174 
225 827 344 197 175 166 
211 478 525 75 102 156 
141 198 405 124 109 116 
215 270 532 135 128 124 
228 546 520 104 117 161 
225 954 454 117 93 79 
299 429 391 106 129 156 
254 209 453 91 35 47 
185 758 449 129 117 134 
320 574 380 117 122 131 
155 176 429 139 71 57 
226 275 407 128 132 141 
186 335 366 173 146 117 
178 235 520 65 81 98 
143 713 278 135 140 168 
337 442 451 103 119 139 
338 632 524 42 56 78 
190 658 306 83 114 141 
155 181 425 143 88 68 
273 993 449 166 130 96 
353 530 479 132 150 172 
308 390 413 62 95 135 
260 430 358 101 115 132 
171 232 523 75 93 110 
166 682 445 131 140 155 
235 255 418 138 133 134 
337 793 422 187 136 100 
180 140 487 80 77 73 
182 416 489 110 123 140 
146 353 370 161 52 67 
150 269 409 81 116 146 
157 177 430 136 73 60 
164 143 479 87 87 88 
320 633 530 88 79 71 
220 513 525 127 145 174 
142 473 387 91 113 137 
281 245 445 107 46 42 
270 608 329 113 139 165 
293 663 546 159 179 212 
311 688 500 158 104 103 
366 728 517 110 120 133 
303 599 356 133 132 136 
174 525 454 75 98 129 
216 613 364 41 72 97 
140 333 376 138 99 58 
157 754 416 74 93 150 
166 637 332 94 108 141 
171 373 451 67 88 108 
289 729 348 169 124 133 
217 473 529 81 110 161 
276 962 478 107 89 73 
172 615 473 101 128 155 
247 193 416 94 88 98 
243 763 474 209 156 130 
190 803 396 181 160 145 
360 630 527 70 76 94 
246 861 398 187 142 112 
145 670 304 78 92 106 
206 699 479 47 59 78 
410 665 560 158 174 224 
177 731 286 72 103 185 
257 147 504 117 59 20 
217 597 357 67 87 105 
337 598 447 133 135 144 
281 181 522 125 44 65 
354 521 451 96 119 155 
139 339 383 138 39 70 
163 456 385 67 92 132 
255 216 454 57 46 49 
345 626 526 147 153 166 
141 209 493 124 84 83 
220 227 523 85 82 85 
168 309 454 148 146 151 
218 933 421 83 67 55 
256 443 528 126 134 147 
315 569 379 95 114 135 
150 221 402 125 48 80 
168 757 383 142 171 203 
160 560 427 141 136 138 
152 186 419 134 89 74 
248 166 422 95 85 88 
245 870 411 164 125 97 
256 840 364 190 133 86 
280 207 459 92 38 38 
365 729 452 149 137 130 
168 166 492 89 40 14 
209 515 521 72 99 157 
174 746 369 139 154 174 
378 700 471 126 28 72 
326 426 541 180 176 180 
276 749 357 90 19 28 
163 452 414 68 92 114 
308 316 459 163 122 76 
184 377 517 123 131 144 
154 658 307 53 78 103 
183 443 358 114 140 175 
217 912 424 95 71 53 
222 296 404 81 108 134 
243 212 457 79 46 66 
340 778 417 151 115 77 
171 209 503 116 27 55 
225 902 427 143 86 65 
187 155 515 126 111 95 
212 792 326 176 85 88 
330 780 401 129 125 126 
353 696 443 141 34 35 
310 442 411 95 119 146 
305 415 543 57 94 148 
312 624 362 153 150 153 
293 271 524 139 141 148 
350 450 494 121 131 150 
326 786 476 203 153 123 
200 159 474 85 81 82 
253 142 458 139 111 94 
294 630 522 52 52 54 
152 188 420 119 88 84 
292 350 530 96 119 142 
155 813 346 111 141 169 
188 798 399 143 129 120 
246 419 518 41 59 73 
257 644 321 181 176 178 
291 448 376 70 102 131 
292 775 467 209 156 123 
142 639 349 102 82 75 
145 190 463 128 81 12 
158 211 423 100 72 85 
145 531 402 124 136 153 
331 493 416 126 133 145 
311 121 507 118 97 79 
296 844 412 180 134 101 
298 196 458 97 67 83 
161 651 408 77 87 103 
160 531 443 131 145 165 
164 208 447 127 15 65 
340 676 535 127 153 180 
162 433 366 137 121 107 
167 782 396 61 47 73 
335 632 525 39 53 73 
303 761 377 132 115 99 
319 351 479 119 129 144 
285 735 339 177 193 215 
171 624 340 63 108 144 
262 33 399 136 121 112 
222 693 495 157 151 152 
264 839 434 161 118 92 
288 570 348 93 117 142 
262 35 476 84 73 65 
355 689 530 122 152 181 
306 898 419 72 58 49 
350 718 516 85 78 76 
287 411 382 114 119 128 
211 194 511 95 45 56 
207 566 357 111 117 128 
378 714 529 129 124 142 
156 187 424 126 83 69 
156 187 425 117 78 74 
223 691 296 95 126 162 
319 453 543 104 134 171 
238 403 512 72 66 61 
247 158 406 138 65 9 
227 940 475 187 143 117 
277 187 466 47 47 65 
328 445 433 84 101 118 
201 639 324 90 117 142 
274 921 494 177 134 106 
265 424 526 112 127 145 
226 356 539 130 131 137 
158 185 429 111 86 82 
347 358 516 135 147 162 
302 118 512 117 105 95 
108 704 316 94 122 168 
270 433 362 101 116 133 
292 840 421 177 128 99 
344 788 435 188 127 97 
298 55 494 133 125 120 
318 643 361 85 114 139 
314 272 483 80 113 143 
279 750 488 159 114 82 
346 614 459 75 90 105 
162 530 369 135 141 154 
215 184 483 118 51 5 
307 918 405 74 60 48 
272 666 525 100 127 152 
232 597 332 92 103 123 
274 409 372 88 107 128 
157 188 425 105 80 83 
237 633 527 185 134 125 
289 271 523 142 141 147 
300 429 543 87 116 156 
269 928 496 177 133 104 
187 310 504 108 85 106 
145 263 383 134 135 142 
336 577 494 140 147 161 
126 631 361 161 113 94 
281 465 539 111 132 157 
357 769 451 182 148 112 
178 555 367 127 127 133 
170 665 468 103 126 149 
209 472 360 152 152 160 
178 247 391 96 77 76 
176 664 321 93 110 156 
164 687 466 130 152 176 
262 374 376 62 94 119 
176 833 356 74 71 143 
235 836 395 180 133 107 
154 332 392 167 141 114 
312 518 539 106 126 174 
328 383 482 57 93 125 
306 135 458 157 80 16 
227 372 387 109 101 95 
169 763 423 135 130 134 
169 708 460 70 109 140 
319 726 392 170 159 153 
304 241 462 84 68 74 
185 384 514 167 55 12 
260 524 538 182 180 185 
230 835 391 186 133 111 
338 536 512 101 121 165 
288 445 374 83 109 135 
251 940 493 207 165 146 
146 746 285 138 139 188 
315 238 482 152 149 152 
232 965 429 91 69 56 
161 193 397 131 56 70 
215 428 360 101 110 124 
225 654 512 99 105 122 
196 706 472 170 76 29 
189 499 489 133 142 156 
311 389 422 82 113 149 
207 662 505 144 104 57 
159 176 435 136 53 48 
270 966 479 95 78 65 
256 771 329 83 69 120 
342 605 431 83 62 78 
166 263 454 131 133 141 
142 503 387 118 137 164 
327 404 460 48 83 123 
178 368 423 76 93 128 
300 214 525 123 88 79 
213 195 515 97 54 60 
263 404 521 84 109 138 
171 737 285 128 153 198 
170 448 361 62 99 141 
159 180 432 134 75 54 
365 728 450 152 134 121 
336 343 504 94 115 138 
159 181 433 121 76 56 
210 726 294 90 132 170 
262 83 503 106 89 72 
283 158 470 97 77 72 
157 740 440 184 25 60 
275 944 392 103 77 46 
191 736 460 127 132 148 
245 453 348 128 133 143 
306 408 406 58 95 131 
293 865 416 164 125 94 
309 283 467 112 129 149 
308 64 498 100 87 77 
159 187 432 97 92 95 
308 355 432 114 122 133 
152 725 402 114 128 144 
134 641 323 102 93 87 
145 626 371 101 71 66 
156 309 370 150 18 57 
237 786 327 138 130 139 
195 717 287 88 121 162 
126 660 296 94 85 77 
153 807 337 166 87 121 
100 707 305 179 124 101 
258 22 364 122 104 84 
168 646 327 91 109 144 
261 169 509 75 64 69 
312 530 386 73 108 140 
346 637 541 102 87 73 
320 629 518 58 69 82 
275 818 365 104 86 69 
236 227 403 150 95 81 
165 478 464 136 141 161 
267 69 502 111 92 72 
243 694 514 179 75 30 
183 674 371 54 64 101 
267 689 510 159 102 80 
241 929 388 82 66 57 
362 589 428 94 141 178 
180 723 359 42 76 123 
136 670 316 83 71 61 
274 298 515 130 129 134 
140 436 381 55 91 134 
227 238 513 94 82 92 
171 524 364 161 161 168 
238 507 335 135 142 154 
153 229 508 130 122 133 
217 482 529 77 99 147 
293 56 484 123 110 98 
296 950 399 103 74 54 
350 615 476 100 110 122 
272 239 514 102 41 65 
176 580 372 59 73 87 
168 311 474 126 120 119 
215 361 379 148 126 101 
183 676 480 128 99 65 
157 629 429 120 78 74 
251 994 437 151 122 99 
273 671 507 69 63 70 
175 251 521 93 99 102 
194 338 524 173 142 105 
217 480 528 104 127 163 
149 606 368 86 81 78 
350 494 500 151 155 167 
165 130 386 180 141 117 
285 212 522 49 78 106 
121 676 279 96 86 78 
359 753 447 165 131 93 
331 320 531 127 131 141 
303 486 387 48 87 123 
276 264 516 68 103 133 
354 509 475 104 127 155 
346 633 385 161 183 209 
164 527 368 82 110 141 
193 256 524 62 82 100 
244 383 376 86 106 126 
186 303 527 137 141 151 
289 980 395 165 130 92 
352 479 476 73 105 145 
300 768 377 157 134 112 
161 179 449 79 60 72 
125 651 345 154 106 88 
353 775 448 166 116 81 
364 620 451 127 131 139 
322 279 526 81 114 144 
315 152 506 128 105 89 
298 78 485 134 99 84 
129 639 316 109 97 86 
306 669 527 126 149 175 
207 328 530 171 147 124 
262 958 487 103 82 69 
166 128 391 177 143 120 
272 566 334 105 123 143 
347 367 506 102 119 139 
311 122 468 143 95 57 
219 374 534 95 31 49 
374 742 477 127 118 115 
164 128 392 176 142 118 
295 349 423 85 101 118 
281 618 335 153 151 156 
268 799 448 197 145 127 
369 697 460 142 89 70 
238 369 533 162 137 113 
362 694 539 129 122 154 
251 179 431 63 84 104 
167 128 393 175 144 120 
168 593 457 80 117 147 
307 892 426 97 75 59 
160 627 383 99 120 167 
214 827 390 155 147 146 
167 128 395 173 144 120 
235 548 521 73 91 123 
262 938 388 132 101 71 
310 338 452 143 87 104 
175 739 358 98 113 139 
157 257 376 90 124 154 
219 231 531 94 72 72 
166 770 379 73 61 111 
308 460 404 131 137 149 
348 489 446 83 111 140 
286 148 473 131 43 8 
135 621 337 106 95 87 
351 449 490 110 126 148 
270 547 539 157 168 187 
306 158 465 45 50 73 
321 308 506 89 69 78 
181 232 493 50 81 104 
312 224 510 100 69 79 
223 698 296 100 132 176 
227 470 533 159 168 184 
226 604 512 167 173 188 
256 572 529 127 138 160 
128 631 328 102 93 85 
146 795 342 118 153 187 
225 828 402 194 139 116 
350 439 494 136 148 166 
165 252 468 131 128 131 
240 240 490 44 27 26 
274 321 412 149 140 133 
363 766 479 164 167 177 
169 129 390 175 144 119 
169 541 366 164 159 161 
260 491 341 86 107 128 
347 464 514 140 145 157 
274 920 494 177 133 106 
322 693 381 103 103 137 
159 701 417 107 119 134 
239 296 414 85 108 131 
190 132 461 98 90 83 
310 302 465 107 125 145 
329 649 555 142 112 85 
341 613 519 69 110 144 
341 506 518 145 148 159 
324 633 542 109 91 74 
145 269 378 141 137 141 
209 766 316 100 116 166 
173 131 384 171 140 113 
168 303 484 131 127 128 
223 327 393 106 117 131 
300 175 453 102 48 48 
177 385 407 72 101 130 
302 200 465 91 61 75 
204 351 529 180 153 123 
327 440 435 107 118 133 
164 316 368 193 161 126 
280 371 524 128 74 95 
265 848 472 129 94 67 
213 827 389 80 86 104 
327 531 526 120 138 163 
186 676 345 125 140 160 
173 149 500 105 95 85 
255 355 506 76 82 90 
379 685 556 154 169 213 
184 620 371 70 69 70 
303 432 397 81 115 146 
147 216 503 100 83 87 
340 596 473 108 131 156 
394 691 498 166 177 194 
367 695 545 148 186 223 
235 549 336 108 112 118 
189 298 502 111 60 56 
191 442 360 90 116 171 
286 630 511 46 49 54 
102 667 296 104 85 64 
182 515 463 171 166 168 
293 974 433 71 53 39 
169 554 369 126 123 125 
289 995 416 132 104 83 
303 705 358 163 169 185 
218 523 346 113 126 142 
236 310 406 95 110 125 
234 568 331 87 75 74 
291 869 431 154 118 85 
177 271 379 121 135 150 
346 362 509 129 138 154 
286 116 480 113 88 56 
242 542 330 102 116 133 
386 649 499 80 108 135 
312 930 418 67 55 52 
305 605 355 134 134 139 
209 647 501 136 98 91 
308 803 441 209 157 128 
212 260 528 83 34 53 
159 524 433 111 127 157 
239 717 507 121 111 107 
227 373 539 148 2 60 
306 632 532 92 82 74 
231 155 387 192 75 7 
163 493 365 49 94 130 
121 682 325 136 95 80 
168 128 396 172 144 120 
173 430 394 86 108 133 
405 668 523 69 107 141 
233 290 527 128 128 131 
286 203 453 72 46 57 
150 602 426 108 77 67 
229 637 306 46 71 92 
323 793 395 170 126 93 
255 466 531 124 136 154 
162 569 376 82 93 105 
293 703 498 111 101 95 
353 496 477 169 165 169 
313 632 523 56 60 68 
272 636 329 104 68 79 
360 618 455 127 133 145 
307 669 526 123 148 174 
173 377 440 43 79 125 
288 544 354 107 121 139 
148 402 370 181 75 0 
234 708 315 142 155 177 
235 728 500 183 145 99 
150 419 382 57 84 113 
147 232 395 88 106 134 
214 164 387 51 100 140 
197 813 389 134 112 89 
170 357 462 65 94 131 
173 130 392 170 142 119 
288 203 449 85 36 53 
185 736 288 113 141 170 
347 724 435 112 91 70 
277 762 362 126 121 120 
155 231 407 139 135 137 
317 675 505 102 92 96 
325 603 380 88 117 142 
367 649 552 116 94 71 
260 932 385 84 63 44 
280 404 377 101 115 130 
319 815 411 199 144 111 
268 396 372 92 110 130 
283 577 531 111 120 149 
366 757 463 166 145 128 
265 782 462 220 166 140 
226 615 337 100 117 133 
172 686 297 85 103 124 
191 292 504 117 53 44 
190 577 493 99 119 147 
155 741 437 175 43 57 
349 614 422 105 116 130 
96 685 283 131 95 67 
226 873 460 159 115 88 
235 892 420 122 84 47 
275 510 347 97 115 137 
189 500 507 120 137 159 
194 477 496 107 119 143 
351 719 515 116 100 85 
172 685 382 88 92 120 
303 68 489 124 84 48 
176 374 429 82 98 126 
159 412 462 121 129 142 
312 130 476 151 68 7 
189 400 520 122 105 86 
330 662 374 76 126 171 
270 188 466 68 52 80 
324 532 398 126 135 148 
283 323 416 179 140 94 
286 239 434 92 107 131 
119 647 347 165 116 94 
265 449 356 81 102 123 
333 677 395 163 176 194 
175 228 495 67 97 121 
198 838 361 161 147 137 
268 233 513 108 39 42 
270 805 444 189 141 121 
218 721 485 160 138 123 
319 668 531 122 148 175 
257 26 469 101 88 76 
183 646 323 23 62 108 
265 939 494 195 145 122 
343 467 520 160 160 168 
198 549 511 103 118 150 
296 840 414 184 138 104 
159 677 289 108 130 161 
227 744 482 200 189 185 
148 738 415 93 136 171 
194 335 524 146 39 67 
289 184 524 126 51 72 
292 967 400 125 95 62 
301 483 545 194 189 193 
174 128 403 168 141 117 
172 733 284 142 164 201 
146 196 409 129 98 87 
165 291 479 149 146 150 
222 825 341 181 145 113 
275 926 494 175 132 104 
314 251 482 124 137 154 
377 635 480 72 90 110 
272 625 532 98 87 80 
281 258 441 105 109 118 
296 653 344 87 133 168 
173 128 406 161 134 109 
269 323 410 141 135 132 
174 128 404 166 139 115 
170 378 478 30 64 112 
174 129 404 167 140 116 
310 408 544 81 112 157 
175 129 404 168 140 116 
278 643 542 180 130 113 
246 974 429 96 68 44 
314 734 497 193 150 95 
193 426 362 89 117 148 
256 143 444 152 117 96 
312 159 475 56 44 60 
172 128 408 155 127 103 
281 657 543 75 132 174 
169 348 462 118 126 143 
270 1000 417 120 94 69 
192 561 494 65 85 126 
244 821 421 177 124 103 
310 233 468 83 72 90 
175 418 407 100 116 139 
321 383 458 92 119 146 
131 598 378 140 104 87 
319 362 469 81 107 135 
166 468 362 90 115 145 
311 937 413 65 52 46 
168 186 505 34 57 77 
250 192 461 125 62 61 
165 624 358 31 100 136 
283 655 332 118 76 83 
303 272 528 101 121 142 
312 277 471 152 151 156 
362 689 554 147 179 213 
