ply
format ascii 1.0
comment Created by CloudCompare v2.11.1 (Anoia)
comment Created 2/28/22 9:38 PM
obj_info Generated by CloudCompare!
element vertex 2013
property float x
property float y
property float z
property uchar red
property uchar green
property uchar blue
end_header
234 595 315 116 137 165 
171 263 396 136 133 135 
214 823 343 51 55 67 
208 297 483 103 110 121 
150 344 370 161 136 110 
252 181 545 121 56 0 
177 221 430 60 99 127 
231 14 485 125 110 104 
320 742 470 109 95 88 
130 662 337 64 88 115 
234 383 520 123 104 89 
231 14 487 125 110 103 
263 483 340 134 136 143 
302 260 439 117 126 139 
416 677 467 74 102 125 
91 726 350 107 128 151 
162 284 360 115 135 157 
343 498 429 138 148 163 
277 112 489 77 67 57 
313 475 522 88 116 166 
262 500 523 124 128 157 
164 696 451 141 150 165 
169 252 401 83 110 134 
295 887 423 141 107 79 
329 493 402 103 114 128 
358 647 414 67 99 152 
228 366 492 66 73 102 
257 645 512 175 127 117 
289 906 459 168 121 92 
162 704 453 143 152 167 
190 668 496 89 75 130 
187 686 480 84 58 76 
171 605 465 140 131 132 
177 140 486 140 66 0 
255 366 514 103 112 126 
294 439 523 129 147 170 
363 710 482 139 113 96 
214 533 525 111 134 181 
161 812 339 72 77 135 
418 699 479 178 189 208 
242 861 439 117 83 54 
230 12 489 112 102 97 
153 675 306 70 102 131 
135 645 349 86 101 116 
92 758 342 136 150 190 
291 117 488 105 93 86 
206 845 373 192 177 170 
428 682 500 119 138 209 
175 374 445 63 91 117 
274 393 514 100 103 111 
222 519 509 50 83 130 
202 242 501 61 99 128 
279 584 332 109 122 138 
143 825 379 190 89 120 
224 431 491 67 81 121 
277 46 477 126 114 103 
305 936 435 86 69 55 
231 14 491 116 106 100 
203 802 333 151 78 38 
157 447 460 94 108 135 
285 407 520 96 129 158 
291 611 497 147 139 138 
195 458 484 138 145 158 
226 154 484 93 75 63 
230 167 477 88 73 59 
262 740 491 208 175 142 
192 190 508 74 44 56 
231 177 490 85 64 47 
261 359 359 84 105 127 
296 462 381 88 103 120 
155 561 376 161 156 157 
241 979 454 95 82 72 
184 158 535 133 58 19 
143 547 382 92 114 142 
357 700 422 145 37 52 
158 450 464 160 154 155 
232 9 482 112 100 94 
263 146 505 93 67 52 
296 290 423 116 138 162 
329 770 385 121 108 98 
265 779 353 154 142 134 
99 739 353 179 171 171 
161 567 377 154 146 143 
308 393 425 86 102 120 
286 413 387 156 153 155 
325 532 504 91 116 171 
160 742 312 109 121 183 
205 381 532 172 152 136 
253 339 514 107 93 91 
237 661 314 92 134 169 
88 725 349 120 136 155 
304 425 405 112 117 125 
204 265 482 112 121 134 
187 320 453 96 116 139 
258 744 489 168 161 160 
233 9 485 109 98 91 
77 726 309 76 129 191 
156 766 397 104 90 98 
328 674 384 158 165 179 
330 630 384 137 143 154 
315 812 380 199 148 114 
211 945 432 84 66 54 
275 634 322 82 128 164 
227 341 505 101 79 71 
171 796 332 166 178 201 
133 758 315 122 138 190 
255 396 348 91 111 131 
234 9 487 108 97 90 
130 635 390 95 79 72 
254 319 367 143 111 79 
236 9 480 110 98 92 
228 778 455 81 103 125 
228 365 536 143 18 69 
240 898 479 179 133 115 
299 391 525 93 116 148 
322 642 373 100 133 165 
166 643 458 105 77 67 
242 250 403 73 61 63 
230 452 519 60 79 110 
238 9 481 112 101 95 
266 950 479 195 143 119 
62 683 326 114 90 63 
177 178 441 69 50 66 
238 9 483 107 96 90 
249 525 325 97 120 144 
191 497 476 117 130 154 
355 614 464 80 106 129 
327 472 515 111 128 165 
248 415 507 81 74 76 
341 789 400 176 128 97 
159 675 304 106 125 147 
270 536 335 93 119 146 
141 679 329 93 97 134 
316 271 518 90 125 155 
157 681 425 108 109 152 
140 513 434 110 125 149 
153 457 429 97 112 130 
176 134 485 146 63 0 
205 251 519 71 51 67 
408 659 510 124 101 75 
291 684 331 114 160 199 
300 181 485 138 78 75 
233 319 518 82 95 109 
251 237 495 105 25 49 
230 979 396 97 76 55 
307 518 371 79 100 122 
343 489 491 177 173 176 
195 199 486 105 29 38 
189 770 453 170 141 129 
233 871 428 127 94 67 
273 732 354 102 22 29 
231 946 384 78 60 49 
327 615 352 115 137 161 
404 637 487 79 100 120 
349 535 432 88 115 150 
262 242 543 69 100 126 
330 772 386 127 109 93 
174 131 473 132 85 56 
174 379 355 176 146 112 
259 584 515 93 120 172 
231 678 496 172 84 54 
263 786 455 215 158 132 
308 331 444 101 121 141 
229 287 517 92 90 101 
205 290 477 126 128 136 
233 10 492 107 98 92 
151 762 430 184 82 80 
320 345 472 50 81 119 
274 388 514 113 111 115 
334 801 397 201 146 114 
268 933 371 60 45 32 
248 791 449 218 165 142 
281 839 370 179 137 105 
210 816 339 196 152 99 
136 525 387 82 108 143 
252 296 494 102 64 59 
209 743 467 132 111 113 
217 487 338 141 143 150 
207 263 502 96 56 70 
234 11 494 106 97 93 
246 201 425 66 51 56 
154 340 370 143 114 80 
317 310 524 116 133 152 
295 441 388 116 123 133 
85 679 313 95 85 77 
332 622 387 125 133 145 
184 573 479 97 113 135 
151 742 447 130 111 131 
368 677 524 133 147 182 
258 132 460 96 80 63 
226 676 494 154 111 60 
330 798 443 215 161 127 
236 9 489 105 95 88 
290 671 487 93 91 102 
107 709 342 63 79 101 
234 386 518 69 64 67 
272 992 433 152 117 88 
150 693 341 120 127 142 
246 185 559 73 66 87 
222 723 316 91 109 138 
248 870 366 174 129 93 
199 583 488 79 105 131 
129 648 343 58 86 112 
198 352 419 115 103 95 
300 235 446 81 90 105 
204 291 536 105 25 58 
278 896 471 173 130 102 
225 456 505 63 81 124 
238 10 491 103 92 86 
417 650 493 59 66 78 
254 734 494 178 145 109 
292 688 353 87 120 149 
254 182 446 122 23 22 
166 335 374 130 68 84 
236 343 534 172 144 114 
322 598 402 115 115 121 
187 316 451 104 114 129 
160 653 317 123 135 151 
247 922 370 88 70 52 
248 251 427 83 20 34 
238 10 493 102 92 85 
248 209 521 102 84 77 
217 897 441 154 112 85 
164 182 416 109 105 112 
157 651 428 132 138 156 
236 747 479 111 108 110 
324 726 472 111 102 96 
225 751 469 131 107 83 
334 680 395 149 160 176 
156 315 359 138 123 125 
228 444 515 48 69 114 
231 14 496 109 101 97 
186 128 480 109 97 87 
195 500 478 125 136 153 
263 259 497 68 55 63 
91 680 312 91 82 74 
319 273 501 157 147 147 
150 351 369 163 136 108 
246 204 419 77 51 46 
262 458 345 136 138 146 
188 682 304 126 144 189 
318 607 463 63 71 81 
302 281 440 161 159 163 
159 836 365 155 133 101 
303 267 439 85 118 147 
222 475 499 65 79 123 
187 227 520 100 97 99 
173 841 364 193 163 143 
306 549 360 121 131 144 
233 14 499 103 95 92 
233 15 498 106 98 94 
280 256 415 70 94 118 
294 259 517 137 136 140 
237 136 471 103 88 76 
199 493 483 100 116 149 
308 164 507 119 99 99 
167 820 343 135 73 98 
255 980 462 91 71 59 
136 537 394 84 110 143 
173 226 424 60 82 105 
192 612 371 43 54 66 
213 800 433 150 142 142 
165 674 369 45 50 119 
335 472 423 94 118 142 
173 645 315 72 100 123 
277 292 505 101 101 105 
223 780 328 151 42 61 
306 206 467 64 102 130 
237 11 496 102 94 89 
198 714 483 187 152 113 
171 543 374 86 108 133 
203 219 513 85 25 43 
179 622 482 106 102 126 
321 814 409 222 164 133 
215 425 528 79 64 78 
231 658 508 84 81 86 
188 183 501 77 43 68 
257 259 496 69 55 72 
144 687 333 118 131 151 
231 592 515 102 135 174 
217 899 448 161 117 90 
210 583 508 98 120 144 
328 585 472 101 113 144 
362 624 441 113 117 123 
256 198 553 113 105 112 
231 421 520 66 75 102 
274 75 487 113 93 74 
243 161 486 92 79 68 
238 13 499 103 90 85 
77 700 299 65 103 137 
230 867 460 144 113 85 
313 426 527 93 120 161 
175 587 478 139 145 156 
289 351 518 131 56 86 
331 459 422 54 87 122 
97 753 349 171 166 171 
293 808 429 199 143 116 
197 356 417 104 88 69 
281 948 471 156 116 90 
216 919 455 171 131 105 
169 737 469 172 46 62 
210 751 463 177 156 141 
307 279 456 82 123 157 
215 453 341 92 112 138 
205 281 363 157 155 159 
239 14 500 104 90 83 
310 822 402 201 146 114 
92 712 299 98 118 164 
240 537 321 128 144 166 
299 116 490 117 105 98 
231 17 480 120 99 92 
269 752 479 104 149 186 
284 487 357 76 101 124 
260 748 330 100 117 141 
97 764 334 139 139 189 
219 429 494 72 84 122 
184 782 328 167 174 189 
168 664 455 78 125 160 
179 798 414 195 174 167 
175 377 444 53 83 109 
312 616 344 111 125 140 
239 384 536 163 138 110 
194 203 505 133 33 25 
310 235 491 111 83 71 
231 29 480 103 76 59 
287 643 516 152 110 95 
244 997 382 153 121 85 
202 386 355 142 76 22 
182 466 480 150 147 150 
291 309 414 153 92 92 
371 649 517 127 101 70 
167 135 453 140 80 48 
231 30 482 104 79 62 
263 183 502 57 48 49 
238 143 541 109 65 7 
235 169 435 100 70 50 
270 148 450 139 54 3 
215 500 495 79 96 132 
206 367 357 156 122 84 
389 736 470 126 128 134 
383 690 512 164 189 217 
241 214 397 113 50 65 
232 18 482 122 105 99 
160 665 359 48 72 138 
161 443 394 97 114 135 
313 352 448 85 108 130 
232 16 484 124 110 104 
313 749 372 150 136 127 
161 334 373 137 29 62 
268 979 377 112 86 52 
330 652 524 166 173 192 
175 385 468 118 126 138 
239 276 523 89 92 100 
230 381 502 38 72 113 
289 840 405 180 129 100 
311 823 391 209 154 121 
184 307 361 169 166 170 
288 717 354 127 29 35 
243 242 405 67 74 86 
344 523 418 87 114 146 
214 772 454 162 136 126 
238 736 485 182 139 90 
259 368 530 154 129 102 
232 21 481 121 101 92 
278 696 323 137 59 72 
180 763 323 103 114 178 
232 20 482 116 93 85 
246 746 486 169 161 161 
236 162 411 108 56 20 
243 223 401 69 56 65 
320 242 509 103 112 124 
247 174 560 150 73 4 
138 786 381 103 132 160 
151 740 364 99 117 144 
166 409 381 130 114 102 
255 148 450 106 95 85 
219 289 367 120 132 148 
184 228 527 124 107 116 
229 782 329 200 152 78 
338 567 469 136 149 169 
176 166 457 47 66 89 
158 685 403 120 127 139 
255 210 440 69 45 40 
192 279 538 75 105 131 
160 481 362 74 107 152 
300 189 450 114 47 28 
338 693 474 134 48 44 
253 249 429 80 25 40 
279 273 505 67 79 92 
316 206 500 124 83 64 
301 326 520 131 94 105 
251 962 476 123 97 87 
233 22 485 122 101 93 
309 490 522 184 179 183 
421 686 471 114 141 168 
259 400 507 100 96 97 
424 685 476 123 141 188 
403 648 491 54 69 84 
234 23 485 117 94 84 
150 418 374 146 67 15 
379 649 513 119 95 70 
239 420 337 76 103 129 
196 671 304 79 149 203 
248 606 319 108 124 143 
278 939 373 76 61 50 
83 648 353 101 84 68 
231 353 350 150 151 159 
137 758 370 55 82 113 
272 733 492 166 140 122 
147 340 361 162 139 113 
419 696 473 145 166 192 
275 164 510 73 72 77 
232 19 488 123 106 99 
193 345 481 127 56 46 
201 356 359 195 164 130 
338 462 505 85 106 157 
184 322 460 155 124 91 
106 728 306 172 163 171 
233 19 491 123 106 94 
316 602 352 141 141 146 
193 595 372 76 83 92 
319 219 502 111 59 78 
76 713 301 134 152 193 
233 17 492 128 115 108 
233 858 378 199 150 117 
344 539 408 124 140 159 
139 517 433 113 127 150 
226 404 537 167 81 11 
188 576 364 70 85 99 
204 524 345 90 112 140 
315 203 505 149 89 90 
181 631 325 49 65 85 
237 194 490 61 65 78 
88 659 333 87 80 74 
248 257 540 88 37 67 
343 576 449 136 149 168 
224 565 320 117 126 139 
336 632 501 76 73 73 
234 18 494 126 111 103 
362 742 419 138 124 114 
289 689 338 84 134 173 
261 234 540 81 87 98 
247 204 514 99 83 65 
243 196 552 78 86 108 
233 20 489 119 99 88 
132 742 310 80 104 178 
285 255 510 59 76 92 
220 185 536 33 33 42 
247 329 360 159 131 103 
165 427 356 162 143 130 
280 367 515 132 95 62 
433 662 502 88 80 81 
246 163 541 77 53 40 
246 393 343 96 110 126 
255 720 500 96 100 111 
302 609 484 147 141 142 
312 428 412 118 120 125 
187 294 422 73 108 137 
304 500 375 101 115 132 
231 179 386 155 73 74 
255 373 353 71 102 128 
176 437 356 151 61 86 
121 605 413 136 108 91 
339 598 431 125 143 166 
172 398 383 127 82 49 
202 393 490 92 108 133 
169 547 373 154 151 154 
157 515 368 127 139 164 
109 613 393 103 88 74 
167 529 370 113 128 152 
158 602 455 106 83 86 
127 654 339 36 72 104 
232 480 535 75 108 161 
212 842 383 194 175 160 
265 499 339 84 105 127 
200 370 488 65 84 118 
205 277 364 124 100 82 
245 412 533 133 94 51 
298 922 394 76 61 46 
346 475 482 99 118 158 
247 848 419 161 121 93 
297 233 445 81 109 135 
184 357 475 123 129 140 
144 491 388 93 115 142 
218 814 423 184 129 114 
267 880 473 162 125 97 
347 599 396 102 165 213 
275 589 515 128 146 172 
159 821 393 159 145 136 
224 226 535 82 60 70 
255 383 536 194 164 133 
324 451 521 72 101 160 
266 522 522 47 73 144 
154 401 374 164 137 109 
330 450 428 103 120 140 
193 566 481 132 135 144 
296 755 470 140 101 72 
191 668 496 75 59 127 
203 293 474 81 97 115 
407 706 455 117 104 109 
186 521 367 67 80 111 
278 1003 401 144 119 92 
200 664 304 97 97 102 
198 793 331 150 30 43 
327 413 449 80 108 135 
147 560 381 129 133 144 
199 279 464 117 98 93 
128 617 422 168 117 106 
211 568 495 102 117 136 
229 976 434 121 103 86 
211 410 529 117 102 90 
329 762 388 139 121 104 
180 673 484 143 159 179 
299 278 433 89 125 156 
321 537 506 159 167 182 
284 136 446 116 100 89 
336 601 415 111 121 135 
86 670 322 94 84 76 
237 356 350 137 134 136 
214 365 498 79 84 96 
238 323 358 102 116 131 
201 264 519 89 58 76 
239 753 324 164 177 198 
277 854 419 160 117 86 
245 233 404 52 74 97 
149 261 368 82 117 146 
276 324 506 92 70 66 
333 617 492 97 123 152 
229 987 388 152 130 110 
281 908 470 178 135 104 
374 760 433 196 150 86 
206 467 494 53 85 125 
339 450 451 128 134 154 
217 305 516 108 109 115 
305 173 457 95 34 48 
311 667 486 95 120 143 
163 483 470 140 147 160 
145 745 361 110 121 137 
189 592 370 63 74 86 
305 669 515 127 146 211 
265 1007 406 100 77 55 
150 772 384 104 132 159 
233 31 485 102 80 60 
333 591 457 164 158 160 
173 825 390 176 167 164 
329 594 459 140 140 147 
230 298 519 93 85 91 
305 164 509 126 80 94 
204 591 495 127 133 145 
175 606 385 56 74 91 
328 583 472 102 112 145 
191 501 475 72 91 135 
331 622 387 121 130 143 
258 438 342 124 133 147 
284 406 385 89 114 140 
304 61 493 98 89 82 
211 930 437 83 65 53 
269 20 371 171 153 144 
140 540 383 113 117 128 
241 331 531 76 57 53 
184 339 464 103 116 132 
119 692 308 136 142 165 
214 460 538 96 126 174 
164 542 454 174 164 160 
246 275 390 110 92 90 
181 361 384 158 135 112 
220 488 523 119 131 149 
291 976 420 80 63 49 
296 938 453 107 89 73 
261 760 475 200 165 135 
248 441 333 117 129 145 
150 470 405 81 95 111 
270 520 337 119 129 144 
188 226 533 109 93 106 
238 132 392 96 78 60 
192 342 394 166 142 117 
294 913 445 100 70 52 
194 810 335 162 6 41 
327 375 479 61 107 141 
347 530 422 110 131 153 
243 198 546 137 76 71 
222 162 533 78 62 44 
346 543 410 98 125 152 
274 200 505 70 32 39 
241 897 389 84 63 51 
256 718 502 132 119 109 
222 478 507 86 102 148 
257 61 462 116 93 66 
198 564 358 100 119 141 
271 245 500 74 68 73 
176 531 374 111 125 145 
367 749 470 176 149 122 
215 288 507 79 90 103 
262 465 520 126 134 148 
307 342 439 110 117 128 
149 460 364 60 98 143 
318 421 421 88 103 119 
149 473 406 79 93 109 
363 769 420 154 137 125 
327 482 403 106 116 130 
316 298 472 87 122 152 
252 581 516 186 192 204 
164 586 456 79 114 143 
274 196 506 68 25 33 
275 655 517 97 114 138 
311 394 528 63 96 150 
225 917 387 104 79 59 
234 28 491 110 82 67 
241 451 534 107 93 127 
251 891 487 151 114 92 
421 651 494 43 59 80 
187 292 422 91 113 137 
333 756 465 147 141 144 
250 864 364 183 136 97 
230 478 535 103 134 172 
239 132 475 104 90 80 
246 672 513 59 47 43 
260 221 547 120 87 94 
156 772 428 189 113 115 
209 565 495 97 128 161 
235 28 492 113 85 69 
192 273 524 111 41 79 
139 599 411 75 74 76 
251 576 323 114 136 163 
63 691 342 155 109 85 
166 665 449 93 117 159 
307 956 412 139 113 84 
252 286 544 66 113 148 
302 120 490 115 105 97 
315 219 509 126 14 57 
173 484 474 127 133 150 
241 186 425 61 50 55 
323 493 394 100 112 127 
255 423 522 92 90 92 
205 466 346 94 110 130 
286 880 397 125 95 70 
236 28 494 112 85 69 
199 447 487 63 89 128 
299 125 449 143 125 120 
205 146 548 109 99 91 
162 697 395 36 57 126 
206 718 480 173 59 27 
242 250 401 76 60 60 
179 831 348 96 61 132 
177 705 306 117 146 197 
381 690 436 113 70 70 
246 340 532 110 78 59 
222 669 499 169 118 60 
302 138 491 125 130 139 
367 765 424 178 165 159 
335 717 472 138 96 99 
325 799 385 183 134 97 
238 31 494 104 82 64 
227 954 390 126 99 70 
149 459 410 92 106 126 
320 283 511 81 121 153 
358 707 480 184 134 136 
66 714 314 174 126 96 
167 354 375 109 102 115 
317 440 525 92 122 165 
308 248 518 137 136 140 
267 306 499 82 86 95 
247 624 317 151 149 153 
173 380 445 91 103 118 
234 16 498 115 101 94 
260 263 526 106 94 99 
194 755 466 124 140 166 
234 17 499 119 104 96 
210 667 309 182 180 190 
218 528 345 91 108 171 
184 239 524 152 110 93 
86 652 343 105 94 85 
179 298 392 102 123 145 
325 505 391 106 117 131 
307 239 516 144 139 140 
285 202 435 79 36 32 
195 775 451 152 136 126 
271 304 386 114 107 104 
199 253 457 136 131 132 
280 562 337 111 123 139 
259 12 417 116 89 62 
176 418 479 58 85 121 
311 602 478 111 127 147 
332 614 390 108 116 128 
186 262 442 125 124 128 
250 147 493 102 84 71 
168 135 452 144 78 48 
220 132 505 84 81 79 
132 750 366 46 69 106 
225 955 462 174 133 111 
205 474 494 64 90 140 
159 808 337 112 126 165 
169 393 460 87 109 133 
337 559 387 87 118 145 
187 334 356 166 155 148 
229 465 493 105 113 132 
227 602 512 68 103 153 
183 838 358 199 173 154 
338 401 509 79 109 152 
330 685 475 86 62 100 
235 425 538 135 119 104 
255 385 506 95 94 99 
241 837 354 146 126 110 
302 475 382 128 131 139 
260 393 352 69 99 129 
157 799 409 84 82 94 
142 804 337 206 211 223 
229 562 317 141 149 162 
309 952 422 115 88 66 
321 513 512 187 182 184 
115 727 306 95 102 140 
307 143 457 116 66 64 
293 285 416 131 141 156 
216 347 361 118 115 116 
189 304 422 67 109 143 
156 672 307 88 112 135 
193 625 321 89 101 115 
324 416 439 93 116 140 
238 16 501 107 93 87 
201 308 360 86 115 141 
216 529 517 113 126 148 
257 465 521 82 91 109 
430 660 488 129 134 143 
115 791 347 143 150 201 
162 789 328 164 167 207 
295 357 420 89 109 130 
306 458 525 181 183 193 
166 451 474 89 105 135 
227 375 346 69 105 134 
193 282 526 152 152 159 
320 637 373 79 111 141 
175 655 308 91 108 126 
265 26 489 105 91 77 
77 727 343 99 113 162 
290 746 355 111 131 152 
257 642 514 192 139 126 
190 623 381 49 65 83 
116 794 352 132 151 194 
115 758 363 103 118 152 
234 457 330 147 148 154 
284 878 454 163 119 89 
239 851 415 170 127 99 
242 997 382 180 144 109 
236 982 404 88 69 45 
305 573 355 128 138 153 
301 766 364 155 128 100 
275 20 394 173 155 149 
275 1000 386 175 145 120 
190 247 521 134 70 81 
134 783 326 118 157 210 
291 382 407 106 124 145 
287 876 399 141 106 77 
380 624 485 83 103 124 
239 23 501 124 100 85 
315 531 374 105 121 140 
312 452 525 131 150 178 
235 869 413 162 120 93 
235 24 496 121 97 80 
214 309 361 151 149 154 
274 345 373 122 99 97 
235 440 333 104 121 141 
190 730 471 168 79 77 
183 270 439 132 130 135 
143 628 396 109 83 88 
222 140 482 104 74 50 
143 390 363 181 152 121 
245 135 474 110 97 89 
124 605 394 110 103 99 
75 722 307 129 159 190 
270 118 495 87 73 58 
285 886 457 163 115 88 
236 26 496 118 90 74 
348 534 452 141 150 166 
335 807 411 210 149 114 
162 574 379 65 90 114 
309 664 490 79 114 142 
238 25 498 119 93 76 
323 792 379 153 117 79 
333 373 509 63 104 142 
245 196 412 74 60 46 
170 578 381 77 84 92 
238 27 497 115 89 75 
193 122 524 104 93 85 
288 691 352 65 112 146 
151 259 367 82 110 134 
326 583 475 113 124 145 
313 327 524 172 131 80 
238 24 500 124 100 84 
333 809 414 212 151 120 
248 829 353 166 151 141 
321 387 450 80 108 135 
346 681 409 153 162 177 
231 662 313 81 126 163 
281 223 419 141 0 10 
286 429 381 121 127 138 
238 325 531 122 107 94 
284 512 351 119 129 145 
207 298 519 93 78 67 
257 739 324 164 178 199 
107 681 331 70 77 86 
162 642 455 113 77 72 
163 727 461 125 146 169 
289 137 446 147 82 15 
193 606 375 66 72 80 
276 206 505 49 30 27 
170 145 460 157 78 35 
189 619 374 37 55 77 
292 906 386 64 53 45 
156 402 359 220 178 128 
243 10 481 102 91 83 
221 691 487 122 69 73 
298 481 523 165 174 188 
178 750 465 168 82 81 
368 638 426 100 114 131 
342 730 409 116 92 71 
253 283 377 88 111 131 
229 402 342 98 111 128 
349 787 412 168 121 84 
304 940 431 85 69 61 
183 275 439 124 117 117 
236 419 538 176 73 8 
298 434 525 79 109 156 
218 492 534 178 184 199 
170 305 381 109 128 149 
249 1005 402 141 113 81 
312 127 467 147 64 6 
348 489 467 81 105 150 
240 817 427 197 146 130 
302 186 485 135 69 73 
251 204 491 55 49 56 
261 53 467 112 94 76 
141 549 430 94 112 134 
178 444 481 88 106 133 
254 316 515 74 78 92 
265 420 356 111 124 141 
128 745 364 91 101 115 
347 630 401 85 108 134 
159 325 358 191 154 98 
284 964 454 108 81 66 
180 460 359 140 157 178 
253 333 495 70 88 106 
427 683 499 138 157 210 
348 593 420 104 139 181 
340 494 496 111 127 170 
171 632 386 52 76 96 
105 736 357 44 84 135 
277 466 357 89 112 136 
305 120 457 124 112 103 
246 10 483 99 88 79 
359 738 419 71 67 67 
74 728 341 151 168 191 
148 586 432 72 77 88 
240 158 403 110 52 12 
238 912 474 102 69 58 
344 696 474 190 158 121 
245 10 484 101 89 80 
238 951 478 200 150 131 
193 341 481 134 73 22 
244 10 487 102 91 83 
236 496 530 87 115 167 
245 10 487 102 90 82 
120 752 365 94 104 135 
222 354 524 152 133 119 
255 182 549 135 66 7 
238 580 317 108 130 155 
378 643 444 56 77 100 
260 429 347 124 133 147 
217 359 358 135 118 102 
339 467 503 148 154 170 
205 286 518 106 38 12 
241 9 488 103 92 85 
142 817 349 196 103 120 
387 652 510 118 97 75 
299 524 362 104 118 134 
244 150 488 98 80 63 
240 10 491 102 92 85 
201 804 423 209 189 175 
298 738 478 98 110 125 
242 192 507 81 90 99 
93 694 354 122 86 74 
161 269 386 93 106 122 
243 10 488 102 91 83 
345 531 417 66 109 148 
134 679 325 64 84 114 
238 179 523 95 55 9 
173 377 448 51 77 107 
106 776 342 201 201 211 
213 340 523 84 81 92 
303 309 442 123 126 134 
240 11 493 102 91 84 
212 650 308 181 180 188 
325 434 427 80 102 124 
241 137 473 105 92 81 
239 536 523 148 158 175 
272 873 378 178 135 102 
265 28 396 143 111 105 
273 381 512 95 93 94 
284 213 509 19 37 57 
178 296 362 173 172 179 
242 11 493 102 91 84 
281 716 495 129 123 126 
336 417 514 88 119 152 
229 202 386 109 96 100 
288 915 463 186 137 108 
78 664 365 146 104 78 
90 736 347 122 123 163 
224 531 339 77 100 123 
163 370 373 146 123 99 
263 405 354 61 101 132 
232 383 537 184 155 125 
103 746 310 97 119 178 
192 656 495 71 73 99 
190 503 361 108 120 137 
245 10 490 101 89 81 
257 332 364 132 102 82 
306 709 358 103 60 57 
239 1007 394 165 134 103 
169 678 303 103 119 150 
247 10 488 101 90 81 
329 726 471 170 157 149 
402 643 477 93 114 135 
271 609 324 137 138 142 
266 398 360 118 131 148 
235 182 507 104 49 9 
167 565 457 145 132 127 
321 679 378 139 145 157 
260 942 484 190 143 118 
138 769 319 114 138 201 
214 292 535 163 162 169 
251 1007 412 97 70 43 
308 886 427 151 121 91 
232 881 417 161 121 94 
217 423 342 92 115 140 
289 842 405 181 131 101 
318 537 509 136 148 171 
202 377 356 121 106 93 
308 600 349 85 108 129 
247 11 493 99 88 79 
256 258 415 113 111 113 
317 229 511 146 142 143 
286 181 507 129 50 72 
210 933 433 80 64 52 
269 988 442 66 46 35 
221 515 515 105 117 143 
248 11 480 96 84 74 
238 146 406 85 74 64 
151 475 450 161 154 153 
249 11 481 96 84 73 
211 634 307 116 142 171 
222 848 367 201 167 133 
223 377 496 48 66 100 
202 609 347 95 103 115 
317 398 432 104 117 132 
306 215 462 49 74 98 
269 80 463 141 108 84 
169 411 470 146 142 145 
216 173 541 36 69 102 
246 358 535 109 43 43 
186 573 364 84 95 107 
145 739 359 85 106 133 
160 656 441 131 131 145 
233 763 468 95 102 112 
252 676 512 73 69 69 
247 980 380 129 102 70 
327 486 403 112 122 135 
309 786 445 208 156 123 
249 630 519 155 112 101 
366 772 428 177 169 168 
248 11 487 100 88 78 
233 513 324 84 114 147 
278 774 356 143 125 110 
124 630 383 79 75 74 
172 817 340 179 17 36 
220 484 336 140 140 145 
274 11 406 113 102 98 
238 901 391 79 60 46 
177 365 448 43 77 105 
110 707 306 142 148 174 
308 244 460 133 139 150 
249 283 533 51 90 119 
167 406 442 81 97 117 
378 629 467 26 65 97 
228 425 338 78 105 132 
184 363 477 84 103 129 
134 614 392 83 79 76 
237 940 372 108 91 76 
138 804 382 68 76 112 
255 782 458 218 162 135 
159 365 372 137 56 70 
255 216 555 109 88 105 
262 664 515 105 129 183 
180 502 367 75 97 143 
162 677 356 25 49 118 
291 681 494 135 73 82 
229 460 494 92 107 130 
211 130 523 92 78 69 
314 497 519 159 166 180 
317 297 479 88 123 153 
309 252 463 142 142 148 
253 12 481 94 82 70 
322 315 496 160 157 161 
254 166 551 96 85 75 
209 477 344 64 101 148 
237 510 322 136 147 165 
215 145 537 77 65 49 
342 753 401 117 101 85 
208 321 497 105 122 136 
346 672 522 83 118 178 
255 12 482 94 81 69 
288 346 517 119 76 98 
295 754 359 138 123 113 
157 656 417 70 80 131 
250 334 497 56 85 108 
242 836 354 153 128 102 
221 492 499 75 90 123 
255 12 487 97 84 71 
153 439 378 124 108 98 
291 909 451 149 104 78 
198 352 355 204 164 113 
270 715 347 130 144 163 
336 445 449 113 127 146 
67 672 333 107 87 66 
151 461 431 81 101 125 
306 772 455 204 145 114 
266 912 366 67 50 39 
222 300 536 90 123 152 
236 171 524 109 99 89 
194 678 495 128 97 128 
234 606 315 142 129 128 
360 770 417 159 132 114 
262 675 507 98 94 105 
348 531 459 111 134 161 
172 391 465 78 100 128 
251 11 491 100 87 77 
213 688 312 84 89 103 
229 162 512 78 65 62 
172 143 464 160 67 27 
303 657 334 140 154 176 
326 388 467 65 102 133 
255 550 518 158 165 180 
297 290 429 133 140 153 
149 612 451 101 81 67 
251 11 493 100 88 78 
229 456 495 63 79 124 
248 12 494 96 85 76 
192 344 480 141 96 29 
257 991 437 103 73 50 
202 480 490 77 104 143 
229 453 496 62 80 126 
242 670 514 78 72 71 
277 855 418 160 117 86 
305 252 448 139 142 150 
254 360 354 85 105 127 
239 976 456 90 75 65 
137 563 429 77 104 143 
252 11 488 99 86 75 
231 637 510 157 119 106 
157 715 431 118 132 149 
173 186 431 122 55 75 
252 11 490 99 87 75 
255 206 541 126 101 75 
262 21 474 93 79 67 
221 452 527 47 69 112 
202 338 533 129 134 151 
295 436 389 92 105 121 
293 201 444 92 60 81 
147 212 388 112 63 78 
428 672 511 112 134 183 
176 264 409 138 138 144 
304 686 486 140 123 107 
236 870 416 162 120 93 
233 586 315 150 157 171 
196 358 417 121 103 82 
251 317 365 140 137 138 
314 342 455 124 131 142 
166 816 397 153 114 95 
149 642 394 129 132 151 
333 597 450 123 135 152 
204 649 305 173 172 181 
285 591 511 167 160 162 
167 164 429 123 93 81 
310 685 360 154 170 190 
269 641 320 92 135 170 
174 634 472 169 115 111 
291 408 397 63 96 124 
193 151 534 148 140 134 
299 155 489 120 79 75 
303 747 363 135 114 98 
271 118 466 102 82 59 
254 13 493 102 89 78 
200 595 356 80 91 104 
320 464 522 107 134 167 
327 386 472 87 117 146 
254 370 508 103 113 126 
175 630 358 76 106 135 
286 622 505 90 83 79 
310 579 358 92 78 74 
255 14 494 103 92 82 
169 402 465 105 120 137 
187 303 444 130 128 131 
294 798 438 207 149 122 
193 611 377 46 55 64 
388 666 444 71 105 134 
268 217 501 67 39 53 
246 158 559 113 100 90 
278 525 343 69 103 139 
322 606 354 122 130 142 
179 293 362 154 146 145 
394 666 454 120 122 129 
258 799 444 207 153 131 
349 544 426 109 133 159 
200 233 467 154 152 158 
241 12 498 103 92 86 
188 639 310 40 65 84 
159 623 462 119 74 71 
197 322 408 133 131 136 
264 85 465 129 99 64 
135 678 313 63 92 119 
184 180 386 106 81 78 
279 890 383 107 78 68 
243 12 498 101 91 83 
243 13 499 103 91 83 
179 359 458 75 94 118 
138 572 414 78 88 136 
240 14 500 105 91 84 
271 632 521 183 136 124 
240 15 501 110 94 86 
249 148 448 114 97 89 
140 585 417 71 97 121 
267 1007 397 119 91 62 
279 731 356 140 32 41 
276 235 409 96 65 71 
362 675 422 152 159 172 
312 469 394 134 134 140 
235 499 529 63 94 153 
292 538 522 91 112 143 
328 355 511 119 133 151 
252 1004 394 128 97 66 
314 722 475 126 116 112 
186 145 449 139 91 67 
243 15 502 118 105 99 
177 312 361 167 166 172 
329 671 503 156 177 203 
293 888 427 135 103 75 
107 696 303 48 91 128 
189 186 500 99 46 69 
415 650 481 117 124 135 
244 13 498 103 92 84 
268 574 329 132 133 140 
139 550 386 67 110 142 
193 528 353 138 146 162 
238 637 512 108 75 83 
151 283 365 142 141 147 
136 495 386 86 116 146 
175 404 422 51 76 97 
310 138 475 119 130 144 
185 329 457 86 109 132 
162 680 358 76 107 153 
309 177 498 66 82 100 
102 724 353 67 83 117 
203 256 463 75 75 87 
213 647 308 169 169 179 
329 457 517 71 100 157 
194 682 491 183 157 136 
243 198 520 76 34 28 
284 121 462 103 83 61 
300 171 508 101 93 110 
241 184 430 79 48 44 
254 652 508 126 80 80 
245 675 314 86 137 178 
169 420 390 113 84 97 
245 1007 409 159 132 106 
175 354 358 153 147 146 
130 770 319 107 118 197 
175 417 354 134 113 96 
212 931 401 74 54 50 
249 12 496 103 92 83 
219 241 537 75 56 91 
250 334 495 64 87 109 
151 546 443 134 143 157 
201 809 419 179 172 171 
315 551 506 112 128 166 
219 825 412 183 134 115 
248 15 499 112 100 91 
287 891 457 160 113 84 
197 540 352 118 125 137 
187 821 340 151 132 113 
238 138 542 108 100 92 
283 365 517 130 69 93 
337 707 471 80 105 126 
325 368 478 118 133 152 
403 678 516 102 128 181 
328 756 387 135 110 83 
274 153 450 141 62 4 
283 669 324 173 173 182 
168 353 376 129 60 80 
290 900 448 152 107 80 
283 1001 420 135 108 82 
316 472 522 165 172 186 
251 975 379 114 90 61 
249 15 500 115 104 97 
98 678 315 82 84 88 
356 632 497 48 62 86 
245 137 483 114 103 95 
285 275 411 132 131 134 
165 665 372 56 72 124 
312 668 504 141 160 183 
166 692 382 25 71 120 
305 487 380 111 121 136 
195 212 484 57 34 50 
166 804 336 186 19 55 
237 145 559 130 88 30 
200 693 310 137 153 188 
71 664 345 115 91 63 
282 692 500 150 21 43 
177 433 481 153 147 148 
156 676 305 79 110 139 
249 334 537 114 121 133 
257 349 525 122 120 124 
179 757 320 148 155 188 
240 18 502 107 92 84 
194 783 443 180 157 139 
191 182 511 111 39 40 
304 819 410 200 143 114 
203 232 536 55 97 127 
241 19 503 103 84 69 
81 686 359 154 106 85 
351 631 406 83 110 137 
293 226 513 99 32 58 
311 539 513 134 148 177 
246 254 425 79 76 75 
260 293 539 72 117 151 
160 483 467 121 131 151 
217 612 501 97 125 157 
109 749 360 114 120 152 
347 473 478 92 113 152 
370 731 423 131 114 100 
239 435 333 105 121 143 
327 772 457 201 151 118 
289 160 445 106 46 30 
149 240 384 108 43 68 
171 393 381 153 69 6 
211 385 536 182 157 133 
425 669 513 86 121 161 
241 23 502 119 91 79 
319 325 477 145 146 153 
298 526 520 155 164 179 
208 340 496 80 104 129 
247 931 369 86 66 42 
357 612 479 58 81 101 
250 872 365 180 133 94 
60 691 329 145 105 80 
183 570 367 90 100 113 
303 259 443 115 129 146 
150 777 417 148 85 80 
288 894 454 159 112 80 
244 17 502 106 95 92 
111 758 360 124 135 162 
345 638 398 75 87 102 
239 289 523 66 78 91 
141 565 388 65 89 137 
337 704 401 148 30 51 
143 631 367 45 97 135 
256 751 328 162 138 137 
247 398 506 94 85 95 
161 777 425 169 145 125 
342 510 419 127 138 155 
259 946 484 199 152 128 
233 774 328 149 19 40 
282 107 481 74 62 49 
179 464 480 152 147 149 
246 18 502 95 82 74 
182 332 385 162 138 114 
297 478 523 127 147 171 
249 697 316 149 151 164 
346 484 477 162 163 171 
266 185 439 81 43 33 
296 722 484 160 149 146 
320 651 372 141 153 172 
283 1002 412 141 113 84 
284 100 474 105 88 70 
262 589 516 173 177 190 
220 539 347 80 111 142 
291 362 410 93 119 145 
229 383 502 34 81 117 
168 274 386 132 134 141 
325 514 388 101 114 131 
203 276 468 132 126 125 
222 275 536 149 147 151 
241 191 547 91 84 102 
164 256 392 67 104 133 
153 599 454 136 94 89 
263 641 319 97 133 163 
196 573 484 76 95 126 
231 856 392 191 142 112 
285 240 428 72 90 108 
178 635 473 174 116 109 
202 239 502 67 105 135 
203 272 467 72 95 114 
238 164 408 108 57 6 
272 313 381 127 99 66 
343 571 453 122 135 159 
268 87 466 131 99 65 
322 612 460 35 60 85 
233 387 538 195 167 141 
137 548 404 103 118 140 
76 674 321 99 90 82 
217 382 497 38 65 96 
266 992 439 102 78 55 
381 699 436 68 81 100 
298 403 409 34 82 118 
214 727 317 96 121 180 
220 970 426 97 77 63 
273 706 323 112 149 188 
249 213 428 88 41 39 
176 502 469 100 118 149 
229 318 536 141 28 70 
311 663 359 74 92 108 
252 236 503 105 26 52 
273 605 325 135 135 139 
243 25 503 122 92 83 
174 469 478 89 102 140 
218 131 511 95 86 78 
267 540 521 137 143 166 
255 920 485 122 97 75 
235 327 360 94 117 138 
334 605 389 92 113 139 
174 192 387 107 64 65 
328 378 521 77 109 143 
232 418 519 60 67 94 
231 396 525 110 49 72 
162 135 465 133 93 69 
261 152 503 67 61 63 
164 137 465 139 87 13 
191 287 363 130 118 119 
333 461 427 79 108 137 
125 806 356 194 204 223 
142 516 405 91 106 125 
209 387 536 188 161 134 
229 219 525 28 26 26 
266 273 387 108 123 142 
330 392 478 76 109 138 
344 509 426 129 142 160 
421 668 514 114 134 164 
312 240 514 131 131 136 
242 29 499 116 91 76 
298 912 408 76 61 52 
280 238 416 72 121 157 
285 493 523 102 117 152 
71 728 332 63 108 190 
201 427 489 86 103 135 
109 717 307 128 135 155 
139 803 337 189 201 218 
380 757 443 169 146 125 
65 714 332 179 126 103 
179 396 415 65 86 114 
272 120 466 99 79 54 
330 632 506 97 85 75 
242 30 500 117 92 76 
160 345 358 213 174 129 
256 440 527 134 124 122 
296 413 402 130 135 144 
311 284 522 89 121 148 
260 291 534 85 89 114 
323 780 380 137 130 129 
267 308 500 78 88 101 
244 26 502 122 92 83 
381 707 435 73 74 98 
217 392 497 43 65 95 
200 631 308 93 113 134 
294 193 446 63 53 75 
203 339 487 139 64 93 
246 25 503 123 96 85 
301 358 523 100 125 149 
229 465 331 136 141 151 
288 757 356 134 109 85 
301 547 517 111 129 170 
301 585 507 124 133 149 
317 208 500 127 86 69 
308 595 351 82 110 134 
286 985 390 142 116 89 
325 355 498 143 148 159 
77 735 324 138 148 205 
327 418 522 78 109 156 
149 753 422 98 123 145 
283 532 350 60 92 122 
340 633 501 86 79 74 
215 323 520 91 95 105 
392 703 442 130 34 30 
313 695 369 85 57 96 
290 358 411 74 103 142 
160 416 378 126 110 94 
246 161 560 117 105 96 
223 897 416 130 81 51 
208 762 323 167 175 193 
336 525 493 182 179 184 
180 216 434 49 92 122 
302 160 445 43 47 76 
268 634 521 193 144 130 
195 309 528 108 121 137 
288 561 344 147 147 154 
315 780 449 211 158 124 
271 726 337 131 142 159 
258 960 477 167 127 108 
339 619 396 53 65 77 
147 651 356 82 98 143 
218 945 458 152 121 100 
252 365 501 108 101 105 
154 834 380 74 74 121 
190 579 365 90 93 97 
275 780 457 208 153 124 
287 922 465 170 130 105 
389 664 446 63 102 132 
413 670 469 79 105 127 
205 334 524 105 113 126 
262 956 384 113 82 49 
249 18 501 88 79 73 
144 782 385 69 67 127 
272 833 363 160 126 91 
180 363 439 93 105 120 
324 332 521 172 141 107 
176 635 327 79 98 118 
358 774 416 100 126 149 
176 663 305 104 119 138 
267 48 474 111 98 89 
189 729 469 138 44 47 
163 647 322 92 112 131 
250 18 501 91 81 73 
287 171 446 132 36 13 
224 596 512 71 129 169 
245 559 515 126 142 175 
251 19 500 89 79 71 
333 602 414 121 123 131 
250 19 502 84 71 60 
252 322 509 70 102 127 
142 642 368 45 100 133 
295 116 485 110 98 90 
306 727 363 113 83 83 
311 904 435 140 104 82 
263 612 507 151 153 162 
251 20 501 82 70 58 
108 756 313 139 144 189 
252 381 537 174 134 98 
161 423 413 93 108 125 
253 972 473 101 85 72 
198 519 478 84 105 144 
135 556 411 128 131 140 
187 660 484 138 140 146 
86 643 360 105 85 63 
251 22 503 93 77 61 
310 405 420 102 109 118 
198 142 442 130 90 70 
231 327 523 80 88 101 
315 553 506 111 122 169 
257 804 439 200 150 130 
292 63 476 103 75 50 
227 340 497 110 45 42 
175 654 308 90 108 127 
339 436 505 145 153 167 
253 18 499 112 104 100 
195 720 480 161 76 79 
347 555 410 164 164 171 
173 541 468 99 118 138 
177 180 536 146 70 90 
297 925 392 81 67 58 
306 612 476 68 77 89 
274 152 510 45 67 86 
197 130 536 135 66 6 
254 18 497 113 105 102 
316 211 507 126 92 82 
316 885 419 125 103 86 
169 324 377 161 139 117 
291 624 486 37 51 63 
194 229 538 104 106 117 
255 19 498 105 97 94 
256 184 550 140 65 7 
332 647 522 164 121 91 
291 346 518 112 115 129 
278 1001 389 186 144 122 
323 458 409 124 128 137 
335 610 401 103 109 119 
374 715 430 124 98 69 
306 948 410 109 89 69 
213 571 344 90 84 89 
309 230 481 138 136 139 
218 657 310 103 127 151 
271 160 450 109 99 87 
252 21 501 83 69 56 
278 184 510 107 41 49 
336 611 488 97 115 134 
302 593 499 96 111 130 
79 699 299 43 92 129 
272 567 332 137 138 144 
154 716 354 131 137 148 
322 610 423 58 65 76 
205 788 442 219 184 152 
119 688 327 46 68 101 
188 620 352 73 85 99 
143 788 386 134 151 170 
255 492 523 67 85 119 
174 397 385 122 102 81 
251 175 558 148 62 5 
187 177 473 110 48 40 
92 658 376 158 112 89 
235 421 337 77 103 130 
294 454 523 159 166 180 
183 170 489 94 43 68 
306 683 356 162 175 193 
232 379 507 108 106 110 
276 453 360 97 112 128 
151 458 442 111 121 139 
222 448 491 77 91 123 
288 189 437 56 48 57 
95 655 378 159 111 92 
325 592 469 95 118 142 
195 779 447 157 147 145 
243 284 521 90 95 103 
95 717 300 129 140 176 
241 369 534 134 79 69 
226 160 481 100 80 61 
141 614 401 73 70 69 
270 272 499 45 66 83 
131 614 391 81 76 73 
311 140 474 62 97 126 
180 717 475 89 133 169 
108 733 357 129 136 148 
158 658 439 119 114 123 
347 497 444 108 130 153 
300 154 484 110 83 81 
299 495 522 185 182 188 
240 260 395 75 62 53 
125 607 392 106 101 99 
367 681 496 106 115 123 
250 29 502 123 99 85 
265 575 328 140 139 143 
257 800 351 144 123 105 
174 358 378 161 139 117 
196 301 537 168 170 180 
212 311 519 88 96 108 
69 718 310 92 119 174 
166 593 462 151 118 114 
169 840 378 42 48 66 
190 342 391 157 131 103 
357 612 478 71 89 107 
288 147 444 143 64 17 
374 649 515 122 98 71 
353 638 408 83 122 157 
190 582 486 84 112 141 
191 276 537 79 123 159 
267 9 399 128 114 110 
180 703 481 127 155 183 
253 27 502 117 92 77 
283 286 510 112 112 116 
260 252 526 106 85 83 
164 435 395 114 122 137 
260 799 444 205 151 129 
305 608 480 151 146 148 
208 346 494 93 112 131 
246 174 539 77 69 63 
171 521 368 85 111 144 
257 16 494 100 88 78 
228 891 468 166 129 104 
210 260 366 86 116 143 
425 688 487 158 174 210 
222 500 496 79 89 129 
160 427 440 71 96 120 
241 483 531 75 103 162 
241 665 512 103 99 99 
227 148 525 114 58 17 
219 965 436 98 80 69 
253 28 503 120 95 81 
260 424 512 54 75 96 
189 169 507 76 38 69 
170 248 408 107 82 91 
226 376 535 183 156 128 
205 843 364 211 194 184 
250 205 490 52 49 59 
294 320 424 179 142 95 
208 328 358 102 126 157 
295 676 333 179 180 189 
157 716 419 113 122 135 
218 270 535 87 118 145 
159 690 428 156 159 167 
276 976 454 123 101 78 
322 473 402 111 121 135 
239 148 404 96 87 80 
199 562 485 94 108 139 
248 216 496 41 41 54 
259 592 515 130 150 188 
187 415 485 121 123 131 
316 288 476 114 134 155 
298 162 439 88 27 31 
274 986 441 81 64 52 
185 570 478 91 109 136 
125 715 308 88 107 129 
298 193 448 95 50 58 
235 32 462 94 75 54 
308 403 528 75 109 157 
198 520 479 90 112 144 
341 745 403 80 69 58 
245 962 386 111 79 51 
187 268 365 94 125 151 
226 466 536 136 153 175 
265 466 346 69 98 126 
91 689 357 135 94 75 
312 649 348 99 140 184 
180 143 513 106 107 110 
304 721 359 153 65 65 
207 583 349 69 88 105 
228 584 516 65 96 129 
207 432 535 107 119 149 
316 642 350 134 160 189 
257 656 512 88 106 141 
325 629 379 130 137 149 
238 32 460 91 73 52 
218 528 492 102 106 123 
245 198 420 63 53 51 
149 266 378 79 115 145 
289 473 522 119 138 166 
163 633 374 13 87 134 
153 259 365 77 112 143 
326 519 508 106 124 170 
133 691 328 77 93 133 
284 240 429 69 84 100 
190 406 486 85 105 128 
156 655 317 84 110 134 
309 663 357 64 60 75 
190 516 357 81 107 132 
195 413 354 131 115 100 
315 873 421 129 107 88 
67 673 347 132 100 67 
269 614 323 142 141 145 
283 887 462 162 117 87 
196 729 477 176 65 71 
249 210 513 36 63 82 
344 719 471 155 127 115 
370 682 522 174 196 229 
162 560 375 82 107 133 
246 165 541 64 52 37 
330 684 391 147 31 35 
156 320 372 146 121 93 
240 244 527 70 54 72 
342 640 518 127 102 75 
235 199 391 103 96 105 
335 447 512 91 114 157 
209 930 418 82 66 56 
238 697 489 92 101 121 
312 628 495 61 66 73 
374 664 431 101 120 146 
195 312 398 141 142 148 
303 595 497 97 110 127 
87 664 371 153 108 84 
176 842 368 144 69 60 
217 369 354 103 82 78 
262 787 453 215 160 132 
313 378 437 56 90 118 
186 273 365 94 130 161 
245 859 444 117 83 55 
265 815 431 178 123 104 
255 158 496 67 54 45 
163 653 447 66 113 149 
116 634 371 87 81 78 
342 789 401 178 128 95 
234 862 445 117 86 62 
230 35 471 101 80 58 
272 531 524 75 100 152 
307 928 445 98 81 70 
297 286 519 104 121 141 
234 320 511 69 78 88 
292 847 399 163 117 86 
225 971 410 93 74 61 
210 924 427 84 67 55 
266 163 450 104 103 102 
203 807 335 160 139 119 
318 213 503 123 68 72 
223 323 520 80 78 91 
302 188 503 116 57 80 
157 742 379 94 111 134 
221 817 341 102 89 78 
376 736 476 160 131 101 
96 685 358 124 86 70 
319 669 503 133 161 191 
276 621 506 82 76 73 
159 671 403 90 108 151 
343 596 375 144 150 162 
229 33 473 102 80 61 
288 818 368 171 129 92 
318 428 419 88 103 119 
119 746 305 145 151 201 
319 239 499 147 69 19 
200 566 486 90 102 140 
290 323 415 146 77 98 
148 380 370 151 120 88 
216 486 526 69 92 139 
197 351 485 91 105 123 
172 541 373 88 111 139 
308 910 440 134 108 83 
331 600 451 134 140 151 
324 628 379 132 138 151 
68 669 338 113 89 61 
282 742 483 172 151 140 
230 32 474 103 80 59 
422 661 477 75 91 106 
96 683 360 129 92 73 
216 948 398 102 80 61 
118 641 392 153 105 91 
212 396 497 59 78 112 
244 203 487 41 44 59 
248 761 327 103 63 63 
157 454 361 63 99 144 
176 150 540 117 105 96 
170 516 367 152 155 167 
268 744 487 157 134 119 
162 785 418 142 151 162 
225 160 533 76 83 93 
212 514 526 131 149 171 
235 169 434 99 69 49 
365 617 466 68 90 111 
230 35 476 100 80 60 
208 618 495 155 157 166 
188 175 481 105 49 55 
185 230 435 108 69 92 
276 351 377 100 122 148 
188 575 482 134 139 150 
358 774 455 159 154 155 
170 280 361 106 68 77 
255 963 384 109 76 51 
167 724 308 64 113 193 
148 829 362 172 14 69 
281 695 349 79 122 159 
308 607 477 136 138 147 
333 518 398 62 93 128 
265 413 511 63 82 99 
323 413 436 74 102 129 
253 815 352 172 155 143 
231 288 400 92 94 100 
172 584 468 87 117 146 
317 473 397 118 122 131 
229 371 526 111 93 98 
274 150 449 142 60 3 
157 595 454 109 90 73 
67 715 335 181 124 102 
165 707 457 126 145 166 
231 301 511 99 75 74 
190 350 354 145 28 47 
331 730 394 138 117 100 
157 273 362 152 153 161 
247 300 490 92 89 98 
142 822 378 158 93 97 
179 391 407 88 85 89 
335 557 479 74 92 148 
314 517 516 178 176 181 
277 590 514 132 151 174 
230 38 477 99 80 60 
256 21 498 85 77 72 
229 984 400 121 101 80 
267 171 506 71 58 57 
415 657 476 94 113 133 
225 348 536 195 166 137 
253 950 483 200 156 134 
359 707 423 135 34 46 
325 613 423 46 62 80 
162 616 466 134 98 87 
239 197 493 64 47 55 
304 925 448 128 106 85 
175 686 479 154 169 190 
318 889 421 130 105 85 
154 551 373 148 151 161 
342 424 496 149 152 162 
210 942 413 78 62 56 
177 535 375 95 112 136 
354 784 448 209 144 114 
260 889 476 151 109 90 
197 358 407 117 98 77 
124 640 387 102 74 71 
304 214 458 51 78 107 
240 131 469 98 84 71 
205 274 471 124 118 116 
294 471 374 140 138 141 
250 808 349 192 155 112 
175 813 400 137 137 142 
192 209 500 137 31 16 
280 781 455 207 149 121 
331 717 394 94 102 111 
292 567 519 190 188 194 
248 732 492 171 145 120 
307 882 426 163 132 103 
220 599 510 61 96 130 
288 827 411 180 126 97 
203 271 467 66 97 121 
331 601 445 141 141 147 
313 574 361 116 116 121 
275 705 501 104 131 161 
248 881 366 172 130 97 
309 640 363 112 57 87 
250 384 348 68 96 123 
222 132 518 96 87 81 
224 297 381 113 115 122 
288 300 513 103 112 124 
280 503 348 124 129 139 
354 618 494 84 128 162 
323 770 458 197 144 112 
266 736 334 135 111 110 
231 44 479 97 79 59 
180 389 424 76 93 115 
177 424 481 76 97 128 
144 415 362 181 140 95 
256 986 449 101 82 68 
370 642 428 87 98 112 
216 776 326 196 42 52 
188 810 409 147 113 84 
253 1006 411 110 88 62 
192 843 367 189 150 120 
325 753 468 124 129 138 
208 133 531 102 85 71 
303 61 483 139 126 118 
310 898 439 135 107 83 
183 172 471 104 43 45 
285 902 465 179 133 104 
215 501 338 88 103 120 
198 722 316 183 180 192 
232 33 466 101 81 59 
233 32 466 101 80 59 
238 820 424 195 142 125 
160 698 428 177 165 161 
76 695 353 159 109 88 
330 611 356 80 112 142 
182 132 507 128 68 0 
385 740 470 126 96 92 
322 311 499 158 155 159 
255 324 540 145 155 170 
313 519 377 99 116 136 
234 32 465 98 77 57 
325 611 421 49 56 68 
265 24 368 167 151 142 
177 637 320 65 90 116 
235 33 464 92 74 52 
295 558 348 93 106 122 
208 452 345 85 107 133 
227 542 325 103 119 137 
316 888 423 135 109 87 
192 743 319 156 162 197 
218 352 524 129 111 100 
329 678 476 51 58 110 
377 662 435 87 109 142 
257 816 431 190 135 117 
224 457 502 71 86 122 
148 509 371 102 124 151 
252 721 497 85 93 109 
346 628 496 141 140 146 
183 170 540 104 100 105 
163 474 361 125 144 176 
233 38 466 92 73 53 
280 232 426 144 139 139 
179 465 360 140 151 176 
263 352 503 97 79 60 
238 223 393 105 59 79 
82 676 363 155 107 84 
156 806 337 179 200 220 
235 37 465 89 71 52 
234 37 466 92 73 53 
167 345 375 117 81 90 
295 614 337 107 120 136 
237 279 385 114 56 6 
253 453 530 106 114 149 
299 278 431 96 127 155 
149 513 449 168 163 166 
148 397 372 166 139 110 
159 548 372 116 126 140 
216 419 345 73 101 128 
172 661 459 62 63 71 
279 709 334 155 163 179 
281 872 454 157 114 84 
153 746 314 71 48 123 
385 707 437 125 44 51 
321 562 496 166 164 171 
187 144 538 101 91 84 
330 805 435 217 153 121 
262 512 334 110 121 136 
237 39 465 87 70 52 
317 744 376 147 135 129 
271 816 430 181 130 110 
214 285 506 74 87 104 
278 123 460 102 82 60 
285 73 455 162 113 90 
347 513 470 171 171 180 
346 533 462 121 141 164 
139 445 372 116 102 92 
272 716 499 110 103 105 
211 928 404 84 63 56 
232 40 468 90 72 51 
139 635 351 78 114 147 
286 795 361 138 134 136 
289 553 522 125 140 169 
286 54 496 128 115 105 
159 647 393 95 98 148 
210 556 518 61 92 140 
175 224 428 49 79 105 
145 423 374 138 79 39 
136 669 333 57 91 128 
334 378 509 85 123 154 
326 543 500 87 112 168 
323 340 489 117 130 148 
271 862 452 131 95 66 
234 40 468 88 71 53 
342 598 407 101 126 152 
182 198 524 89 88 91 
255 376 518 141 119 98 
214 708 315 108 151 190 
348 520 436 109 126 153 
224 136 520 97 89 82 
282 507 349 123 129 142 
202 280 538 70 106 138 
185 357 354 142 0 49 
228 307 389 80 102 123 
175 202 435 137 92 66 
168 134 457 141 86 56 
258 341 499 71 86 102 
210 436 538 75 101 150 
229 541 520 103 118 153 
207 421 534 119 106 94 
244 901 382 83 65 56 
142 569 388 60 76 126 
180 533 466 117 128 144 
168 515 462 121 135 154 
281 306 508 99 102 110 
342 486 494 162 164 174 
259 149 500 78 68 66 
152 304 360 114 138 162 
84 650 370 134 101 71 
220 356 501 107 77 93 
178 129 479 116 99 87 
219 503 335 114 132 157 
333 463 512 83 117 157 
240 131 472 102 87 76 
279 51 494 132 120 113 
141 435 367 135 115 94 
252 914 367 71 53 42 
242 695 315 177 175 182 
338 610 483 83 101 120 
256 327 496 83 88 98 
315 903 438 154 119 92 
337 564 384 78 107 133 
312 542 511 154 164 181 
243 837 355 196 157 111 
233 814 343 151 132 116 
275 774 461 203 149 117 
279 231 424 138 137 138 
379 623 491 82 101 121 
176 400 406 97 96 98 
341 436 472 120 137 157 
307 223 460 126 35 66 
299 345 520 118 134 153 
217 167 541 74 51 58 
244 685 499 137 103 74 
224 706 315 71 107 136 
133 816 361 201 36 66 
147 727 424 113 137 162 
279 385 378 70 103 143 
87 666 324 96 86 77 
358 623 421 102 113 127 
239 45 466 89 73 56 
321 488 395 102 112 125 
229 461 516 64 77 114 
257 615 506 114 134 157 
309 806 372 185 135 101 
358 719 421 78 85 92 
198 391 354 124 84 54 
255 491 332 106 125 146 
154 463 399 117 125 138 
206 429 351 66 93 126 
260 516 521 70 98 157 
255 336 521 115 113 115 
258 398 528 155 134 114 
261 131 501 96 90 85 
212 238 535 33 60 96 
310 814 414 206 147 117 
251 619 318 149 149 156 
261 331 499 80 84 93 
172 135 475 170 74 0 
161 535 451 117 127 142 
410 681 512 165 186 221 
221 666 502 195 134 50 
199 822 342 142 126 116 
236 47 470 85 69 52 
236 183 481 91 57 40 
183 159 497 150 26 25 
347 533 423 112 136 162 
70 688 305 104 89 74 
208 497 345 104 119 139 
146 798 388 133 135 142 
360 762 464 215 195 182 
264 35 496 98 83 72 
112 754 311 184 184 203 
177 676 468 144 137 136 
254 310 514 103 108 118 
305 651 335 175 179 191 
270 353 368 128 132 140 
275 752 478 146 129 115 
171 388 355 163 130 99 
323 443 417 98 107 121 
232 45 473 94 76 58 
186 241 532 139 114 115 
254 368 353 68 100 127 
249 218 490 38 40 50 
280 243 505 85 29 47 
240 166 534 57 66 75 
158 620 397 82 78 76 
159 620 396 81 77 76 
311 556 363 120 132 146 
259 715 319 132 155 185 
249 255 545 102 62 54 
221 944 390 108 87 66 
