ply
format ascii 1.0
comment Created by CloudCompare v2.11.1 (Anoia)
comment Created 2/28/22 9:38 PM
obj_info Generated by CloudCompare!
element vertex 2008
property float x
property float y
property float z
property uchar red
property uchar green
property uchar blue
end_header
266 993 409 93 70 51 
271 676 305 190 190 205 
111 720 340 79 104 148 
266 235 516 92 55 66 
302 433 492 98 115 142 
211 902 409 100 68 42 
243 19 362 141 111 73 
289 560 504 82 101 135 
298 529 499 49 76 142 
285 611 308 166 166 172 
291 953 394 82 69 56 
218 547 304 123 129 139 
34 706 364 161 112 90 
182 342 427 93 111 130 
239 226 360 92 73 72 
240 22 361 142 116 86 
377 727 390 136 109 79 
270 516 537 156 171 196 
277 246 503 113 52 69 
167 786 341 162 45 36 
187 163 440 114 81 43 
242 21 361 140 112 79 
299 567 497 98 120 167 
347 624 422 103 113 126 
256 177 560 111 115 125 
256 144 522 111 81 62 
212 983 411 88 70 57 
306 712 463 122 130 142 
293 797 347 89 116 141 
189 570 475 145 147 156 
245 17 362 134 106 72 
179 509 472 113 130 157 
248 524 505 79 95 116 
294 507 348 108 113 122 
302 434 396 57 84 108 
281 602 308 123 84 90 
280 185 549 80 39 39 
279 462 526 74 69 74 
267 182 498 67 52 37 
209 631 299 119 47 71 
272 1002 380 124 91 68 
257 693 307 87 149 198 
252 869 435 124 87 58 
273 553 509 98 113 165 
277 351 549 197 178 164 
231 877 364 150 114 84 
148 444 413 71 81 95 
356 675 465 136 161 189 
313 681 458 76 121 154 
201 163 478 126 89 67 
279 312 519 98 97 100 
137 565 395 59 85 119 
277 444 560 142 57 98 
281 431 537 52 69 115 
149 489 458 137 143 156 
142 653 398 43 57 89 
232 422 319 87 106 125 
241 26 358 149 129 112 
314 359 430 87 103 122 
264 380 516 69 70 83 
327 790 424 207 156 122 
153 454 450 95 110 130 
257 576 517 121 148 184 
69 698 398 159 107 87 
266 227 522 64 44 56 
287 338 527 122 135 151 
219 746 319 168 181 204 
254 1001 364 125 86 54 
300 796 426 207 150 118 
215 145 475 95 88 81 
163 791 344 148 158 172 
278 237 501 89 36 53 
360 668 486 135 148 203 
188 462 474 119 129 145 
284 962 384 122 96 74 
320 371 433 79 108 133 
269 11 386 140 121 112 
177 279 332 103 141 174 
288 537 506 132 141 160 
153 734 417 110 133 158 
283 492 546 99 136 185 
202 269 435 120 114 115 
396 640 426 68 95 119 
193 386 465 31 69 105 
286 140 446 111 123 134 
244 26 358 162 142 127 
244 27 358 172 151 134 
49 675 390 127 97 66 
256 255 551 63 41 57 
270 371 502 148 142 142 
35 694 369 132 100 70 
144 495 451 134 137 146 
317 573 480 100 119 148 
305 742 460 127 101 81 
137 498 391 106 124 149 
273 987 420 80 65 53 
270 561 510 120 137 163 
203 965 428 97 76 64 
266 432 501 64 78 119 
236 288 485 132 137 149 
250 582 515 123 158 195 
244 29 358 116 84 60 
225 143 486 98 88 80 
228 206 560 149 93 79 
68 677 360 98 89 81 
275 254 507 65 86 103 
265 304 555 148 144 147 
277 258 380 121 130 142 
278 545 312 123 129 139 
295 787 435 205 147 116 
257 214 367 100 41 22 
335 487 427 171 166 168 
220 431 465 68 92 119 
54 700 396 169 120 96 
300 195 540 103 47 33 
368 728 436 189 170 154 
306 726 351 162 120 116 
132 651 347 83 93 104 
306 768 443 176 128 95 
86 778 384 195 191 194 
122 782 401 92 114 137 
387 742 435 163 146 133 
142 418 412 106 104 107 
308 351 478 91 117 142 
296 918 436 126 102 81 
288 230 547 44 37 49 
264 468 313 148 150 158 
252 474 501 65 86 119 
196 598 306 100 112 126 
215 911 385 79 64 48 
209 417 335 105 125 152 
246 31 360 129 94 74 
362 677 455 123 149 175 
202 459 337 88 108 132 
248 19 359 152 131 111 
259 480 504 96 111 130 
187 155 399 84 73 62 
161 535 376 77 91 128 
266 891 455 163 122 93 
246 527 507 89 107 133 
250 853 352 193 142 104 
202 817 341 187 161 141 
291 261 431 124 126 133 
171 267 331 148 5 43 
177 558 368 77 101 133 
178 307 399 76 74 84 
237 600 301 139 150 172 
285 369 497 160 122 67 
319 726 451 103 103 115 
329 497 456 173 168 172 
85 681 371 74 77 83 
165 766 456 150 60 98 
237 289 559 90 23 64 
295 271 520 112 48 77 
308 521 354 62 90 115 
289 301 403 154 151 154 
143 794 351 138 163 190 
319 676 451 163 74 79 
75 764 357 64 84 167 
143 444 368 162 77 6 
309 689 468 181 125 125 
222 865 368 195 145 112 
278 263 539 58 93 120 
218 880 422 119 89 62 
198 327 343 61 103 133 
156 747 455 107 143 174 
252 18 359 159 136 117 
173 321 414 97 68 76 
180 692 469 67 116 152 
277 434 350 131 144 162 
288 637 339 128 134 145 
222 591 493 152 160 175 
210 173 469 96 46 36 
297 301 422 80 116 145 
256 486 306 75 102 128 
365 704 440 138 50 82 
281 154 436 134 108 90 
203 252 433 87 103 121 
264 604 306 92 139 179 
224 890 459 170 134 111 
270 104 474 113 91 68 
316 697 366 133 49 52 
333 457 438 117 133 152 
259 853 356 184 141 111 
90 725 385 65 77 97 
263 189 501 76 62 50 
251 859 354 219 160 117 
251 789 448 218 165 140 
293 588 495 79 105 161 
287 470 533 67 99 151 
222 170 482 143 27 19 
238 658 498 94 62 57 
298 221 471 133 9 60 
255 23 358 170 151 139 
288 910 442 161 125 100 
261 156 434 101 75 47 
91 644 426 153 111 91 
277 12 399 111 88 80 
290 342 397 132 141 155 
324 586 431 122 122 129 
173 382 441 60 91 118 
283 844 369 220 165 133 
208 619 497 114 112 135 
140 640 399 57 110 146 
258 660 500 64 76 93 
220 218 359 112 44 39 
324 822 391 229 164 131 
121 770 398 115 125 140 
303 570 493 100 124 165 
160 178 387 124 98 82 
184 312 380 136 137 144 
245 906 355 71 55 45 
277 120 459 102 92 85 
168 538 366 151 154 166 
91 718 335 112 132 164 
138 657 389 76 118 150 
230 366 477 121 129 146 
200 440 472 82 96 114 
302 682 475 28 49 106 
268 989 373 115 94 72 
135 525 387 92 119 160 
269 367 343 83 118 148 
292 350 399 89 111 136 
280 710 333 172 37 35 
297 323 481 132 101 105 
79 699 383 81 69 67 
418 663 446 103 83 62 
51 694 346 74 80 86 
159 411 408 101 72 56 
276 991 387 107 86 68 
352 721 385 128 33 35 
201 178 462 42 53 88 
314 558 340 103 91 89 
217 209 360 123 84 37 
361 752 433 145 129 116 
229 739 472 145 127 117 
175 520 469 105 122 150 
304 513 493 123 129 150 
183 417 345 84 99 117 
282 459 355 119 126 138 
273 58 454 121 96 67 
227 588 492 76 92 110 
286 498 534 121 144 181 
266 182 562 89 56 77 
291 619 342 137 139 148 
212 996 373 144 119 93 
280 173 490 130 84 60 
277 362 551 195 179 170 
331 512 443 157 165 179 
327 558 451 145 147 156 
256 594 507 103 140 175 
293 284 543 75 122 157 
171 268 332 147 39 52 
250 29 359 171 146 135 
345 656 387 66 98 136 
265 935 465 173 136 110 
259 344 333 74 102 129 
294 933 434 121 100 79 
187 273 332 138 56 73 
128 542 438 79 111 150 
180 371 448 80 102 123 
107 800 364 91 113 188 
226 495 475 130 129 134 
233 563 300 180 177 181 
321 417 421 141 146 157 
308 464 387 77 95 115 
290 382 392 73 99 126 
235 991 359 113 84 55 
134 463 425 134 141 154 
154 406 414 76 92 109 
284 940 381 67 51 49 
182 410 465 126 132 144 
164 423 384 152 119 88 
255 25 359 171 152 138 
270 972 442 116 86 74 
267 868 371 179 139 105 
263 228 519 51 72 102 
181 335 420 140 137 140 
282 71 459 139 101 81 
146 498 366 75 101 149 
250 781 454 213 165 139 
212 939 372 81 67 55 
288 910 441 160 122 99 
187 728 321 105 123 148 
398 720 443 170 53 76 
291 329 490 138 30 76 
267 268 555 67 104 132 
256 700 487 126 106 101 
259 350 572 113 129 153 
240 283 569 77 118 149 
268 172 562 160 68 41 
181 208 388 109 78 98 
323 583 449 111 119 132 
346 809 402 206 142 112 
169 311 402 129 121 121 
277 741 481 212 189 170 
263 156 497 74 63 60 
279 502 327 112 124 139 
266 285 543 152 63 5 
219 845 352 140 106 77 
234 216 480 119 31 29 
245 893 466 166 126 99 
334 483 427 142 147 159 
333 506 430 117 129 155 
45 704 387 164 116 91 
271 357 350 69 101 136 
389 683 478 165 184 225 
138 459 418 142 139 142 
254 356 329 91 109 128 
336 772 434 179 163 153 
200 792 332 184 121 113 
201 570 323 87 116 142 
176 408 346 208 77 13 
196 219 444 130 23 44 
441 665 428 103 121 144 
171 458 358 101 114 143 
404 729 403 80 34 61 
160 563 381 86 100 122 
300 251 525 70 98 122 
184 498 355 61 95 149 
287 949 433 111 90 77 
197 933 416 87 70 58 
238 372 486 65 80 105 
260 223 557 129 25 52 
247 911 348 77 65 53 
302 707 472 121 130 153 
308 824 367 221 166 132 
386 680 405 60 93 119 
301 915 440 137 116 95 
288 764 342 131 117 107 
231 320 473 116 100 113 
304 707 468 56 38 84 
282 410 501 62 97 125 
256 184 539 83 64 69 
131 669 330 103 121 143 
152 728 422 69 78 110 
195 532 478 78 91 120 
204 946 380 94 77 61 
284 197 556 92 57 86 
326 588 350 95 137 172 
166 357 335 139 124 128 
299 699 480 178 85 79 
206 206 457 51 34 38 
441 679 427 76 105 134 
222 361 334 129 131 138 
194 837 398 168 156 152 
326 596 379 155 167 186 
324 762 367 129 108 85 
275 805 345 115 104 96 
138 502 419 128 131 141 
293 662 495 141 162 189 
374 641 421 20 58 105 
140 756 395 83 105 130 
199 583 353 93 93 96 
405 699 407 100 108 120 
146 692 379 56 83 133 
232 756 464 170 143 121 
322 561 350 171 168 173 
353 675 463 148 169 194 
249 341 331 111 111 124 
236 247 562 114 92 92 
282 223 495 51 65 103 
217 636 299 82 134 178 
238 956 470 211 170 149 
327 535 395 123 134 152 
270 985 429 92 74 59 
300 289 464 137 137 142 
178 799 431 174 157 143 
170 537 365 69 79 139 
298 237 470 143 141 145 
334 661 490 50 83 146 
222 972 453 106 85 72 
103 707 365 64 82 104 
164 737 330 192 187 194 
233 170 392 88 63 46 
295 727 476 177 154 133 
345 613 437 76 107 134 
262 370 328 89 113 136 
227 198 372 74 77 81 
265 364 333 110 123 140 
301 639 491 150 103 90 
314 664 358 125 148 175 
324 372 441 66 107 139 
159 319 338 139 141 150 
331 739 373 150 123 97 
207 296 445 94 108 124 
224 53 345 133 115 98 
224 52 346 132 115 99 
288 246 513 105 83 102 
179 373 446 63 93 120 
142 840 389 65 49 106 
380 687 397 43 60 94 
227 612 300 176 173 180 
158 435 450 149 148 152 
272 374 558 172 141 109 
130 623 455 171 126 114 
175 362 419 137 135 139 
152 695 322 185 187 201 
124 812 401 173 46 52 
367 679 459 117 144 172 
190 169 437 142 69 13 
129 655 386 86 107 137 
50 673 388 122 95 67 
280 402 369 70 100 131 
262 184 559 78 59 77 
226 55 346 131 117 106 
278 77 440 164 115 67 
296 441 385 92 106 122 
252 788 449 218 165 140 
205 518 350 121 137 168 
278 431 554 144 126 109 
323 546 360 116 135 158 
192 154 417 109 82 62 
173 357 333 121 141 171 
165 682 315 47 73 158 
236 935 353 82 62 44 
226 55 348 113 96 85 
263 180 390 104 46 18 
315 586 473 92 116 142 
291 609 355 72 111 143 
183 627 307 88 100 115 
247 150 497 111 75 55 
241 289 558 121 125 132 
201 928 426 94 73 60 
393 696 458 160 184 212 
234 960 366 124 92 58 
251 208 515 103 9 38 
263 166 527 98 96 97 
109 790 355 102 140 195 
228 1012 408 158 134 111 
440 674 445 105 91 93 
209 896 445 159 115 91 
197 275 332 90 128 158 
256 763 336 90 96 105 
67 656 387 97 85 73 
188 375 457 56 92 121 
96 667 411 142 99 82 
273 885 438 149 110 81 
301 899 449 137 119 104 
157 569 387 92 102 114 
230 49 351 139 124 114 
260 733 481 188 172 168 
197 842 355 164 151 141 
218 580 300 107 130 160 
231 509 305 89 108 132 
43 729 363 115 146 192 
253 659 307 175 176 189 
183 784 334 94 92 102 
224 57 343 127 112 101 
217 335 468 103 112 127 
194 352 452 96 113 131 
89 704 336 124 133 147 
186 566 366 81 95 110 
195 567 366 93 98 105 
301 202 541 98 59 56 
225 56 346 124 108 98 
294 964 406 115 93 73 
136 577 450 92 109 131 
314 698 363 151 47 48 
224 58 345 135 121 111 
263 238 554 84 73 86 
339 808 382 199 139 106 
250 181 395 91 47 27 
226 56 347 121 104 95 
164 437 460 126 130 140 
306 355 420 90 104 122 
135 780 403 119 130 146 
256 164 571 123 109 95 
157 828 407 142 121 114 
209 805 337 163 122 86 
224 282 463 91 108 127 
182 311 421 84 80 97 
219 336 337 169 121 71 
259 254 355 84 99 116 
372 714 390 102 32 31 
256 487 525 67 91 141 
278 304 382 128 138 152 
221 1010 382 146 126 108 
303 300 457 131 134 141 
248 239 552 97 35 41 
91 685 339 78 111 144 
179 804 426 165 155 151 
257 849 406 167 120 89 
226 56 351 102 84 73 
226 57 350 100 81 69 
195 536 480 98 117 140 
288 939 436 100 82 67 
128 619 454 164 118 109 
272 201 563 37 37 63 
170 797 342 103 59 52 
273 791 343 161 154 153 
158 804 426 72 80 110 
366 616 442 74 90 107 
199 290 436 73 100 123 
171 834 396 191 155 117 
230 849 407 171 125 98 
303 225 525 89 94 103 
353 698 386 120 122 131 
198 178 430 104 58 63 
184 212 401 47 81 106 
244 891 467 165 125 102 
225 63 349 117 91 66 
322 367 438 59 100 130 
341 722 438 97 91 89 
243 864 453 118 91 64 
201 223 447 152 25 36 
187 642 482 185 132 127 
250 262 503 124 125 133 
225 394 330 99 115 134 
290 470 549 130 155 192 
203 941 438 137 107 85 
270 377 501 128 126 131 
224 32 359 124 106 88 
224 33 358 124 107 89 
106 657 417 140 100 82 
248 262 560 87 59 81 
255 291 554 113 119 128 
203 664 485 70 114 147 
214 666 494 63 67 93 
275 877 387 143 105 76 
266 339 569 172 151 131 
275 818 350 162 118 80 
250 463 523 48 83 130 
209 729 483 162 54 61 
148 646 330 71 87 102 
344 806 412 209 147 117 
289 180 480 133 59 69 
166 668 312 142 143 156 
329 429 438 126 136 152 
245 471 306 84 108 131 
326 523 459 93 112 156 
273 498 540 105 132 180 
203 642 488 190 180 180 
340 666 485 93 130 196 
221 171 566 114 103 93 
121 673 366 81 102 131 
139 562 453 97 113 135 
255 341 332 93 115 137 
199 448 473 79 99 120 
142 472 384 99 73 79 
245 296 557 120 127 139 
276 16 385 144 122 111 
164 399 340 165 163 172 
285 770 342 136 117 101 
131 493 438 98 115 147 
279 540 506 72 91 131 
312 476 482 86 103 146 
292 239 437 160 74 5 
259 857 408 162 118 88 
382 644 463 112 92 72 
278 219 548 95 27 44 
154 643 460 177 118 110 
294 426 498 143 147 158 
226 37 353 123 107 90 
178 440 470 72 99 132 
256 258 352 117 109 106 
317 752 360 154 142 135 
288 248 489 106 59 71 
299 622 494 129 108 91 
328 555 382 112 131 159 
230 804 338 174 148 123 
330 431 443 155 158 169 
246 840 410 172 121 101 
210 516 342 86 111 137 
162 614 396 31 44 58 
294 808 417 205 145 120 
281 429 511 127 118 111 
268 505 311 104 118 134 
248 612 500 60 88 165 
169 637 314 82 106 128 
229 35 355 123 106 87 
288 623 349 87 79 89 
199 931 419 82 64 50 
273 271 548 132 123 120 
296 260 548 114 76 80 
330 444 453 68 100 149 
292 403 391 69 96 125 
360 771 383 175 140 98 
394 651 434 41 61 91 
125 653 355 62 94 129 
93 785 360 125 138 201 
409 668 417 105 119 136 
277 279 514 116 112 118 
282 408 534 179 149 116 
278 276 379 161 159 164 
294 677 478 85 122 153 
279 318 380 169 138 104 
311 772 355 171 153 140 
134 524 395 152 150 155 
228 37 353 123 106 88 
270 380 561 163 135 105 
228 36 354 123 106 88 
323 540 365 116 136 159 
291 169 451 92 94 101 
228 38 353 122 106 88 
247 153 509 130 79 45 
267 944 358 71 55 40 
197 817 420 110 111 123 
361 677 466 118 141 167 
230 37 353 122 105 86 
319 587 462 109 116 135 
302 631 313 165 173 188 
155 515 465 159 163 174 
401 710 452 134 165 197 
289 383 548 160 31 79 
249 1005 365 115 89 59 
204 425 337 100 118 146 
233 264 476 66 101 128 
283 708 332 153 64 101 
271 50 463 102 91 83 
371 680 455 105 141 174 
199 430 340 156 158 166 
219 433 326 90 108 127 
243 465 490 116 132 161 
174 637 347 69 81 94 
103 702 346 78 114 152 
170 692 317 58 109 170 
132 665 378 99 117 151 
216 312 339 117 134 153 
301 915 432 153 117 85 
213 831 411 183 135 113 
229 867 443 118 89 61 
226 813 428 208 158 140 
287 404 552 195 158 113 
257 483 505 86 101 124 
244 242 495 71 102 127 
312 216 534 134 121 114 
346 672 387 119 131 150 
165 563 373 117 128 145 
85 667 415 171 118 96 
290 241 487 92 58 73 
151 815 418 113 109 127 
231 161 422 122 91 73 
248 741 478 131 120 114 
217 988 389 81 59 39 
163 414 404 100 70 53 
229 947 470 177 135 111 
144 756 402 111 130 152 
284 834 393 191 137 106 
322 558 350 147 148 156 
210 689 494 86 77 75 
229 44 352 115 104 94 
278 348 370 146 150 160 
253 146 547 101 90 82 
281 401 549 177 107 54 
304 708 346 127 135 143 
134 540 422 110 120 135 
420 665 443 98 84 71 
197 592 485 106 131 157 
231 47 355 118 104 94 
277 263 540 57 97 125 
265 200 564 50 37 57 
274 158 573 102 90 78 
437 687 424 78 113 168 
212 979 427 93 73 59 
292 559 318 150 148 151 
275 177 418 125 41 57 
164 472 359 118 133 163 
257 376 490 118 125 137 
311 826 382 226 171 136 
165 772 451 203 145 147 
291 369 494 141 64 93 
276 911 449 172 123 94 
235 32 357 140 126 114 
235 33 357 146 132 120 
280 913 383 75 61 51 
303 345 482 104 121 141 
251 947 471 183 136 111 
104 746 392 70 85 109 
241 717 485 145 123 109 
193 712 315 114 136 168 
152 517 371 91 116 156 
218 854 391 184 139 113 
245 538 300 94 125 157 
301 298 449 124 134 148 
414 643 428 75 100 124 
205 852 367 207 175 140 
298 285 439 80 115 145 
236 281 558 97 70 85 
188 594 377 88 88 91 
238 702 489 115 81 76 
230 916 464 155 115 99 
282 801 432 209 150 123 
258 917 347 103 81 60 
279 730 486 70 65 67 
386 724 394 123 33 21 
117 766 397 78 91 120 
281 331 547 137 63 80 
192 595 321 133 136 144 
313 441 481 135 144 159 
249 170 426 113 62 12 
229 489 310 74 103 133 
435 689 452 106 123 194 
242 148 441 93 81 69 
159 368 409 115 46 71 
301 455 495 167 163 167 
234 963 368 129 96 61 
281 423 552 130 102 67 
190 833 400 181 122 123 
136 515 384 72 98 150 
255 870 432 122 88 56 
229 256 561 144 105 81 
226 380 331 77 109 139 
279 283 526 60 81 99 
278 188 548 82 42 51 
162 295 333 83 133 173 
290 300 517 117 57 72 
277 841 393 176 128 100 
234 169 571 123 109 98 
281 395 509 147 132 119 
185 316 383 114 117 125 
172 388 338 224 183 131 
317 771 436 167 122 91 
262 419 319 86 111 137 
262 365 522 114 127 145 
268 520 534 126 142 179 
259 168 504 99 83 71 
284 355 498 139 92 67 
219 490 324 101 114 132 
298 635 312 157 169 188 
237 36 357 163 148 138 
226 1008 374 181 148 122 
143 649 332 76 91 107 
179 586 376 80 85 93 
138 508 445 127 137 152 
266 67 478 122 101 80 
395 684 412 107 111 119 
164 512 468 188 185 190 
236 38 358 112 94 76 
205 275 334 155 150 150 
236 874 356 136 104 76 
327 771 435 122 92 69 
322 580 457 115 121 135 
96 786 389 102 120 173 
218 364 467 58 84 118 
317 701 455 170 138 107 
254 757 335 52 30 76 
176 365 425 131 131 137 
155 677 317 152 161 184 
216 186 459 97 48 65 
153 412 346 187 157 123 
264 182 498 68 53 40 
192 759 472 189 92 64 
277 477 543 97 126 168 
289 616 308 70 106 137 
301 797 351 116 117 122 
293 309 410 133 127 124 
191 266 430 127 126 131 
275 952 449 138 109 89 
325 577 446 79 95 115 
282 939 374 71 58 49 
200 197 450 94 33 40 
177 278 351 70 107 135 
238 37 361 106 78 60 
327 642 374 53 64 77 
261 229 554 132 65 64 
285 978 401 137 111 83 
420 664 454 117 96 75 
190 196 402 101 93 105 
202 597 302 112 127 146 
337 663 383 67 101 140 
287 934 434 105 87 70 
314 720 361 149 120 86 
184 711 474 117 136 157 
239 38 363 120 93 70 
55 677 400 145 106 80 
327 576 375 120 137 158 
327 418 433 128 133 144 
160 534 378 90 100 152 
285 766 342 150 134 121 
289 673 487 100 137 170 
268 374 338 68 103 136 
148 607 462 43 49 56 
264 556 527 102 124 169 
328 536 425 49 85 147 
153 640 406 60 78 102 
88 680 402 134 92 77 
171 629 326 74 90 106 
271 413 336 81 110 138 
317 634 358 138 139 147 
316 695 457 174 149 115 
271 371 510 83 84 105 
304 64 450 168 147 135 
234 41 356 138 122 110 
278 234 391 141 139 141 
239 146 496 109 80 64 
142 812 412 164 71 76 
256 424 517 43 75 113 
223 476 472 120 122 131 
100 663 402 99 81 67 
225 451 322 92 122 155 
299 439 495 118 132 151 
133 693 367 130 137 150 
277 274 540 137 132 134 
281 350 378 168 165 169 
195 927 406 105 76 54 
234 43 358 110 89 73 
237 478 307 123 133 147 
296 508 349 96 104 115 
284 354 383 91 117 146 
278 410 552 164 129 74 
205 161 484 146 64 5 
414 655 422 97 114 133 
242 619 495 130 103 109 
218 899 395 142 109 82 
295 823 400 199 139 110 
282 310 493 112 115 127 
296 710 481 119 101 132 
256 38 366 169 138 108 
134 646 368 68 113 149 
174 521 361 118 131 158 
265 330 554 93 118 140 
219 738 317 109 138 170 
215 315 458 113 97 81 
269 197 510 84 50 35 
250 291 342 121 71 35 
257 99 452 86 71 53 
186 316 426 141 137 139 
314 676 362 138 149 165 
233 45 358 113 90 79 
112 812 391 147 171 198 
278 854 379 174 130 95 
312 776 434 197 139 107 
205 140 408 79 65 50 
287 236 422 112 123 137 
205 401 467 56 79 113 
47 682 388 134 99 70 
175 274 411 107 110 117 
177 495 356 65 100 153 
148 641 458 176 119 114 
152 443 436 65 95 129 
350 709 385 84 86 108 
263 262 558 103 85 107 
187 156 399 81 70 61 
216 250 343 115 92 82 
277 340 370 119 132 150 
266 302 499 96 117 146 
329 491 402 126 140 158 
212 927 372 79 59 52 
157 676 419 97 105 148 
241 130 478 74 60 43 
332 481 418 172 166 168 
282 619 307 77 113 147 
274 173 496 88 57 44 
264 313 497 86 111 135 
142 479 414 138 139 145 
298 181 541 88 80 74 
272 73 470 119 100 83 
178 160 418 107 92 79 
155 665 426 63 69 108 
311 422 409 106 115 129 
245 637 499 170 126 119 
307 618 453 93 81 87 
325 626 490 128 107 87 
245 217 364 107 26 16 
163 374 405 120 99 75 
159 765 453 155 98 116 
246 532 497 90 111 147 
270 677 306 172 176 189 
331 455 428 155 158 169 
162 517 375 94 99 143 
283 319 389 102 121 141 
254 128 450 97 81 64 
216 972 447 114 89 74 
293 55 461 155 136 123 
139 807 355 165 63 61 
144 609 462 98 86 77 
173 385 401 128 108 88 
308 681 469 131 61 73 
212 839 402 185 135 113 
132 648 360 80 106 135 
237 41 363 117 92 75 
234 253 563 137 110 100 
261 175 543 88 59 53 
327 620 451 71 86 102 
287 241 545 34 47 84 
236 43 363 113 91 73 
71 652 391 96 85 74 
253 172 541 72 56 56 
151 729 397 63 95 133 
136 505 396 131 139 153 
155 385 411 56 81 105 
266 420 325 104 125 148 
343 631 460 43 57 69 
125 641 412 50 68 109 
223 685 309 167 168 181 
287 53 454 141 125 111 
249 177 560 159 66 36 
436 697 442 137 148 216 
299 162 576 123 110 97 
282 437 512 133 120 111 
204 961 384 129 96 68 
337 734 378 94 81 69 
262 653 306 174 173 180 
320 582 466 104 123 144 
377 630 426 29 66 94 
139 691 372 77 101 141 
188 314 332 129 144 163 
170 689 451 124 127 151 
283 929 379 68 54 41 
193 299 433 104 63 71 
225 231 556 82 91 107 
268 898 379 82 64 51 
297 184 539 88 78 72 
303 695 342 140 150 165 
290 249 429 119 109 101 
305 792 426 205 146 114 
333 631 488 126 104 81 
237 619 302 181 178 185 
69 671 411 158 112 87 
157 804 425 75 76 116 
222 843 351 200 151 95 
234 979 458 100 83 71 
286 656 308 97 130 180 
259 349 573 111 131 155 
290 801 347 151 145 144 
238 643 492 105 90 87 
213 675 306 71 130 183 
141 631 461 169 124 113 
342 674 451 116 144 172 
185 672 309 176 174 181 
276 307 375 141 119 95 
302 212 534 81 58 63 
376 700 394 128 42 62 
366 681 391 140 144 156 
250 245 555 52 93 122 
236 232 481 116 36 66 
118 644 433 165 111 97 
189 528 354 139 149 171 
299 327 480 124 109 116 
230 48 352 138 124 114 
62 698 399 166 112 92 
243 771 460 138 143 153 
172 370 335 173 12 57 
231 48 353 132 117 106 
268 154 545 88 73 60 
75 759 350 67 91 169 
254 436 522 91 108 136 
233 919 357 86 71 57 
229 791 445 128 147 167 
210 935 374 95 75 60 
371 780 401 151 140 134 
328 821 395 227 161 132 
209 620 299 161 163 174 
172 634 361 74 81 91 
279 202 518 85 67 54 
298 251 459 79 109 137 
281 626 500 146 116 101 
416 660 429 69 81 94 
192 644 478 136 110 120 
183 342 429 124 128 139 
220 877 402 166 125 96 
155 765 428 126 101 114 
302 261 546 115 81 79 
56 668 379 95 83 71 
414 727 432 115 116 130 
99 668 368 35 71 94 
263 330 570 123 139 159 
216 317 339 106 119 134 
255 605 305 117 140 167 
236 290 484 105 122 143 
311 614 344 114 110 125 
245 659 497 59 59 65 
230 374 472 71 92 135 
198 587 353 68 50 51 
230 50 359 104 88 75 
231 511 305 89 107 131 
298 383 402 72 98 126 
183 751 475 83 123 166 
202 213 343 107 95 101 
214 858 366 206 152 121 
330 762 372 120 103 85 
157 361 404 107 86 63 
78 757 384 172 170 177 
233 285 340 120 126 136 
225 330 470 109 80 95 
189 341 439 90 109 130 
314 358 429 90 105 123 
381 657 481 129 144 165 
145 836 400 127 124 132 
324 386 436 116 132 151 
274 920 356 91 71 55 
248 689 309 106 152 191 
246 506 514 46 72 133 
290 439 378 71 94 116 
230 156 394 72 65 57 
218 247 445 136 134 138 
243 546 300 112 142 173 
228 54 356 94 79 67 
163 315 344 146 147 155 
270 216 384 108 17 53 
350 734 434 129 131 140 
279 454 525 102 74 76 
181 161 398 102 88 77 
340 616 423 67 110 144 
261 28 392 145 130 128 
230 53 358 88 73 60 
182 679 312 191 187 197 
213 175 469 134 39 41 
215 426 465 57 84 112 
230 55 358 81 63 49 
173 723 324 118 135 174 
231 49 360 107 89 73 
273 325 521 62 78 94 
161 256 345 67 77 103 
292 250 548 56 85 109 
270 169 405 95 41 21 
286 718 486 134 106 88 
229 581 300 183 179 184 
211 513 336 148 147 152 
285 311 394 148 146 150 
269 893 453 167 121 93 
315 635 493 169 117 107 
181 620 321 59 59 62 
267 751 477 205 177 152 
298 203 460 137 87 76 
184 687 314 187 185 199 
268 164 412 75 56 50 
266 463 319 56 93 140 
216 635 299 90 147 193 
177 843 367 174 148 122 
236 280 559 108 48 82 
329 738 371 118 105 96 
252 354 488 137 111 82 
147 645 438 145 107 114 
312 572 331 84 113 138 
184 327 426 137 135 138 
174 628 375 68 75 87 
108 653 381 86 108 132 
213 671 305 87 156 209 
251 177 417 91 61 54 
292 963 408 113 92 73 
277 380 553 163 127 81 
220 455 325 109 127 162 
217 635 299 96 149 192 
96 793 368 168 168 214 
285 346 497 137 70 96 
141 612 417 49 57 65 
195 592 367 92 91 93 
139 606 437 43 53 63 
232 217 559 93 95 106 
148 521 460 131 145 166 
405 733 407 141 155 171 
279 539 506 71 89 129 
227 60 354 107 88 67 
210 692 309 128 66 84 
232 146 513 122 107 92 
247 229 553 125 4 50 
227 62 353 118 94 66 
290 140 457 124 134 145 
155 440 380 150 71 1 
228 57 355 77 60 40 
228 58 355 79 61 36 
231 921 464 134 108 93 
278 185 541 63 54 71 
241 168 511 131 35 30 
260 490 525 60 85 143 
104 655 392 86 85 105 
290 154 572 91 80 73 
235 957 469 214 174 157 
168 179 385 117 85 61 
271 906 455 177 132 103 
278 295 497 136 135 142 
93 683 364 77 86 96 
280 520 521 68 95 156 
229 390 329 93 109 131 
227 166 490 136 50 25 
237 547 486 88 108 128 
176 337 413 141 139 144 
166 426 457 124 130 142 
91 640 402 110 98 89 
276 286 502 118 78 91 
190 811 339 87 84 85 
238 747 318 175 29 28 
206 636 496 174 176 187 
362 703 388 123 58 42 
208 219 456 148 35 35 
284 198 529 76 46 50 
231 1015 402 138 108 75 
162 402 418 70 87 112 
228 60 355 101 81 57 
145 592 396 59 71 86 
289 466 502 94 110 142 
315 669 362 124 141 164 
300 916 431 147 111 84 
408 655 426 65 88 116 
268 694 319 72 126 166 
167 328 335 152 164 182 
295 284 520 112 98 107 
314 755 449 71 104 132 
321 483 468 111 126 148 
131 580 427 66 86 133 
200 575 360 108 106 109 
283 267 518 64 100 128 
369 680 453 123 149 177 
229 62 356 116 95 72 
232 469 312 63 98 135 
154 746 423 123 143 167 
284 492 545 75 116 177 
243 481 305 86 108 131 
296 206 550 136 46 42 
258 997 422 90 72 62 
212 258 339 94 68 61 
95 633 409 108 97 87 
353 636 410 99 103 110 
220 497 319 99 116 136 
272 181 497 91 66 42 
389 657 420 25 82 122 
176 255 395 107 45 64 
233 195 504 33 51 89 
156 424 347 197 85 18 
271 378 509 88 94 111 
124 785 402 106 120 137 
206 802 435 100 91 93 
231 57 360 99 81 62 
168 368 404 127 104 80 
273 165 564 169 66 16 
154 698 323 88 123 186 
232 48 358 115 97 83 
287 780 444 202 148 113 
342 727 381 84 101 118 
335 619 400 44 74 96 
158 552 461 166 156 154 
331 449 432 92 119 151 
274 879 412 142 111 87 
131 651 399 65 110 143 
252 583 515 120 156 202 
130 554 412 89 102 125 
288 455 368 130 134 143 
138 688 371 65 91 134 
329 772 434 128 96 73 
177 688 462 96 113 145 
137 512 420 75 93 131 
279 456 351 135 140 151 
233 51 363 109 88 70 
179 162 406 123 89 71 
114 677 338 75 98 121 
121 656 382 92 106 124 
332 623 459 88 104 121 
302 725 346 153 114 50 
176 301 420 69 107 138 
159 579 389 93 98 106 
235 50 363 113 87 65 
163 268 331 134 41 68 
271 843 396 173 126 100 
294 646 340 90 106 124 
261 630 502 190 137 127 
432 701 427 159 170 202 
253 243 553 61 86 106 
224 260 454 118 119 125 
303 439 492 89 106 145 
233 52 363 114 93 74 
219 279 453 112 121 134 
51 737 355 137 150 200 
316 610 349 163 162 170 
223 256 346 89 89 91 
296 832 387 202 145 116 
131 657 336 96 103 112 
190 617 349 71 85 99 
223 272 456 106 115 128 
280 433 504 65 79 106 
208 534 341 88 106 127 
317 517 475 165 167 176 
285 256 403 153 150 153 
309 669 469 115 149 181 
184 320 382 115 122 133 
328 556 394 125 140 159 
279 385 549 149 91 78 
250 950 471 187 141 116 
309 438 402 123 127 135 
265 187 542 66 71 84 
195 489 345 102 120 144 
284 277 537 51 71 88 
168 371 364 162 138 115 
257 87 448 111 88 62 
102 661 401 105 79 73 
179 215 391 58 85 107 
167 312 413 63 94 119 
179 342 419 131 131 138 
304 905 445 157 130 103 
169 297 404 76 113 145 
214 901 453 159 119 96 
286 739 479 182 146 103 
215 381 465 61 87 122 
162 775 448 168 74 96 
215 950 370 74 57 44 
247 513 510 38 64 115 
286 695 331 149 165 187 
268 381 498 85 101 123 
281 211 412 49 75 94 
268 294 357 118 117 121 
240 887 467 141 90 83 
103 651 426 169 116 98 
82 689 378 84 82 86 
280 388 546 122 118 137 
265 520 523 100 116 159 
256 73 443 132 102 75 
283 592 309 90 125 157 
219 614 494 102 123 147 
144 817 356 115 28 34 
288 308 514 164 164 170 
222 988 393 70 54 39 
187 289 385 89 56 61 
155 442 351 172 148 119 
266 193 381 53 56 55 
134 460 424 146 150 161 
282 245 495 74 109 138 
349 781 377 140 113 89 
239 52 366 144 116 97 
279 208 494 38 35 52 
291 804 424 208 147 121 
313 585 479 118 137 161 
254 701 488 141 123 116 
259 26 396 199 174 170 
200 332 450 144 99 43 
164 633 381 57 72 89 
178 237 420 53 78 102 
175 846 377 254 220 187 
280 413 531 164 136 103 
285 260 400 103 65 77 
232 63 359 124 104 84 
209 961 446 153 117 95 
141 731 382 68 92 135 
298 284 532 82 105 126 
184 163 386 92 80 70 
284 753 472 164 137 122 
161 326 407 140 141 148 
307 312 450 113 122 135 
232 58 361 115 98 82 
238 892 359 146 107 76 
232 59 361 115 98 80 
364 617 434 97 129 157 
288 836 362 207 155 119 
276 897 441 146 107 83 
351 800 412 213 150 116 
259 922 462 120 103 96 
311 235 548 153 69 94 
327 547 447 150 157 172 
150 691 323 134 143 169 
278 166 567 172 62 5 
234 58 362 111 92 72 
269 399 532 89 84 126 
192 668 306 85 148 197 
319 595 444 99 113 131 
232 793 444 188 150 113 
246 169 521 133 40 46 
317 720 364 112 33 43 
297 60 464 178 162 153 
279 756 471 195 178 172 
273 446 335 140 150 167 
157 667 440 93 114 164 
233 61 361 121 102 83 
213 233 348 106 48 52 
271 140 491 109 62 19 
263 951 360 69 53 48 
132 609 442 80 76 75 
140 651 407 27 53 117 
253 235 550 80 43 55 
272 77 469 117 97 77 
287 270 538 57 83 105 
278 357 549 194 180 172 
270 900 384 84 65 53 
173 367 416 96 106 122 
212 882 438 153 114 87 
172 453 356 128 134 151 
78 744 387 147 152 169 
258 415 496 74 90 116 
294 806 420 205 147 120 
235 63 363 123 102 80 
201 960 393 91 73 58 
129 515 433 156 157 165 
279 466 345 137 142 152 
276 89 456 122 97 75 
273 878 395 168 127 97 
386 749 397 205 183 165 
326 593 347 91 135 173 
287 272 512 112 102 100 
298 340 485 122 131 144 
306 252 539 129 106 137 
132 586 423 74 100 131 
141 517 409 75 102 142 
197 423 469 129 128 134 
237 359 329 120 129 145 
239 57 366 126 104 82 
244 923 350 62 51 43 
221 791 446 152 104 106 
304 365 414 68 95 122 
210 674 305 82 145 195 
399 708 399 116 130 147 
252 180 396 85 31 32 
227 267 465 121 120 125 
179 243 423 145 116 80 
278 434 554 140 119 106 
221 510 315 145 149 160 
88 682 339 80 102 131 
272 610 496 97 122 157 
214 605 299 153 159 173 
113 764 343 145 157 184 
278 675 311 127 150 176 
278 163 573 122 95 54 
159 691 434 143 143 154 
321 175 558 142 126 109 
237 63 365 128 108 89 
212 297 450 114 119 129 
344 799 381 167 119 87 
326 583 379 130 148 170 
318 210 555 79 113 139 
207 702 491 100 98 99 
215 513 481 108 112 120 
295 263 442 143 144 152 
299 614 347 74 109 141 
290 946 435 107 88 75 
289 953 422 69 51 40 
87 722 335 35 55 128 
85 709 337 106 124 155 
118 711 366 105 115 135 
274 668 305 103 146 198 
92 703 367 50 71 89 
447 680 450 89 118 173 
281 938 442 105 78 56 
176 333 369 147 138 134 
265 146 495 94 61 32 
329 505 399 71 107 141 
223 1011 398 197 174 157 
273 921 454 179 137 107 
289 121 464 110 99 92 
96 668 410 140 97 81 
295 194 465 103 84 108 
135 804 407 140 41 52 
303 160 575 117 93 66 
288 587 498 98 121 174 
243 32 361 124 94 71 
170 290 403 72 111 142 
233 856 410 165 123 96 
309 188 566 114 126 140 
252 246 354 84 107 133 
271 829 410 189 129 105 
197 558 486 159 161 170 
92 688 338 110 126 148 
152 644 341 41 69 89 
126 645 380 29 69 101 
322 603 403 116 128 143 
260 837 352 178 135 95 
177 293 334 92 137 172 
237 239 554 101 52 66 
235 208 489 144 26 31 
162 259 332 72 112 143 
234 867 454 138 106 85 
161 269 342 111 62 82 
242 165 430 127 42 8 
252 543 302 134 147 168 
248 480 519 71 93 133 
308 512 360 42 72 97 
281 237 510 87 43 61 
242 38 363 131 104 82 
234 515 302 121 131 148 
270 322 502 102 112 127 
115 812 393 116 155 190 
242 39 364 130 102 80 
294 301 479 140 142 151 
249 562 301 146 157 177 
282 834 395 185 128 102 
262 293 349 121 37 49 
175 292 422 113 123 137 
208 590 300 129 145 165 
149 540 459 176 169 170 
348 694 438 142 26 48 
211 422 465 43 67 103 
320 538 471 171 172 180 
283 264 508 86 93 104 
246 32 360 133 103 79 
172 537 466 164 170 182 
288 171 445 99 85 78 
263 970 454 129 96 77 
96 677 340 106 121 138 
256 946 470 181 136 106 
263 33 367 177 157 146 
309 496 371 104 110 121 
257 163 507 106 80 70 
141 483 368 72 99 156 
174 556 369 97 117 140 
215 568 492 130 143 166 
242 181 518 93 32 57 
159 429 348 211 128 53 
174 614 473 87 110 136 
175 367 426 100 109 123 
180 483 474 175 168 168 
278 519 516 104 130 168 
241 191 409 76 54 44 
39 685 370 109 88 65 
290 743 474 187 153 127 
140 708 374 117 123 138 
280 329 506 84 88 104 
213 472 331 153 159 175 
188 779 453 169 149 138 
350 769 430 161 142 129 
264 774 338 178 163 154 
374 665 407 42 69 90 
184 735 324 141 153 175 
146 647 329 82 93 107 
273 114 452 109 99 91 
99 665 348 73 102 126 
238 149 438 106 90 75 
366 661 399 125 125 129 
347 630 410 93 100 109 
193 696 480 139 155 175 
203 653 484 61 105 140 
167 300 409 55 84 108 
136 697 370 138 141 150 
282 942 442 88 65 51 
169 190 403 148 96 94 
255 164 570 123 108 95 
177 820 410 175 149 125 
237 488 305 73 103 133 
134 538 392 20 75 137 
201 155 460 121 64 7 
181 627 337 85 94 105 
131 555 405 88 91 99 
269 304 502 131 141 156 
324 595 336 90 103 120 
293 301 413 78 114 143 
282 398 544 145 115 91 
294 827 393 204 147 118 
280 791 440 208 150 120 
241 46 364 130 102 82 
272 955 364 90 67 52 
134 746 336 119 141 193 
294 280 474 81 105 127 
154 640 408 67 74 90 
238 1014 396 109 86 60 
334 615 422 62 95 122 
243 44 365 133 108 90 
95 672 403 114 83 71 
123 720 330 56 113 171 
293 700 334 128 147 167 
230 155 393 71 64 56 
150 458 446 97 109 132 
213 764 324 65 58 124 
180 307 370 129 132 140 
204 742 477 125 39 48 
248 378 324 55 94 127 
236 170 571 138 122 106 
174 169 428 113 93 68 
305 426 403 87 102 119 
325 639 493 185 131 112 
275 362 554 164 156 154 
266 46 467 82 58 42 
245 43 364 138 113 94 
165 751 333 159 158 175 
174 512 470 104 123 166 
327 626 373 72 102 128 
135 631 422 87 66 55 
159 370 338 107 52 58 
242 775 458 115 116 122 
160 387 411 60 77 105 
432 657 433 58 86 115 
288 258 512 101 107 116 
131 549 427 110 119 131 
282 411 534 182 149 113 
280 458 548 121 142 166 
152 679 318 178 182 192 
245 44 365 138 114 96 
279 460 523 125 21 62 
257 446 312 93 113 137 
394 692 466 153 179 208 
170 756 467 65 108 150 
157 635 411 83 77 75 
70 733 387 104 125 153 
245 47 366 141 116 98 
109 788 397 159 164 176 
175 671 311 190 185 197 
246 45 365 140 115 96 
146 612 410 55 65 76 
246 45 366 141 116 97 
219 735 478 190 87 50 
281 322 507 103 109 124 
270 288 362 109 121 137 
282 535 507 83 101 143 
191 604 333 67 93 116 
302 635 494 174 120 107 
181 262 360 118 11 54 
217 262 343 118 33 53 
132 831 381 187 34 64 
230 916 362 88 71 54 
249 32 360 135 100 82 
118 669 370 78 101 125 
193 692 312 180 178 188 
215 259 443 104 116 131 
177 483 474 164 162 167 
196 338 447 133 95 53 
285 766 455 210 158 127 
382 692 448 131 84 93 
250 33 361 138 109 87 
250 895 463 187 137 114 
160 716 327 147 153 180 
296 507 349 106 110 117 
208 665 487 125 135 150 
293 334 488 137 26 70 
344 808 391 195 130 100 
178 343 419 125 126 133 
223 865 367 196 148 114 
217 896 456 163 125 100 
376 737 438 112 103 100 
283 663 496 93 110 175 
184 458 474 85 101 136 
292 709 484 98 105 119 
332 615 427 58 90 119 
272 23 392 164 117 103 
197 577 489 107 136 169 
208 500 483 67 88 120 
302 817 401 189 134 105 
167 764 336 114 130 167 
220 483 324 134 137 147 
217 165 490 88 31 38 
158 413 420 49 77 110 
134 531 390 81 108 145 
360 791 411 212 151 112 
335 666 484 162 189 222 
263 859 404 170 125 94 
209 566 488 93 104 126 
216 235 349 73 71 78 
182 157 433 91 82 73 
90 781 385 69 97 173 
273 183 524 78 73 69 
268 343 533 71 113 145 
174 590 379 77 84 92 
217 930 365 83 67 53 
206 629 497 128 147 169 
264 455 508 80 97 120 
280 49 472 103 91 81 
82 690 397 137 95 79 
242 269 493 137 136 142 
320 544 355 108 120 135 
224 178 561 138 79 33 
257 307 497 82 95 112 
226 752 466 100 87 85 
320 459 472 97 122 149 
289 316 488 128 25 53 
234 981 455 89 74 64 
226 589 299 151 163 184 
367 638 451 35 55 71 
223 908 380 83 64 52 
184 436 344 55 92 130 
157 643 347 54 74 94 
295 784 347 116 112 112 
354 620 426 68 102 130 
137 548 390 183 178 183 
250 360 488 145 110 70 
297 243 456 114 125 140 
292 492 353 83 100 117 
248 228 558 140 65 72 
240 885 465 107 52 46 
179 233 407 107 89 79 
282 971 388 128 100 70 
325 368 452 84 114 143 
279 976 428 82 65 52 
156 689 320 61 106 160 
185 737 324 82 100 150 
165 635 366 63 74 87 
268 344 344 106 127 147 
271 119 446 101 83 64 
275 379 359 86 116 149 
172 718 469 131 143 160 
102 653 388 83 88 108 
214 940 369 84 64 48 
162 597 389 65 75 85 
286 61 449 137 117 100 
145 650 431 86 97 148 
255 36 365 164 133 106 
279 829 405 190 126 100 
232 581 300 188 181 183 
118 786 400 121 138 158 
232 160 386 80 73 67 
211 194 355 78 107 133 
133 628 455 177 127 117 
322 607 336 193 191 198 
211 889 422 149 115 86 
218 655 303 176 175 185 
232 669 307 88 141 183 
285 478 551 79 115 169 
344 627 418 57 82 103 
156 764 450 170 19 50 
167 791 342 114 109 116 
181 316 421 117 105 106 
127 647 378 6 61 113 
225 128 395 78 63 47 
159 744 462 134 82 98 
46 676 382 118 93 65 
261 523 520 65 91 134 
195 482 345 94 111 135 
342 626 391 124 126 131 
165 372 405 123 99 76 
325 560 461 119 136 157 
284 326 390 102 125 149 
152 458 400 122 116 116 
219 717 486 184 79 46 
112 813 377 186 198 218 
221 877 404 162 121 93 
275 406 349 105 126 151 
284 299 394 147 146 150 
162 415 405 102 74 58 
282 920 385 69 57 50 
283 291 508 143 138 138 
409 694 409 89 98 109 
302 444 393 98 106 116 
252 777 458 194 168 147 
187 522 354 144 146 156 
226 526 305 131 140 154 
175 817 412 176 153 135 
249 46 367 162 132 107 
203 151 473 87 71 56 
379 693 396 124 126 133 
312 580 326 97 114 131 
254 144 444 95 79 62 
236 716 313 174 176 187 
266 299 500 78 114 146 
290 362 494 151 94 109 
304 429 490 119 134 154 
283 944 440 86 67 51 
263 823 349 154 115 77 
96 642 403 102 94 89 
106 654 404 92 85 81 
230 441 317 138 144 157 
209 821 420 95 69 63 
173 627 388 31 57 81 
318 523 368 74 102 133 
273 378 572 183 151 110 
258 911 462 186 142 120 
188 267 331 144 29 53 
248 132 452 102 86 70 
133 779 347 87 98 180 
273 391 571 204 171 137 
147 452 356 143 125 109 
311 157 575 133 122 111 
334 672 450 136 113 123 
334 486 423 111 130 153 
284 912 401 91 70 51 
136 479 435 79 96 116 
315 384 424 88 105 124 
267 821 350 157 117 77 
165 763 459 125 45 60 
402 737 408 157 99 116 
258 832 351 166 126 89 
209 558 312 122 131 144 
245 789 448 215 166 140 
269 48 470 81 67 52 
290 934 434 121 98 76 
249 46 368 161 130 104 
213 944 462 176 135 110 
316 611 340 119 145 175 
182 293 334 139 89 86 
267 263 554 71 111 140 
286 795 435 209 147 121 
281 464 537 118 136 167 
301 465 381 47 79 110 
80 773 368 142 150 195 
271 687 502 196 117 29 
426 668 456 123 100 75 
262 215 532 48 28 38 
265 309 553 141 142 147 
219 945 362 89 74 59 
65 678 407 158 114 87 
217 983 431 108 89 71 
295 212 517 96 71 48 
181 365 389 92 76 81 
225 199 491 46 54 98 
304 824 392 207 151 120 
290 452 371 129 130 136 
213 839 402 181 131 110 
210 527 333 133 139 151 
246 474 493 137 147 167 
207 550 325 124 134 150 
189 621 359 70 58 59 
281 250 393 117 132 150 
253 43 368 165 136 109 
290 512 338 77 94 110 
268 878 433 131 99 68 
225 616 493 165 166 175 
276 830 407 188 124 97 
288 341 394 117 133 152 
264 183 499 65 58 48 
146 461 428 80 93 116 
366 679 469 161 181 207 
252 153 441 97 90 84 
284 469 505 92 112 144 
310 725 356 128 105 82 
258 217 520 50 33 53 
277 712 493 171 46 49 
174 261 414 101 104 112 
299 791 349 124 128 136 
186 759 471 181 139 125 
81 692 389 118 84 71 
267 991 418 96 77 60 
217 192 478 83 40 54 
316 158 573 127 112 97 
329 437 458 103 127 155 
116 721 332 72 95 128 
280 494 333 105 120 137 
412 730 431 82 39 63 
199 585 344 131 130 135 
37 713 354 175 118 93 
237 392 488 46 85 133 
165 796 344 115 135 157 
288 543 506 99 119 158 
110 651 393 58 82 111 
234 700 490 143 108 73 
131 580 426 71 86 132 
199 313 333 94 133 172 
280 610 492 103 126 150 
351 613 443 81 100 119 
145 699 378 106 117 138 
315 677 454 127 111 118 
342 647 488 121 90 78 
270 642 305 172 173 182 
230 332 472 132 52 85 
247 769 334 161 158 160 
178 307 362 140 141 148 
192 612 367 69 83 98 
384 678 481 122 144 205 
159 830 404 133 124 127 
233 216 478 132 29 31 
241 958 366 115 86 50 
216 973 379 122 87 66 
191 431 342 174 172 179 
152 737 403 104 119 141 
206 436 469 62 83 107 
147 422 353 173 134 85 
196 466 344 107 119 139 
253 44 374 143 114 91 
280 898 414 132 100 75 
130 611 435 89 85 83 
207 418 467 34 62 99 
252 46 372 144 110 89 
99 659 387 86 86 108 
373 766 392 141 124 110 
169 637 356 59 74 89 
167 395 425 54 83 113 
114 654 379 80 98 121 
278 121 448 117 106 96 
264 713 330 148 136 158 
325 627 491 131 109 87 
195 801 433 203 166 128 
310 675 459 62 119 158 
296 377 402 86 105 127 
74 765 364 121 141 199 
422 697 456 139 159 209 
174 827 403 194 166 143 
162 664 452 101 110 135 
137 731 333 65 104 185 
248 683 309 124 152 188 
217 349 468 95 111 133 
245 475 498 150 155 167 
296 937 428 109 88 77 
203 289 334 168 166 170 
177 312 335 165 167 176 
126 616 452 146 110 97 
232 499 479 132 132 139 
287 705 489 182 73 22 
236 1001 418 164 135 108 
249 896 464 175 123 105 
237 246 483 73 90 107 
231 150 435 107 90 77 
207 221 350 129 69 41 
264 648 305 171 171 179 
375 630 426 30 65 95 
243 507 302 155 155 162 
203 519 351 69 102 170 
253 303 499 111 118 133 
93 744 338 136 150 176 
258 351 566 108 123 142 
237 504 483 55 82 137 
157 256 338 65 103 133 
131 636 448 181 128 114 
271 1002 400 141 117 95 
155 513 464 185 176 175 
121 658 350 43 82 121 
238 146 494 110 81 64 
147 464 438 90 104 128 
215 322 460 118 85 65 
167 450 354 158 157 162 
203 240 433 131 130 136 
174 496 472 100 112 156 
152 723 423 79 89 114 
93 715 375 75 90 107 
309 929 437 118 93 74 
289 424 550 185 96 5 
317 610 353 179 177 184 
254 42 377 142 109 84 
155 444 449 88 109 134 
181 835 355 150 135 128 
277 500 324 106 120 136 
298 933 438 126 102 82 
276 252 381 153 151 155 
153 760 341 143 144 181 
173 247 410 110 66 78 
227 252 560 123 92 84 
281 395 529 156 100 85 
269 214 385 116 43 33 
325 618 374 35 47 60 
272 312 503 138 115 92 
197 585 313 141 141 147 
284 149 485 68 80 99 
182 811 420 200 175 153 
253 43 380 132 102 73 
136 441 423 72 104 142 
229 286 475 126 127 134 
202 551 482 121 124 132 
226 988 431 87 72 63 
290 763 456 212 166 138 
273 42 478 84 72 62 
306 731 352 94 106 117 
246 384 488 60 90 120 
254 40 382 135 106 76 
305 422 403 95 109 125 
283 550 314 109 124 140 
216 984 400 84 60 50 
293 327 405 153 152 158 
135 586 409 63 91 116 
194 834 401 128 141 157 
167 794 434 161 154 153 
66 734 384 130 153 180 
257 393 321 67 97 125 
268 371 573 152 4 61 
210 224 351 111 47 51 
252 46 377 136 106 84 
234 571 490 93 108 132 
155 833 404 203 172 160 
188 426 470 76 96 123 
269 356 557 153 136 126 
262 169 408 61 44 44 
288 236 510 132 80 79 
367 744 384 103 89 78 
169 530 363 105 126 156 
311 780 432 200 138 110 
274 474 330 138 142 152 
229 360 482 102 114 130 
297 278 434 97 92 93 
232 987 363 124 96 61 
112 705 336 24 59 124 
182 397 462 122 128 139 
112 696 358 76 97 129 
267 710 332 143 99 114 
231 140 498 106 91 80 
167 410 344 220 83 25 
285 307 491 121 120 124 
242 50 366 145 116 99 
288 967 392 128 104 78 
272 351 507 114 116 131 
255 163 573 130 116 103 
243 51 366 146 116 100 
288 171 565 161 68 29 
285 842 369 222 166 134 
202 490 480 140 144 158 
191 575 477 159 153 156 
297 286 448 76 113 144 
315 556 483 88 104 137 
240 54 366 145 118 100 
138 633 456 171 121 111 
277 710 333 135 135 161 
157 378 355 164 138 111 
201 291 334 172 170 175 
242 52 366 145 114 98 
182 627 339 79 91 104 
262 711 485 102 83 73 
333 472 430 77 107 151 
75 722 387 75 95 125 
253 349 488 141 108 76 
269 865 394 176 128 96 
295 913 433 147 120 96 
248 150 489 87 63 46 
269 49 468 81 64 49 
124 651 395 64 97 133 
302 317 475 117 118 123 
129 523 432 89 110 142 
321 808 365 186 135 100 
194 487 347 90 112 137 
177 322 365 104 118 135 
291 208 550 132 50 46 
300 357 485 141 34 77 
205 851 382 191 137 110 
240 57 367 127 104 80 
275 411 347 152 156 166 
263 434 318 80 111 140 
45 732 367 136 161 198 
246 323 494 105 120 138 
234 862 357 173 127 94 
360 767 383 168 140 110 
324 582 439 122 125 133 
206 852 382 191 137 109 
132 725 376 132 136 147 
164 699 320 156 166 189 
227 504 477 84 99 125 
267 717 334 160 24 37 
158 638 395 55 79 106 
245 837 350 151 116 77 
157 692 419 110 124 151 
307 767 352 126 102 75 
301 369 409 60 89 114 
233 911 360 99 79 65 
191 155 414 107 77 60 
247 49 368 151 115 100 
280 889 435 129 101 78 
369 659 409 76 88 101 
285 170 544 114 91 90 
402 638 432 60 72 96 
244 947 361 74 54 33 
179 786 442 142 111 95 
297 181 471 119 77 66 
164 356 353 163 137 109 
269 251 536 80 27 33 
283 295 512 150 149 155 
261 986 439 88 66 58 
266 424 530 91 98 133 
264 438 318 121 134 150 
246 155 545 115 58 4 
225 144 511 128 114 100 
201 469 337 96 113 135 
227 1014 400 138 110 80 
278 473 543 144 159 180 
280 550 313 95 114 133 
245 54 371 139 110 91 
178 308 363 143 143 149 
56 735 347 136 158 193 
266 699 317 65 119 157 
154 394 360 138 32 61 
265 266 543 125 102 76 
290 219 513 72 65 79 
272 157 572 104 90 79 
258 273 506 88 106 126 
97 789 388 107 131 175 
279 642 304 155 161 174 
320 610 405 82 87 95 
273 858 390 182 133 103 
272 220 387 103 68 81 
260 700 487 88 64 74 
153 737 406 90 111 143 
275 367 536 167 159 157 
229 242 466 66 102 129 
297 641 491 139 94 82 
270 266 533 114 51 30 
206 550 327 100 121 144 
303 318 426 144 143 148 
140 438 424 53 81 114 
119 790 353 154 157 191 
235 424 481 114 127 146 
277 944 364 66 53 45 
177 291 423 87 110 134 
214 533 320 111 126 145 
253 152 547 98 51 10 
288 682 488 84 60 57 
276 88 458 124 100 78 
201 480 478 89 108 138 
193 253 427 110 102 98 
305 304 460 145 142 144 
331 440 443 127 138 153 
176 325 334 95 120 146 
143 697 326 105 127 182 
85 767 386 148 148 165 
246 55 381 129 97 75 
247 54 380 129 96 75 
259 79 443 131 103 77 
366 718 438 136 117 105 
82 663 373 95 86 80 
130 554 408 60 65 85 
246 55 382 128 97 73 
187 222 430 130 80 58 
149 793 424 126 30 60 
247 184 532 86 66 74 
273 168 552 127 69 54 
125 651 394 82 108 141 
290 794 346 84 104 123 
323 647 490 76 64 79 
283 203 555 131 42 42 
89 749 391 9 14 95 
299 439 496 132 142 157 
205 584 304 78 103 128 
275 948 363 82 64 54 
255 841 352 170 129 89 
254 253 505 110 105 105 
186 338 392 118 108 102 
278 517 510 106 130 168 
226 589 493 87 106 128 
361 732 384 64 77 89 
287 431 374 118 129 144 
263 684 306 153 72 92 
235 196 505 72 44 81 
109 810 380 183 199 223 
307 645 349 85 108 134 
266 514 525 133 149 171 
157 675 417 105 114 155 
286 632 342 132 134 142 
227 878 370 174 133 102 
308 770 439 180 128 95 
243 58 371 140 110 91 
372 753 387 126 116 112 
243 58 372 142 113 92 
91 750 338 117 137 186 
261 382 519 117 124 136 
164 747 468 113 156 192 
240 60 369 127 103 81 
240 61 368 133 110 89 
196 153 427 98 83 68 
241 176 563 174 71 3 
419 679 465 101 125 168 
243 419 315 75 102 128 
241 61 370 129 105 84 
251 600 506 68 124 176 
244 437 311 92 112 133 
