ply
format ascii 1.0
comment Created by CloudCompare v2.11.1 (Anoia)
comment Created 2/28/22 9:38 PM
obj_info Generated by CloudCompare!
element vertex 2008
property float x
property float y
property float z
property uchar red
property uchar green
property uchar blue
end_header
339 401 533 119 100 79 
351 244 527 54 66 90 
340 455 528 125 143 175 
266 182 441 79 46 34 
257 138 481 107 86 62 
320 501 425 172 164 163 
143 463 371 134 124 118 
272 679 474 96 63 38 
273 197 494 55 49 69 
226 932 342 62 50 44 
160 780 338 149 154 168 
277 644 290 82 117 149 
251 383 298 104 133 163 
264 288 358 104 120 139 
68 646 426 100 84 69 
320 684 472 99 146 186 
195 187 292 123 121 121 
263 926 365 72 57 48 
352 303 539 154 155 163 
394 707 410 144 97 110 
340 618 439 92 84 77 
179 634 319 81 97 114 
324 504 495 191 193 203 
101 710 393 96 103 117 
194 410 450 74 94 124 
319 496 415 166 164 170 
346 302 526 123 133 146 
213 916 449 145 106 90 
200 977 434 98 79 66 
217 560 282 126 138 158 
313 785 338 160 147 140 
323 616 387 93 115 137 
85 731 364 60 95 145 
340 272 521 119 115 118 
315 565 450 146 162 184 
319 199 493 118 87 64 
310 580 377 123 125 131 
140 663 347 81 107 139 
222 472 459 68 91 128 
368 772 392 199 146 73 
351 261 584 115 56 81 
147 808 425 95 95 108 
274 920 406 167 124 92 
277 944 414 83 66 55 
267 286 344 84 122 152 
178 245 333 117 56 57 
143 581 400 104 117 134 
342 169 522 80 41 42 
153 353 419 103 100 103 
238 909 339 110 85 59 
245 991 415 117 89 70 
408 647 376 114 134 156 
361 310 547 80 110 141 
311 627 341 131 133 140 
418 724 391 195 218 248 
243 213 486 37 63 98 
260 190 418 49 45 56 
189 557 466 194 185 183 
267 694 474 127 100 73 
321 276 502 80 63 81 
93 635 426 103 92 84 
156 716 411 93 107 134 
370 375 545 172 155 140 
192 975 419 95 73 63 
353 748 403 151 139 133 
256 465 285 160 162 171 
356 314 547 97 114 134 
312 441 484 98 92 87 
218 874 345 144 99 64 
215 653 473 164 127 124 
149 329 416 107 118 133 
158 564 377 151 150 157 
301 359 504 75 91 118 
263 206 420 36 75 108 
156 499 362 140 151 174 
225 167 423 87 41 66 
218 480 329 144 144 151 
307 500 466 70 94 149 
228 153 447 106 39 35 
402 742 372 188 36 53 
330 818 384 215 152 122 
173 225 355 116 49 66 
331 769 414 93 95 103 
262 679 285 86 126 160 
405 642 377 65 101 136 
429 701 407 154 169 213 
168 281 361 71 98 121 
139 442 437 108 121 140 
336 200 590 121 74 35 
277 337 361 132 138 150 
333 752 346 82 66 57 
243 266 492 87 106 125 
158 462 455 109 120 134 
363 776 357 150 129 110 
298 443 491 47 70 101 
75 678 435 171 115 92 
161 328 372 94 112 131 
376 708 356 79 93 111 
308 328 497 99 67 78 
245 14 468 118 109 104 
243 624 480 163 157 159 
259 916 364 82 67 57 
335 295 513 88 118 144 
272 213 456 94 34 23 
178 243 284 155 98 93 
260 426 494 126 149 181 
296 422 319 103 129 160 
267 254 498 111 50 61 
273 792 326 140 132 128 
197 404 338 129 141 166 
290 459 310 193 190 195 
93 666 388 34 58 87 
178 759 320 183 119 113 
418 692 417 94 113 190 
280 934 418 131 104 82 
310 392 490 82 86 92 
270 311 304 153 131 108 
249 599 281 87 126 162 
170 669 320 128 129 134 
250 810 420 207 144 124 
241 12 475 114 105 100 
79 677 368 114 131 156 
309 479 480 110 123 140 
227 419 477 100 122 157 
130 528 390 94 122 154 
317 363 499 114 76 91 
133 646 362 87 100 115 
243 12 474 116 106 101 
203 141 405 126 55 9 
270 18 366 151 132 121 
266 230 481 56 36 45 
260 198 487 50 36 61 
174 672 302 96 80 76 
362 230 575 149 31 60 
141 675 395 132 143 159 
227 863 343 166 111 75 
287 321 496 119 113 114 
279 562 290 82 112 139 
159 715 420 51 55 105 
230 788 439 199 190 188 
267 934 420 89 69 54 
188 923 366 104 73 54 
215 872 352 146 108 74 
214 579 333 115 128 145 
162 638 395 71 88 110 
155 727 414 94 111 135 
204 602 348 86 94 106 
315 584 446 160 156 161 
148 422 360 166 138 110 
234 413 315 70 104 148 
296 412 487 74 67 87 
288 460 367 169 167 174 
312 139 510 142 94 63 
142 421 352 178 138 93 
330 710 434 164 122 124 
407 645 382 77 91 120 
198 883 430 151 115 86 
272 211 446 57 37 47 
347 394 525 129 31 67 
292 727 320 185 152 108 
200 487 340 147 149 159 
333 269 505 89 89 110 
136 755 411 106 119 136 
121 744 359 70 76 127 
271 209 444 39 42 56 
175 249 341 38 38 51 
45 668 401 89 78 70 
164 653 450 154 155 193 
377 333 548 149 157 170 
163 412 435 52 78 119 
244 12 479 114 105 100 
331 413 516 149 126 103 
350 397 531 109 88 95 
157 353 381 159 136 110 
222 693 293 74 149 203 
139 746 346 133 142 164 
362 779 392 171 158 152 
406 693 368 105 116 131 
328 493 493 86 106 143 
220 564 473 95 111 142 
24 693 387 169 115 98 
283 779 433 204 148 117 
199 615 325 71 98 121 
316 427 494 135 82 69 
308 453 479 45 70 89 
286 385 358 91 114 146 
184 405 340 86 112 147 
170 355 412 108 102 102 
337 167 555 139 72 43 
201 939 344 107 89 74 
296 763 440 195 169 147 
213 340 458 144 68 98 
327 235 501 106 23 43 
217 336 477 110 87 110 
325 184 501 91 31 36 
256 900 385 101 74 55 
176 931 394 99 78 63 
191 284 412 112 110 113 
171 674 446 146 155 171 
292 548 484 104 128 181 
273 947 409 82 66 55 
259 132 405 123 86 61 
266 462 490 165 173 188 
263 739 306 155 24 37 
110 669 370 20 63 123 
294 597 293 134 134 139 
230 316 489 153 114 70 
320 572 444 181 173 173 
285 520 496 37 64 112 
296 440 467 63 78 98 
269 513 290 90 119 148 
262 181 483 87 49 44 
393 693 421 114 152 187 
146 756 422 112 126 145 
248 12 472 118 109 104 
139 633 428 91 81 96 
221 667 480 73 111 148 
58 666 434 138 103 77 
260 202 486 43 43 67 
136 829 381 112 79 133 
267 937 422 86 64 45 
273 632 278 162 172 189 
248 13 474 118 109 105 
225 755 310 185 138 103 
214 350 464 106 83 111 
206 615 307 103 116 131 
216 467 333 139 143 154 
165 787 440 102 127 152 
198 979 429 100 81 68 
268 932 418 107 85 68 
76 650 401 100 92 86 
242 561 477 66 80 96 
268 217 432 64 50 85 
240 555 280 108 131 166 
104 762 364 126 137 158 
260 242 373 114 117 123 
262 153 504 66 90 112 
335 345 511 127 81 24 
250 15 475 121 112 108 
187 652 288 96 61 65 
218 132 415 119 55 10 
296 460 335 141 158 180 
248 14 476 120 111 106 
293 313 495 109 107 147 
205 259 302 143 140 142 
80 745 412 93 109 161 
176 840 361 160 144 134 
293 425 412 57 95 126 
352 215 583 34 70 95 
250 286 298 90 105 121 
212 343 452 142 84 102 
275 246 459 60 87 109 
260 312 502 117 121 129 
144 717 337 110 110 130 
291 464 314 78 111 157 
234 601 488 169 176 190 
409 702 417 155 192 229 
322 629 346 92 129 162 
249 932 341 68 56 46 
292 802 408 211 153 123 
193 966 364 133 101 70 
220 488 325 115 130 150 
203 1006 359 166 135 107 
285 542 320 93 119 148 
198 942 450 177 136 112 
336 278 511 140 128 124 
175 296 416 71 81 98 
83 703 365 147 152 169 
194 200 286 72 94 115 
203 204 319 51 40 58 
255 288 511 70 106 134 
316 615 463 146 117 99 
287 414 398 84 113 148 
194 654 283 166 160 176 
371 381 543 182 155 128 
329 187 588 101 80 60 
151 396 396 143 119 94 
314 608 429 65 38 27 
112 733 401 70 83 102 
293 671 310 156 162 175 
76 663 441 161 115 90 
300 667 482 102 102 104 
153 483 457 70 101 138 
284 537 311 158 161 171 
297 827 346 226 170 133 
222 181 455 38 52 87 
243 19 461 118 106 97 
277 691 297 80 132 174 
308 283 500 110 114 122 
280 269 505 87 80 97 
177 806 338 155 136 123 
389 719 357 121 120 118 
186 182 398 85 71 83 
209 268 301 163 160 164 
325 451 521 38 66 124 
241 20 458 112 98 88 
214 1006 348 138 107 75 
61 732 369 173 170 182 
173 202 382 66 95 119 
274 235 458 84 52 67 
163 319 366 90 107 125 
215 385 324 51 89 143 
304 605 315 121 150 179 
197 708 298 134 160 196 
257 906 380 82 63 50 
293 457 350 118 134 155 
236 916 338 101 80 60 
264 328 482 66 89 109 
113 683 361 109 127 169 
175 789 439 163 126 110 
243 22 456 111 97 85 
120 707 389 78 84 120 
351 420 518 167 141 109 
330 399 508 165 144 126 
130 701 361 83 104 132 
54 743 381 221 211 210 
72 645 430 105 87 69 
170 806 422 191 168 152 
200 940 452 182 143 120 
184 746 474 172 21 48 
341 211 523 99 40 60 
284 210 502 72 83 97 
377 637 422 100 86 72 
332 241 502 98 63 73 
160 644 329 53 66 78 
247 19 460 122 110 102 
302 462 484 40 72 96 
191 988 364 123 100 75 
165 246 389 131 56 79 
329 767 415 144 138 137 
247 18 463 121 110 104 
77 661 373 50 96 132 
272 69 428 166 153 141 
407 741 384 181 13 46 
120 651 401 62 82 123 
222 825 410 188 131 113 
285 537 502 124 134 180 
325 232 500 114 36 28 
318 425 494 120 75 76 
348 622 433 88 79 72 
146 640 451 155 107 99 
259 549 482 94 107 139 
166 715 312 115 142 169 
160 409 344 107 77 93 
216 979 444 94 78 68 
261 962 361 82 62 52 
272 200 494 60 48 65 
335 403 538 140 121 106 
328 351 501 160 118 92 
230 438 320 116 132 155 
153 369 345 156 113 89 
341 298 523 65 116 153 
271 846 366 203 151 120 
187 959 367 106 82 63 
340 733 419 124 114 109 
174 194 381 93 97 105 
294 651 474 137 147 169 
340 398 532 149 117 108 
136 722 348 135 136 145 
219 224 441 109 41 64 
182 215 328 81 62 81 
141 418 410 128 76 47 
159 401 338 197 145 75 
161 569 375 107 113 137 
372 626 379 17 74 119 
270 12 375 168 143 133 
389 739 357 161 33 40 
339 799 354 173 137 101 
343 356 545 80 127 162 
245 994 405 107 84 69 
215 471 333 148 147 154 
161 264 387 71 100 127 
282 389 394 103 125 147 
208 865 394 163 120 93 
418 691 368 86 111 136 
222 162 349 37 48 58 
288 522 485 79 96 130 
436 703 387 123 147 222 
143 666 346 101 124 167 
235 264 484 137 134 138 
218 253 454 87 73 83 
178 213 297 113 87 79 
403 657 429 97 76 49 
313 528 387 154 152 158 
314 360 502 114 63 82 
370 345 558 146 146 154 
201 493 467 82 100 130 
376 766 363 188 135 83 
182 362 424 108 113 123 
140 817 363 161 23 65 
358 262 563 36 57 104 
74 649 405 103 93 86 
192 403 337 111 127 166 
239 636 486 148 151 161 
218 175 418 70 19 24 
180 208 307 104 69 66 
230 130 480 143 65 0 
305 672 334 120 137 157 
213 201 415 79 33 42 
154 351 339 169 148 128 
258 186 419 51 45 52 
399 746 373 178 22 30 
258 120 396 145 89 53 
295 493 380 76 102 135 
271 686 475 125 64 35 
123 656 366 73 89 105 
318 450 500 99 99 109 
189 929 433 166 129 104 
322 614 424 77 76 77 
231 326 493 158 123 83 
166 437 347 73 101 142 
136 500 385 66 100 146 
225 499 314 88 110 136 
306 265 501 118 115 117 
175 772 452 185 126 138 
305 485 467 119 129 147 
267 181 443 80 46 29 
186 966 420 100 80 66 
358 207 546 82 63 87 
275 328 503 148 112 68 
210 392 329 116 138 170 
349 434 512 132 74 26 
321 775 411 132 99 73 
213 326 458 137 44 82 
305 480 491 57 81 130 
225 190 468 90 45 63 
348 633 374 89 111 133 
193 890 416 154 119 90 
289 894 427 134 120 109 
299 210 498 69 68 74 
196 633 281 80 123 159 
285 629 281 139 158 182 
436 668 382 69 93 128 
235 559 481 107 116 146 
292 767 440 221 180 151 
289 437 370 148 155 169 
206 863 390 164 121 92 
284 916 421 161 125 94 
271 459 490 66 88 129 
139 461 407 148 136 130 
289 487 349 170 173 182 
277 135 515 128 70 0 
280 395 471 77 85 95 
201 753 471 174 73 123 
361 408 538 186 135 87 
316 702 463 180 53 64 
58 750 398 181 197 228 
250 826 336 166 125 84 
248 544 473 53 82 129 
271 441 492 105 123 148 
80 655 391 64 75 87 
210 1012 395 148 121 95 
78 686 404 73 67 79 
268 299 472 69 91 112 
237 354 302 178 187 207 
141 425 430 59 91 123 
144 414 352 179 150 119 
260 258 370 153 153 160 
34 706 375 139 154 178 
205 470 460 167 162 165 
150 649 350 72 100 128 
349 776 399 162 95 114 
167 424 347 82 102 140 
287 533 337 117 144 172 
178 246 285 138 82 100 
156 684 408 49 63 86 
338 258 516 90 102 124 
288 806 405 213 151 125 
153 408 336 163 161 167 
151 759 428 115 136 166 
366 236 571 148 55 50 
353 684 353 90 111 150 
354 626 406 44 53 69 
255 991 372 97 78 61 
290 553 498 107 132 183 
268 442 289 133 144 166 
168 784 334 136 32 64 
249 22 457 116 103 92 
297 417 324 93 118 150 
121 751 407 68 79 94 
246 783 442 157 114 88 
252 668 493 103 74 76 
303 606 321 134 163 193 
288 168 510 63 77 91 
262 172 369 57 92 120 
133 512 452 165 170 182 
395 749 389 207 111 116 
143 452 440 109 120 136 
413 647 378 106 121 143 
163 259 392 68 94 118 
251 23 458 116 103 93 
363 769 356 161 146 136 
320 586 400 107 115 127 
372 707 415 50 54 106 
54 735 373 109 121 167 
387 644 420 112 92 73 
251 20 461 126 114 107 
204 1000 391 137 113 87 
219 550 476 169 173 185 
294 409 446 53 82 125 
276 386 295 112 129 155 
146 402 421 75 86 106 
192 735 306 169 174 190 
313 479 484 80 108 138 
229 819 416 185 131 113 
327 196 593 139 65 7 
199 729 304 149 169 204 
235 250 308 134 130 130 
261 220 353 132 132 136 
309 384 494 60 77 93 
260 343 292 119 135 154 
227 175 441 81 32 18 
196 789 327 118 101 86 
264 531 287 97 125 152 
223 411 476 38 72 131 
134 400 420 138 120 107 
327 190 502 102 29 40 
387 649 391 58 76 92 
368 328 563 120 144 169 
147 685 333 135 140 152 
270 240 470 84 28 42 
272 462 292 165 169 180 
222 422 465 51 78 132 
354 400 531 151 80 38 
360 245 577 158 77 70 
193 291 411 66 95 120 
200 189 316 97 42 33 
197 853 380 183 133 106 
374 317 575 113 71 71 
260 702 299 134 168 203 
195 263 413 83 86 93 
344 660 442 88 121 152 
248 27 452 104 89 74 
366 766 395 162 138 116 
237 858 400 161 117 85 
276 332 368 108 105 107 
261 430 494 144 164 188 
249 277 299 125 129 136 
228 483 307 90 111 134 
194 306 415 84 74 80 
186 536 351 118 130 146 
250 26 453 103 89 75 
189 428 345 80 103 152 
359 289 590 154 41 82 
327 801 347 146 108 73 
148 796 351 160 11 43 
164 601 386 53 68 83 
342 673 425 115 147 177 
255 999 378 118 90 64 
298 420 431 81 107 131 
163 429 445 122 128 140 
92 656 398 43 77 127 
237 531 279 75 107 145 
273 415 292 118 134 163 
248 235 315 140 137 137 
378 767 388 176 156 140 
249 30 451 103 88 72 
404 658 430 109 108 110 
236 577 281 188 183 186 
262 168 369 111 94 101 
241 177 485 95 48 35 
290 272 502 92 113 135 
254 357 503 159 163 176 
270 308 377 136 130 128 
153 659 418 81 95 143 
365 316 552 132 139 151 
378 354 547 170 148 123 
187 645 309 117 120 128 
250 28 453 102 88 74 
332 743 422 147 127 109 
331 397 518 121 114 135 
241 151 355 55 75 93 
245 502 475 76 100 143 
258 982 371 104 78 59 
279 324 332 147 150 158 
327 147 511 135 72 32 
185 931 421 133 103 80 
195 798 433 188 150 108 
109 650 431 124 87 78 
252 28 455 101 87 74 
268 368 485 108 108 112 
172 245 286 118 104 130 
253 29 455 98 85 72 
309 218 496 73 36 37 
147 344 414 146 126 107 
300 182 493 108 62 49 
74 643 424 91 78 67 
293 149 505 175 86 25 
183 575 467 76 121 153 
229 683 290 105 148 187 
237 587 281 169 179 195 
139 612 467 118 99 82 
254 985 370 119 93 72 
280 547 294 147 149 157 
315 601 413 129 125 129 
280 781 435 207 148 118 
148 619 420 45 55 65 
222 365 485 163 156 155 
162 454 455 95 107 128 
365 346 544 73 77 96 
96 764 365 155 164 192 
136 386 419 146 76 44 
285 569 295 93 132 165 
280 238 504 126 119 117 
225 448 461 61 84 124 
226 511 463 93 104 124 
138 420 432 92 110 139 
328 676 465 139 173 206 
259 960 358 96 75 62 
169 634 400 22 57 89 
209 544 470 100 124 154 
366 757 398 166 144 126 
223 518 299 158 160 167 
128 687 384 136 142 155 
343 676 425 143 119 139 
117 631 428 80 78 80 
164 532 363 176 170 170 
200 138 396 98 79 61 
209 1009 397 156 125 98 
199 229 414 102 19 56 
349 264 587 106 61 87 
394 701 414 104 143 177 
253 24 462 130 118 110 
305 145 505 155 72 2 
92 766 413 163 170 188 
344 304 521 95 58 70 
378 767 387 178 156 139 
296 658 475 68 66 85 
319 170 492 96 92 88 
266 590 281 102 87 94 
66 657 401 104 91 79 
237 227 481 118 35 65 
233 652 285 181 177 181 
177 951 384 87 68 58 
254 27 461 102 88 75 
258 183 391 103 95 103 
292 712 317 124 142 162 
290 325 495 110 114 125 
286 577 292 111 128 146 
199 393 334 61 97 153 
272 316 382 157 117 75 
194 598 475 132 97 83 
311 486 401 86 107 130 
219 550 283 106 127 153 
301 436 426 123 131 144 
44 733 391 106 113 200 
146 442 395 136 62 2 
66 713 367 105 118 141 
138 370 424 132 129 130 
257 267 506 90 88 89 
205 899 372 112 86 64 
303 717 331 121 118 118 
126 731 357 107 121 142 
176 217 295 131 88 84 
248 363 298 71 112 152 
105 675 369 53 56 95 
365 314 543 111 138 165 
328 150 504 150 76 25 
227 768 451 180 152 135 
148 394 348 135 124 130 
302 540 474 98 117 156 
363 428 527 189 83 9 
255 31 458 103 88 73 
255 31 459 102 87 71 
210 776 452 174 165 162 
219 244 458 70 105 134 
293 420 310 129 143 166 
307 467 460 125 135 150 
130 587 428 65 104 143 
228 434 322 135 144 160 
230 156 444 109 38 29 
327 676 467 107 151 188 
377 319 552 170 173 182 
255 30 460 101 88 76 
374 271 557 133 24 77 
366 222 566 106 28 52 
164 608 477 101 89 79 
255 809 329 93 122 148 
346 194 512 110 102 113 
250 452 484 73 105 163 
298 589 304 78 105 131 
347 378 529 130 93 83 
218 546 475 108 128 166 
260 950 433 129 103 87 
58 654 415 90 77 65 
150 638 363 73 112 145 
327 148 512 134 70 29 
244 556 282 115 140 174 
315 265 495 123 95 98 
267 658 277 59 97 163 
265 482 484 171 176 189 
335 780 346 142 123 107 
276 932 407 111 80 66 
243 894 353 115 88 66 
244 17 464 119 108 101 
188 584 468 76 122 160 
263 266 485 117 112 112 
399 675 440 119 131 186 
227 534 280 96 114 149 
337 169 496 116 107 98 
200 264 302 149 149 157 
149 390 418 95 102 114 
249 368 297 72 121 160 
238 620 282 121 141 167 
261 203 356 140 114 110 
205 497 339 149 158 174 
306 677 482 91 81 74 
355 388 530 156 117 85 
380 703 410 152 28 54 
341 322 535 75 123 160 
209 681 292 178 176 187 
163 693 430 96 109 149 
277 222 494 94 32 50 
278 328 427 119 73 101 
178 462 465 120 129 144 
289 196 493 64 57 71 
166 225 378 92 96 105 
213 370 459 58 82 126 
287 501 309 129 149 172 
344 196 524 69 29 56 
262 891 400 151 113 84 
420 668 414 108 89 70 
307 708 472 187 84 34 
390 636 376 84 102 133 
298 624 474 169 113 103 
165 841 376 206 172 145 
253 839 341 213 150 112 
266 604 280 174 174 185 
265 256 327 120 103 102 
307 390 487 123 114 109 
251 18 465 126 115 109 
226 259 303 126 124 126 
53 722 415 125 144 185 
250 960 444 186 140 113 
357 292 585 124 24 59 
389 730 357 130 144 164 
274 14 378 157 130 119 
199 135 352 106 87 64 
103 767 415 130 130 163 
233 302 488 82 102 122 
343 171 537 95 35 21 
158 452 450 86 102 126 
143 508 454 127 128 136 
211 376 324 94 128 164 
284 576 481 111 136 181 
307 580 338 147 151 161 
353 719 353 107 31 37 
271 819 401 199 137 116 
254 758 312 49 80 137 
379 338 554 165 171 183 
328 565 413 157 150 151 
304 396 486 117 110 105 
199 968 360 109 89 67 
252 17 470 117 108 103 
342 185 502 159 71 3 
276 770 447 186 174 167 
247 881 440 151 119 84 
170 439 347 76 98 131 
174 455 462 133 139 150 
216 303 301 156 36 47 
273 206 452 72 40 55 
155 631 418 71 69 70 
154 435 436 72 92 122 
255 962 436 131 93 77 
235 1016 381 109 73 44 
242 703 286 86 151 204 
125 804 368 59 67 135 
338 196 579 114 80 76 
243 365 301 93 123 163 
257 415 494 129 154 183 
164 637 392 70 83 99 
261 274 362 83 123 154 
234 430 481 83 100 146 
286 370 420 75 103 137 
291 804 331 165 139 115 
136 684 356 111 125 164 
211 819 415 198 149 133 
232 858 401 160 118 87 
167 455 350 97 114 151 
254 21 466 136 124 117 
289 601 288 102 124 147 
282 132 522 114 94 74 
320 387 499 110 95 110 
290 492 369 92 115 142 
262 147 479 100 64 32 
102 628 448 114 94 74 
155 387 415 65 78 96 
226 622 483 91 123 151 
75 751 409 153 153 179 
269 373 497 90 110 147 
232 773 317 152 122 95 
236 600 281 71 120 158 
187 657 286 154 131 133 
164 666 322 110 111 119 
213 351 456 143 80 103 
201 826 409 137 94 72 
149 472 448 53 80 122 
237 211 327 110 45 28 
42 703 371 104 115 154 
283 594 475 81 106 152 
182 751 471 48 46 127 
210 478 459 77 99 143 
255 22 468 142 129 122 
160 530 366 107 124 145 
239 375 494 42 101 152 
165 397 428 53 79 109 
296 503 495 71 87 126 
310 551 381 104 120 139 
255 23 470 156 142 135 
310 367 496 107 109 116 
213 869 402 154 116 88 
203 832 404 191 142 122 
251 16 475 122 115 112 
177 226 399 103 88 78 
239 978 357 96 72 51 
152 380 329 159 26 41 
347 389 532 102 115 143 
170 575 464 147 146 152 
268 849 371 189 138 108 
354 616 386 104 130 155 
280 618 282 111 135 167 
151 646 352 84 115 145 
267 9 387 119 103 94 
276 305 442 108 118 133 
256 609 280 176 172 177 
215 319 305 124 136 157 
251 17 477 112 107 105 
164 710 430 116 128 155 
170 555 362 118 130 149 
197 996 374 114 89 63 
222 549 310 117 136 158 
183 589 468 81 128 164 
340 462 501 46 87 134 
220 214 324 112 49 18 
266 165 446 71 60 61 
319 142 506 147 78 34 
250 199 333 72 99 121 
160 571 377 116 128 145 
141 637 381 113 128 146 
191 520 349 100 129 163 
254 567 485 107 131 163 
163 286 327 140 141 145 
301 271 504 124 121 125 
318 437 493 83 90 122 
234 766 449 158 140 129 
210 182 335 72 49 34 
178 960 384 145 127 112 
324 720 342 145 35 45 
313 600 369 118 128 142 
211 341 438 148 109 61 
169 384 425 91 106 126 
224 175 339 89 40 26 
265 662 482 66 33 34 
285 375 439 116 123 136 
156 528 464 175 172 178 
224 997 343 143 107 70 
343 195 503 157 116 115 
109 642 454 177 126 106 
344 342 548 79 123 158 
263 257 317 82 114 141 
296 444 339 58 95 140 
418 702 412 141 156 203 
166 277 363 65 90 110 
269 476 292 106 126 156 
146 610 468 110 94 81 
137 558 462 94 127 167 
101 803 394 175 190 212 
171 634 384 74 79 87 
326 563 404 107 121 140 
304 183 493 109 65 44 
291 709 314 150 163 180 
177 843 369 189 167 152 
254 20 473 104 95 88 
408 709 364 124 130 146 
158 302 375 118 98 91 
210 603 310 101 120 141 
309 161 493 85 75 72 
143 588 402 99 108 121 
266 195 477 66 41 47 
267 24 391 99 57 49 
274 557 494 59 89 146 
387 713 408 103 126 148 
235 1008 398 111 72 56 
274 330 386 167 135 94 
29 700 380 123 128 160 
266 612 279 76 107 133 
227 343 494 139 51 82 
112 728 399 109 111 118 
299 590 306 87 115 141 
326 614 426 62 68 75 
243 817 415 200 136 118 
267 275 406 98 119 140 
255 175 417 117 42 58 
226 228 471 127 46 73 
190 164 395 92 69 62 
205 974 441 106 85 73 
279 896 428 147 121 96 
154 360 325 165 145 127 
266 250 480 83 50 67 
156 408 338 171 159 162 
279 334 345 160 161 169 
346 661 436 108 132 158 
387 669 441 58 93 172 
146 755 419 114 127 144 
257 33 464 81 69 56 
309 143 515 124 66 4 
172 319 413 72 77 88 
254 23 476 113 102 96 
213 352 458 135 80 105 
254 24 465 143 131 125 
229 183 424 46 60 79 
315 343 498 117 119 126 
356 261 586 114 104 115 
251 528 284 91 118 163 
246 1012 379 168 140 113 
304 643 466 58 53 65 
247 141 375 69 62 65 
41 711 415 187 133 112 
255 25 467 142 132 127 
109 735 403 65 78 94 
292 761 326 131 126 125 
313 202 495 103 45 57 
314 547 386 109 128 150 
316 352 504 123 59 85 
322 197 607 119 106 94 
311 229 492 116 53 65 
168 664 450 122 125 183 
321 507 493 116 141 170 
284 696 305 130 154 179 
266 962 412 113 93 79 
273 264 508 133 131 134 
327 744 347 104 95 87 
269 256 509 102 118 137 
335 432 520 48 61 89 
190 624 370 66 76 90 
296 415 335 91 117 150 
289 571 305 115 137 160 
254 162 419 123 85 57 
293 798 332 117 137 158 
216 143 417 114 76 72 
251 25 479 114 92 70 
213 231 312 125 117 113 
221 223 321 106 55 30 
314 458 493 98 79 112 
354 194 569 47 69 93 
256 98 466 90 75 60 
327 282 499 74 115 145 
174 477 467 141 145 158 
261 159 487 91 67 52 
159 516 465 111 128 158 
307 488 464 113 114 148 
174 350 326 103 128 169 
321 390 502 77 103 130 
274 622 479 175 126 123 
152 355 393 139 108 80 
313 440 485 102 94 88 
251 865 354 188 144 108 
157 719 414 75 59 99 
280 646 470 143 101 94 
243 144 488 116 45 44 
314 794 399 204 150 116 
328 375 502 136 67 73 
291 508 498 69 99 136 
235 610 488 98 137 178 
367 320 576 171 173 182 
246 765 314 165 132 93 
291 660 308 102 89 107 
255 27 473 94 78 61 
349 260 587 114 34 75 
199 790 440 175 153 138 
235 323 495 158 120 74 
421 666 379 86 96 116 
202 340 427 103 103 108 
176 668 304 78 70 81 
248 251 514 93 100 111 
112 689 361 55 90 164 
328 754 421 164 141 118 
266 723 466 106 86 75 
201 931 350 85 68 52 
161 339 351 122 126 134 
354 200 576 38 76 103 
256 358 293 76 110 159 
317 466 520 81 105 159 
298 666 321 165 165 175 
322 187 494 111 95 88 
198 207 295 88 83 81 
378 757 393 110 110 112 
215 791 325 118 103 98 
248 397 494 97 124 169 
309 485 480 92 110 130 
174 712 459 126 142 163 
169 281 407 124 123 127 
297 216 494 89 38 55 
219 263 423 82 93 109 
260 131 490 131 75 25 
290 367 315 77 112 141 
263 676 286 107 138 169 
346 782 398 102 115 130 
250 950 449 181 137 110 
373 716 356 92 93 98 
145 722 400 82 98 132 
191 357 329 135 155 188 
263 162 374 108 111 119 
222 388 320 70 107 153 
264 254 339 138 140 149 
255 30 474 114 92 74 
271 395 495 51 89 133 
261 890 420 134 106 80 
225 139 470 106 90 88 
345 620 446 124 104 87 
163 646 460 170 114 110 
183 166 384 77 58 71 
349 716 412 103 45 65 
55 662 429 123 95 66 
163 704 426 48 77 124 
181 813 340 127 114 106 
207 370 437 74 94 117 
246 136 489 109 69 35 
248 702 286 80 153 211 
257 30 386 160 142 140 
392 626 391 65 97 132 
311 246 493 99 94 112 
223 237 313 85 104 125 
262 332 500 104 120 140 
99 732 409 63 86 117 
183 641 338 69 85 101 
243 943 344 65 52 41 
179 820 344 140 118 96 
164 382 416 81 92 109 
149 651 437 132 141 173 
303 495 517 119 141 192 
278 195 504 94 60 68 
311 656 338 146 153 169 
219 1016 386 108 84 55 
366 269 551 120 48 88 
331 342 508 155 114 72 
219 923 456 165 123 101 
226 536 281 121 132 160 
53 669 430 134 101 74 
177 519 353 153 158 170 
165 498 466 114 128 149 
226 11 480 118 106 101 
331 781 345 122 117 117 
164 289 330 106 73 76 
116 765 413 99 122 145 
272 730 466 64 75 90 
187 916 421 156 112 87 
305 174 502 49 37 51 
204 681 290 174 180 195 
314 479 450 103 111 136 
273 692 297 105 155 196 
227 636 283 179 177 185 
200 318 313 211 150 85 
209 358 320 152 157 169 
148 347 413 138 110 93 
201 527 345 164 166 175 
337 202 498 151 87 91 
215 316 467 126 22 60 
295 569 326 151 150 156 
80 713 363 112 122 153 
209 644 281 72 129 185 
268 483 487 154 165 184 
144 407 345 184 154 123 
252 938 448 181 139 112 
359 715 355 62 61 97 
232 301 295 131 115 113 
145 648 424 48 67 114 
252 193 338 84 93 102 
208 592 281 106 124 145 
154 674 326 92 106 141 
228 11 482 117 107 102 
309 373 490 127 114 101 
229 11 482 116 106 101 
82 641 439 111 90 68 
202 980 356 115 90 63 
170 503 468 160 163 175 
231 476 304 87 108 130 
232 784 441 150 140 135 
262 212 338 133 0 59 
247 839 340 194 138 103 
106 642 387 82 121 158 
297 396 327 73 106 148 
228 11 484 118 108 102 
163 307 306 169 167 172 
237 219 324 98 63 56 
223 541 314 124 135 151 
299 134 525 117 85 64 
217 563 282 118 131 150 
219 873 344 157 106 62 
202 881 390 163 124 95 
176 947 381 90 68 56 
310 812 341 187 135 99 
258 269 505 110 106 106 
440 680 392 106 93 85 
29 701 381 119 135 161 
314 520 455 179 178 184 
302 829 367 230 175 146 
243 314 502 116 131 149 
285 352 340 125 135 150 
317 569 447 98 119 151 
153 640 356 63 104 139 
130 802 419 145 29 43 
322 424 498 151 74 50 
255 963 435 125 90 71 
166 570 463 184 177 178 
166 664 448 114 141 193 
141 591 446 39 67 132 
319 179 497 95 28 43 
342 277 530 143 145 153 
235 350 302 117 138 170 
204 567 470 165 166 176 
148 469 445 88 103 124 
310 475 497 103 124 149 
247 274 511 93 112 132 
273 660 482 82 66 113 
292 348 493 119 104 121 
232 892 453 174 135 105 
231 721 297 161 164 175 
161 297 306 85 126 159 
275 839 375 200 140 110 
274 540 289 110 128 150 
292 514 486 107 119 143 
70 760 378 215 206 206 
277 822 394 195 138 115 
159 298 312 85 124 155 
226 14 489 123 113 108 
297 185 494 86 93 105 
204 993 379 105 79 61 
156 612 402 68 72 79 
106 629 453 112 91 70 
384 664 375 48 45 91 
293 251 500 105 105 115 
192 502 467 79 94 131 
350 802 373 215 149 119 
305 451 416 91 108 126 
265 359 292 77 117 149 
203 878 418 119 92 64 
324 395 500 74 103 137 
229 15 489 122 114 110 
214 186 332 54 59 72 
147 649 420 133 144 159 
206 1010 359 191 155 119 
114 652 378 36 50 79 
218 252 443 129 126 130 
348 265 599 93 116 138 
268 149 512 90 76 72 
397 740 363 127 82 111 
116 636 412 65 91 115 
228 183 433 46 40 61 
178 838 355 186 162 141 
253 724 302 110 46 102 
304 293 500 105 123 143 
311 250 497 93 89 98 
229 553 482 156 161 172 
168 431 347 92 111 140 
262 218 339 154 151 155 
194 462 463 123 128 145 
268 159 450 81 37 36 
358 636 411 60 67 76 
338 223 519 100 35 33 
234 11 482 112 103 98 
236 427 312 58 94 143 
235 11 482 112 103 98 
303 404 484 94 83 78 
305 676 482 89 77 74 
172 753 465 179 94 98 
154 407 418 71 81 95 
211 486 335 152 150 154 
313 247 494 103 88 104 
345 629 411 46 53 61 
286 290 496 110 112 128 
201 196 319 87 44 40 
264 241 492 112 67 70 
188 310 412 71 79 94 
267 277 477 80 88 101 
193 572 468 155 152 156 
368 666 447 69 82 162 
296 398 316 84 109 146 
279 690 476 123 92 64 
175 779 329 164 23 43 
296 832 358 243 186 149 
235 12 485 111 103 98 
209 982 436 83 70 59 
107 703 363 56 132 190 
159 283 388 73 100 121 
175 221 295 97 83 94 
256 187 503 91 45 58 
287 666 302 84 128 165 
249 190 338 104 91 79 
352 431 515 144 55 0 
177 337 413 124 121 123 
36 675 395 91 81 73 
345 381 534 113 132 156 
221 543 283 105 123 145 
272 843 374 185 134 102 
345 734 350 74 34 39 
356 260 587 110 84 108 
303 472 475 72 84 101 
218 528 330 130 135 145 
272 661 283 62 89 148 
160 307 334 74 111 143 
332 216 494 92 111 130 
305 234 497 110 27 53 
257 167 399 132 85 89 
220 507 324 90 111 135 
196 315 312 197 135 57 
177 201 275 135 109 101 
194 899 406 137 107 79 
246 851 345 191 140 103 
262 218 404 99 85 98 
264 330 500 112 129 148 
352 249 585 143 70 74 
260 291 503 59 88 112 
214 880 349 111 87 63 
185 622 482 114 96 80 
314 694 474 82 49 62 
236 14 486 111 102 97 
219 520 474 106 121 142 
263 419 494 85 103 141 
164 660 446 69 107 167 
336 134 516 126 107 94 
309 731 333 113 40 65 
248 984 421 101 80 62 
228 893 349 113 80 56 
165 308 353 124 128 137 
303 574 366 106 120 136 
334 204 495 160 125 93 
201 395 444 76 93 111 
173 671 315 127 126 130 
182 947 418 95 76 62 
266 193 433 79 32 44 
238 14 486 113 104 98 
134 705 356 79 94 118 
237 793 435 184 140 117 
348 802 383 212 150 117 
218 286 454 105 119 136 
235 870 426 124 87 56 
163 659 443 65 98 154 
218 216 451 83 42 43 
140 433 410 118 103 90 
225 16 491 133 122 117 
138 833 401 162 140 128 
285 746 464 217 170 111 
233 466 465 94 110 135 
275 497 484 62 80 106 
307 637 460 134 98 83 
215 584 306 95 125 154 
296 427 504 52 77 120 
128 825 407 171 132 113 
264 172 477 73 43 36 
158 385 362 164 136 104 
250 878 428 145 107 76 
87 666 386 47 70 89 
280 621 281 102 130 167 
227 17 491 119 112 109 
259 134 384 99 92 88 
255 877 389 157 117 89 
299 491 503 148 155 169 
212 363 446 129 131 137 
156 731 431 125 133 146 
217 232 445 72 104 130 
288 580 295 95 121 146 
360 286 577 102 27 63 
262 188 361 135 105 105 
338 192 516 96 39 54 
156 518 463 154 161 172 
235 283 488 81 106 129 
347 179 539 146 14 10 
185 977 399 99 83 70 
110 814 393 125 115 117 
264 368 496 97 114 138 
81 777 390 160 170 192 
296 434 340 126 137 162 
226 20 490 106 99 96 
318 444 504 104 121 142 
241 428 486 101 122 169 
238 715 292 138 168 201 
281 612 474 101 110 135 
296 637 321 136 139 147 
232 530 279 63 97 135 
268 185 493 78 41 49 
166 280 423 133 131 134 
213 351 454 145 83 104 
329 642 347 139 153 183 
313 503 514 111 134 190 
246 655 485 61 65 98 
369 364 544 164 155 155 
343 434 526 120 98 77 
342 619 440 99 89 81 
228 19 490 109 102 99 
347 178 558 119 107 113 
90 648 387 82 113 141 
238 575 281 179 179 186 
230 16 489 111 103 100 
174 297 417 69 84 105 
344 658 457 71 107 197 
290 520 345 93 118 148 
321 439 494 68 72 84 
144 443 363 146 88 65 
267 226 495 67 42 55 
327 496 506 106 126 184 
294 396 433 69 104 135 
139 660 349 93 107 124 
325 551 429 120 130 145 
340 327 546 73 117 150 
142 372 414 151 127 103 
228 21 490 134 119 112 
228 21 491 126 114 107 
326 331 501 101 105 125 
357 305 548 106 119 136 
193 566 468 177 173 177 
275 722 468 84 75 66 
228 22 490 148 131 125 
255 182 408 107 53 62 
291 465 494 69 95 152 
309 451 479 63 43 69 
138 635 402 15 83 137 
366 637 412 68 70 75 
65 667 386 81 85 92 
388 650 372 71 101 156 
229 171 474 48 62 87 
206 492 338 160 159 166 
247 269 509 110 101 103 
290 692 311 153 164 180 
400 744 372 193 27 49 
215 871 423 112 81 52 
266 252 478 77 58 70 
295 282 496 141 154 172 
165 514 466 166 169 180 
240 914 449 179 137 115 
299 540 367 72 95 134 
240 381 308 89 118 158 
177 956 392 99 75 64 
73 758 371 120 127 183 
366 739 353 119 100 80 
139 832 383 84 58 85 
322 220 605 125 98 105 
406 661 390 45 59 72 
299 436 460 62 85 113 
210 156 413 40 59 96 
369 346 553 130 115 119 
203 666 473 56 58 64 
42 681 422 146 106 80 
194 412 451 79 98 124 
177 215 275 151 118 114 
303 527 472 89 107 156 
220 883 347 162 119 79 
274 297 420 123 118 116 
148 656 407 62 71 84 
142 457 400 117 104 96 
155 732 420 67 37 82 
211 689 484 140 159 181 
276 900 417 153 118 88 
226 29 480 177 158 154 
312 616 369 78 80 87 
196 160 404 63 58 64 
181 838 390 124 102 95 
246 279 299 135 135 139 
75 699 406 96 108 131 
316 576 385 79 92 107 
144 609 449 33 45 55 
148 431 345 174 144 111 
187 711 472 130 145 166 
258 194 409 52 80 102 
231 762 312 136 80 47 
151 339 423 112 119 131 
191 637 298 91 92 103 
259 501 478 73 94 142 
233 986 347 119 91 53 
113 634 427 86 80 78 
275 817 400 199 139 116 
283 386 456 128 127 132 
206 765 462 73 54 100 
156 566 380 181 177 181 
184 514 466 143 152 171 
176 309 412 61 91 114 
252 633 477 135 134 140 
350 732 351 110 85 53 
313 202 605 122 108 98 
231 27 485 182 158 157 
263 372 496 83 102 128 
267 405 494 86 108 134 
271 237 507 122 118 120 
224 261 302 132 130 133 
130 781 359 140 161 186 
135 795 360 156 165 179 
211 871 437 144 113 85 
228 29 482 186 166 162 
235 514 463 127 129 136 
194 303 309 100 127 172 
286 542 334 115 137 162 
350 324 536 143 127 120 
217 743 309 177 43 56 
124 698 365 128 145 177 
194 477 466 141 143 153 
208 231 412 115 110 109 
223 528 292 40 93 149 
375 642 376 45 73 116 
287 516 504 27 62 146 
147 617 419 44 55 65 
284 589 287 113 134 156 
230 31 480 100 67 53 
350 229 530 139 43 67 
302 817 342 197 143 106 
207 725 481 125 159 192 
83 670 388 71 83 95 
308 564 374 112 130 150 
261 187 486 73 32 37 
141 353 421 176 150 124 
54 677 374 73 91 111 
316 535 389 77 102 132 
175 215 285 137 91 70 
183 208 341 86 78 89 
189 214 408 121 79 61 
90 659 373 98 118 138 
243 931 343 62 50 41 
179 958 396 95 76 65 
243 469 478 143 153 171 
237 389 492 62 96 149 
163 665 439 112 143 186 
248 876 424 129 93 64 
273 660 282 89 110 167 
140 708 347 117 124 138 
264 257 405 143 144 151 
262 200 352 118 100 113 
179 199 310 104 115 128 
231 24 489 124 113 106 
270 947 374 79 63 52 
231 426 320 149 153 166 
297 407 506 52 80 125 
247 960 349 118 91 64 
146 448 394 125 88 55 
210 608 277 166 167 177 
212 590 333 146 144 148 
179 223 312 54 72 92 
340 220 509 112 93 103 
154 379 353 170 143 111 
323 557 441 116 134 157 
238 16 487 119 107 99 
214 380 459 82 101 132 
206 522 341 149 152 160 
307 579 351 103 126 150 
215 872 421 112 79 50 
120 750 407 71 82 95 
225 772 316 94 129 160 
177 929 397 89 61 49 
231 334 495 156 131 105 
299 515 372 64 95 122 
228 911 333 84 70 60 
203 616 476 133 122 121 
157 557 465 112 145 183 
240 524 280 126 140 176 
297 550 479 96 122 165 
269 294 471 75 97 118 
326 415 502 169 152 139 
297 540 485 187 194 212 
186 308 313 149 154 167 
228 958 456 204 160 138 
288 805 406 214 152 126 
296 418 449 114 125 140 
212 369 444 68 90 123 
256 173 427 105 51 46 
203 880 384 163 123 94 
290 518 342 120 137 157 
264 59 451 106 93 83 
371 315 546 181 183 192 
204 675 473 65 68 74 
322 199 613 120 107 97 
232 16 488 113 104 99 
332 193 586 113 60 39 
206 256 303 138 131 130 
378 736 404 84 73 82 
185 761 318 176 34 56 
337 261 506 141 103 110 
158 611 477 119 95 79 
232 19 489 116 105 98 
328 402 505 166 151 141 
312 573 453 127 140 161 
282 263 496 125 45 75 
342 147 519 167 72 3 
338 354 534 157 146 141 
270 200 464 55 44 65 
277 404 487 74 74 81 
256 289 507 68 94 119 
177 216 298 113 86 81 
234 19 489 126 114 106 
36 688 418 154 111 88 
205 323 312 208 155 85 
176 213 292 133 93 79 
302 611 341 134 133 140 
279 686 297 90 138 176 
262 496 478 66 92 147 
285 375 440 118 124 134 
270 777 322 165 133 98 
167 407 437 102 117 135 
318 178 499 56 33 34 
153 355 418 108 83 68 
380 339 556 155 162 174 
319 492 428 95 113 142 
405 720 363 147 156 171 
341 326 533 77 113 139 
122 673 383 79 99 131 
292 393 346 102 124 148 
337 648 465 143 173 215 
242 410 306 62 98 133 
208 914 351 95 73 59 
211 598 330 101 120 142 
155 344 338 105 119 136 
301 246 493 89 97 117 
349 333 547 95 81 100 
263 338 293 130 145 163 
276 309 504 170 169 177 
275 924 403 136 96 73 
276 330 438 157 115 67 
207 575 350 127 124 126 
228 170 443 66 30 38 
309 618 467 159 117 101 
236 21 488 137 123 115 
256 184 507 110 56 66 
306 447 429 137 142 153 
285 652 474 100 125 158 
189 979 402 93 75 65 
180 199 313 102 114 131 
52 714 369 76 96 157 
342 702 425 159 89 96 
166 271 416 118 121 129 
321 799 396 201 151 117 
357 780 356 170 141 111 
363 298 586 92 114 134 
232 26 485 182 160 158 
146 405 406 145 120 93 
116 663 392 80 103 128 
302 531 474 86 97 142 
351 451 521 148 116 74 
162 335 365 114 108 120 
312 353 502 115 44 72 
210 396 447 79 99 120 
190 939 438 166 131 103 
234 869 431 123 88 61 
130 636 402 65 104 137 
197 618 366 75 79 85 
224 958 350 106 78 52 
120 647 409 77 101 132 
240 414 307 82 112 146 
129 650 406 106 117 133 
192 589 469 78 123 158 
235 27 484 181 162 157 
367 342 549 65 109 142 
315 235 495 101 67 94 
232 28 482 181 162 157 
138 490 402 85 106 135 
221 514 467 108 120 141 
227 136 371 171 97 38 
238 604 487 151 166 187 
289 740 466 155 131 121 
191 379 437 51 82 106 
260 918 435 181 133 104 
307 497 466 137 148 165 
273 940 389 77 59 53 
345 716 352 143 132 131 
162 373 414 94 89 90 
242 868 349 165 119 82 
314 533 453 149 155 167 
213 394 328 91 111 159 
293 808 399 210 152 121 
208 321 427 97 106 118 
379 771 374 66 46 72 
189 759 466 187 90 115 
388 716 357 144 41 54 
240 521 465 138 139 146 
208 872 397 158 118 90 
335 714 349 150 33 44 
273 221 505 81 54 66 
279 341 350 150 152 161 
337 153 507 149 128 116 
308 223 491 105 32 47 
274 804 328 117 135 155 
183 910 387 127 92 62 
319 588 394 103 112 124 
273 223 450 66 34 41 
261 202 485 42 38 66 
265 242 418 99 85 86 
237 761 452 185 158 132 
353 285 542 144 145 153 
102 749 365 92 108 127 
177 520 352 122 134 152 
293 429 468 49 72 91 
161 662 439 95 128 185 
126 816 375 190 30 61 
110 643 454 180 128 108 
138 478 402 61 89 128 
238 24 485 161 145 137 
186 297 411 74 99 121 
139 485 380 53 90 142 
166 291 300 84 131 169 
239 25 484 168 151 143 
138 512 393 81 104 140 
275 216 505 63 55 74 
361 272 568 101 58 62 
341 291 524 68 105 137 
357 251 576 94 44 63 
282 828 383 202 142 116 
374 338 571 106 138 173 
216 1016 388 87 72 58 
160 699 419 54 61 91 
105 787 371 132 132 176 
173 722 308 146 159 184 
287 469 487 123 135 154 
156 451 354 109 120 141 
213 427 335 157 156 163 
231 314 489 149 110 68 
248 382 496 76 120 166 
267 908 411 146 107 75 
190 911 430 169 125 99 
269 789 434 210 151 123 
178 300 413 65 90 111 
218 980 445 106 89 77 
259 935 434 175 132 105 
198 735 306 135 163 204 
216 920 452 145 112 97 
148 653 344 92 106 122 
222 733 475 145 68 80 
296 537 359 127 136 153 
324 334 499 97 111 130 
197 190 301 97 65 59 
221 1012 359 110 76 46 
148 519 459 127 137 155 
135 728 397 60 88 129 
218 986 346 105 80 55 
241 12 481 112 103 98 
274 494 486 73 92 120 
375 678 361 40 66 85 
403 656 406 103 87 71 
278 151 498 111 90 75 
299 613 301 161 168 182 
283 922 425 169 138 105 
290 241 493 145 79 59 
176 768 456 194 152 106 
253 541 285 92 123 158 
350 189 571 120 79 59 
150 378 421 121 109 99 
149 414 397 154 130 105 
216 244 417 107 112 121 
364 616 402 46 86 117 
239 384 493 86 129 166 
176 184 360 99 92 92 
183 969 410 102 86 73 
202 597 356 67 76 86 
291 388 426 88 115 141 
267 941 425 85 66 51 
154 339 326 107 128 150 
241 252 308 132 131 134 
210 400 448 69 91 115 
311 462 491 104 117 138 
282 452 299 174 177 188 
357 294 584 105 76 92 
282 195 503 110 56 59 
302 696 331 150 158 171 
158 299 414 77 107 133 
256 987 398 83 67 52 
161 686 324 56 86 132 
107 687 379 76 92 111 
308 469 457 166 158 157 
264 237 492 86 32 41 
195 154 324 144 114 94 
270 696 298 161 178 202 
276 581 284 87 85 97 
303 244 492 88 94 115 
228 867 408 144 111 82 
265 601 483 90 104 168 
213 364 451 112 121 134 
221 207 440 123 34 18 
245 619 281 126 152 184 
314 469 435 83 109 136 
351 200 578 88 59 80 
198 441 343 93 111 136 
326 194 501 88 25 23 
269 179 465 40 36 37 
271 312 496 92 105 121 
320 720 339 145 50 61 
279 72 434 133 122 114 
257 955 436 140 110 87 
132 830 400 144 96 98 
106 754 364 118 129 147 
138 635 401 17 85 138 
242 16 484 126 117 113 
206 670 473 77 78 84 
220 694 294 88 148 199 
225 135 456 131 56 11 
239 458 296 129 134 145 
212 596 309 107 128 151 
266 636 478 159 113 111 
230 213 475 61 49 87 
172 547 358 123 134 153 
413 659 377 108 120 136 
289 184 495 85 75 88 
279 417 481 59 67 78 
121 644 430 58 79 121 
245 209 327 94 48 47 
292 626 294 124 148 175 
271 362 499 132 147 168 
349 197 527 61 110 145 
375 713 356 26 31 82 
208 873 433 140 109 80 
240 22 486 139 126 119 
332 270 503 132 27 64 
221 299 298 148 37 56 
243 20 484 119 109 104 
66 699 422 164 107 88 
288 420 369 115 131 152 
243 21 485 127 116 108 
397 667 441 146 163 184 
156 834 367 232 199 173 
171 408 442 46 77 118 
295 281 501 102 115 134 
270 316 494 96 112 130 
162 641 402 64 77 98 
242 281 297 116 122 132 
337 186 585 132 56 0 
233 394 489 57 84 142 
236 371 495 89 113 155 
149 417 360 175 149 121 
171 372 419 89 98 112 
196 143 351 130 110 98 
372 765 361 168 137 109 
290 195 502 112 55 61 
289 412 360 121 136 156 
237 135 360 110 86 71 
394 694 422 148 175 205 
297 179 493 133 60 18 
319 469 513 78 86 100 
238 550 474 71 95 123 
294 433 468 67 82 98 
247 16 480 120 112 108 
261 305 298 128 95 67 
161 704 421 50 58 92 
367 332 549 82 123 156 
398 653 430 125 101 74 
247 18 481 108 103 102 
247 19 481 107 101 99 
244 734 465 125 104 97 
412 658 377 93 108 130 
207 902 366 79 62 50 
261 64 435 144 121 96 
353 246 584 150 68 73 
333 699 347 129 127 133 
245 220 489 97 25 50 
279 345 360 101 119 140 
279 139 520 133 72 0 
402 656 428 119 95 70 
225 542 280 121 136 161 
138 456 363 128 114 102 
264 301 504 79 84 97 
205 1014 364 166 130 95 
187 387 338 77 114 151 
325 577 424 114 122 136 
193 623 365 72 79 88 
265 817 331 175 124 88 
247 541 283 179 179 187 
345 175 528 135 29 28 
246 23 482 144 130 121 
301 270 501 116 112 117 
152 445 437 76 93 120 
217 538 331 94 117 142 
170 618 393 85 89 95 
249 379 299 105 130 157 
256 107 452 72 61 49 
154 764 439 129 79 88 
241 25 483 157 141 133 
298 404 498 57 77 117 
236 673 287 129 154 187 
260 898 427 154 110 84 
123 673 383 55 85 124 
242 901 448 167 127 100 
330 209 504 46 47 63 
312 559 382 95 110 127 
273 308 335 148 148 153 
167 227 367 98 65 76 
242 26 483 133 112 97 
286 369 434 115 128 145 
310 600 350 158 164 177 
297 677 321 159 160 167 
250 216 513 96 72 73 
262 280 375 84 76 87 
252 711 298 145 167 191 
256 102 462 88 73 58 
42 709 416 182 129 108 
223 525 297 72 111 146 
57 660 430 122 95 66 
184 677 459 101 115 138 
224 449 461 59 82 122 
274 19 398 147 101 79 
362 618 406 84 113 143 
202 884 397 163 122 95 
170 612 481 157 114 107 
282 785 429 207 150 118 
226 175 444 96 42 35 
81 671 439 170 115 91 
217 866 404 148 113 86 
361 279 586 122 98 104 
31 693 412 170 121 97 
391 649 428 123 98 71 
374 722 355 46 47 103 
246 755 455 138 115 92 
334 751 417 177 144 106 
270 156 513 97 77 75 
172 259 402 117 98 92 
338 359 530 125 123 126 
153 373 418 120 103 93 
380 742 355 174 137 93 
242 30 481 136 108 82 
195 141 352 112 91 68 
243 30 480 130 101 79 
259 23 397 127 105 87 
241 255 306 124 126 131 
352 792 358 163 158 160 
275 286 430 146 143 146 
243 871 402 164 124 91 
266 284 311 115 126 141 
245 25 483 136 118 107 
283 234 503 109 61 76 
283 265 503 89 105 124 
248 473 480 148 161 178 
322 613 428 54 63 73 
247 830 402 186 123 103 
271 305 307 109 122 138 
229 939 343 54 42 33 
257 81 445 125 102 82 
243 960 349 122 93 64 
361 289 565 136 69 97 
300 825 376 210 153 121 
224 240 312 89 107 130 
204 244 411 90 81 80 
307 632 333 163 162 168 
319 493 417 143 145 153 
191 926 363 116 93 68 
110 716 368 60 92 153 
432 701 405 141 152 219 
295 580 309 79 112 140 
354 615 405 100 119 140 
346 685 422 77 72 118 
168 441 348 91 109 139 
306 231 496 91 59 63 
164 720 440 105 119 135 
309 474 405 59 92 119 
157 348 381 136 14 63 
152 674 326 105 125 156 
246 29 481 131 104 81 
163 300 410 69 92 113 
103 797 409 136 168 200 
255 599 281 100 114 132 
275 298 452 84 105 126 
252 133 379 115 89 53 
196 342 321 216 149 79 
378 326 553 157 162 174 
296 499 503 118 131 148 
249 17 480 107 101 100 
138 462 367 140 121 104 
285 406 388 61 91 142 
347 205 519 60 109 143 
174 597 379 77 83 91 
369 337 563 115 146 177 
249 19 480 104 95 91 
297 417 504 59 83 110 
308 773 336 150 130 112 
422 708 406 150 158 212 
365 419 538 215 82 11 
235 280 488 90 110 130 
270 175 461 39 37 39 
189 387 441 48 77 104 
233 820 335 97 130 159 
350 203 542 93 36 38 
283 376 444 142 139 142 
288 450 364 168 168 176 
410 672 368 103 131 160 
217 244 307 81 107 130 
310 539 381 51 82 128 
238 185 481 92 29 39 
227 506 294 115 128 146 
183 828 345 182 144 96 
288 148 521 116 92 75 
258 182 422 92 38 43 
268 803 421 206 147 121 
215 693 294 151 171 205 
279 922 412 136 102 82 
291 180 494 111 66 45 
114 642 385 55 93 133 
125 805 417 57 40 124 
271 220 465 96 30 23 
300 424 484 63 73 93 
155 669 411 94 99 135 
349 198 538 99 36 43 
102 750 365 102 114 131 
297 563 345 94 117 150 
290 417 361 117 136 163 
245 254 494 128 128 133 
248 28 481 133 109 87 
174 246 319 127 64 57 
197 942 450 178 137 112 
243 404 490 83 112 161 
270 144 511 97 84 75 
221 247 432 135 132 135 
253 424 291 96 120 150 
250 28 480 126 98 80 
427 703 408 183 198 225 
112 815 400 201 27 59 
224 321 487 125 68 71 
252 792 433 215 159 131 
169 741 466 157 64 85 
272 330 502 174 145 113 
301 241 499 68 85 103 
268 721 466 101 89 80 
199 260 303 152 149 152 
313 470 485 113 129 148 
328 486 493 34 78 138 
246 515 473 106 118 139 
295 447 393 100 121 146 
238 909 450 170 126 101 
363 716 354 124 72 74 
227 33 450 95 81 69 
392 647 422 115 94 72 
208 912 355 88 69 58 
180 507 467 79 96 137 
225 559 480 117 137 169 
340 151 515 167 78 6 
199 946 351 87 69 54 
322 571 394 108 126 148 
302 481 514 95 116 154 
273 532 482 64 88 131 
282 530 306 168 169 178 
152 774 442 99 45 52 
206 596 475 71 109 142 
222 1005 345 99 79 61 
392 656 372 91 123 160 
155 604 462 97 107 121 
372 347 543 139 43 71 
266 323 470 87 79 83 
200 516 468 100 119 162 
265 293 478 109 108 112 
123 751 359 55 80 146 
316 662 341 118 133 151 
320 734 435 176 164 157 
383 644 432 124 100 74 
68 758 404 113 130 192 
247 911 446 187 138 112 
184 563 357 160 162 170 
170 484 358 115 132 157 
252 244 312 118 125 136 
349 643 352 92 112 137 
356 279 594 160 109 96 
291 170 497 131 51 6 
201 195 320 82 33 41 
202 213 314 86 35 32 
333 177 507 70 32 58 
259 190 388 96 87 100 
215 301 431 127 129 136 
28 680 391 105 86 67 
160 659 437 67 92 151 
159 392 371 167 143 119 
327 752 422 173 161 158 
271 947 423 109 88 71 
180 798 334 95 104 114 
242 274 494 71 101 128 
150 423 364 172 146 120 
263 743 463 152 134 120 
243 1012 372 150 125 98 
250 230 318 142 137 137 
352 279 540 73 113 145 
273 313 340 139 139 143 
291 484 333 180 181 189 
283 719 473 140 106 83 
364 301 561 127 138 154 
266 294 382 149 147 151 
360 274 564 101 42 53 
344 227 537 129 31 19 
170 297 300 177 174 179 
400 654 412 109 90 71 
113 713 392 81 95 117 
323 531 429 105 122 141 
274 326 302 113 120 131 
224 42 450 89 77 66 
270 126 462 100 87 76 
82 644 410 104 94 87 
160 322 420 118 118 124 
268 715 300 154 165 190 
438 669 376 131 140 154 
262 981 377 157 132 109 
218 995 417 135 105 74 
261 185 349 111 110 114 
180 424 454 118 127 141 
372 329 545 130 147 167 
227 43 449 85 73 63 
161 744 454 111 143 174 
309 172 503 54 57 67 
144 420 355 175 145 110 
254 457 286 101 123 150 
301 486 508 85 110 146 
32 715 401 164 114 95 
206 312 308 138 138 155 
157 831 401 190 171 157 
78 679 433 167 113 89 
267 961 411 112 92 80 
181 211 319 62 82 106 
254 896 376 109 80 59 
335 323 502 152 153 160 
238 443 306 74 105 135 
291 369 318 84 114 142 
379 347 551 129 145 165 
