ply
format ascii 1.0
comment Created by CloudCompare v2.11.1 (Anoia)
comment Created 2/28/22 9:38 PM
obj_info Generated by CloudCompare!
element vertex 2014
property float x
property float y
property float z
property uchar red
property uchar green
property uchar blue
end_header
240 134 487 135 68 17 
310 332 503 92 77 87 
216 135 405 128 59 1 
371 204 560 94 24 42 
112 719 369 44 76 134 
300 348 511 145 74 99 
277 274 504 108 78 85 
83 726 365 76 105 148 
120 645 438 114 85 78 
312 602 370 104 114 127 
166 251 355 47 69 91 
338 637 342 132 137 147 
190 776 323 180 87 82 
79 745 368 165 162 173 
370 382 525 148 105 66 
333 628 350 92 115 137 
373 218 583 50 80 103 
238 201 323 68 57 58 
206 862 353 177 134 99 
305 606 347 108 109 114 
212 389 327 119 136 164 
173 268 408 124 122 124 
261 729 295 110 22 57 
305 180 498 74 47 55 
229 61 484 94 79 64 
411 643 375 121 131 146 
144 401 412 162 138 112 
337 184 499 153 63 1 
186 907 415 149 109 81 
164 740 323 81 99 126 
312 739 442 171 145 123 
330 279 499 128 97 109 
343 422 522 138 104 108 
315 514 501 116 133 186 
150 793 349 79 63 113 
160 634 388 72 85 100 
86 722 414 161 153 151 
343 312 511 79 109 137 
377 637 409 86 78 72 
318 202 494 119 65 67 
193 978 420 98 79 66 
131 630 427 75 66 69 
152 632 425 67 66 73 
118 754 412 50 79 107 
327 357 493 122 117 118 
232 50 480 98 81 64 
96 671 375 25 53 111 
232 51 481 97 81 63 
303 440 432 136 136 142 
72 643 429 94 80 66 
281 908 424 170 136 100 
70 763 396 214 210 225 
174 260 286 142 117 138 
285 652 297 90 114 138 
192 512 465 149 161 177 
188 473 337 91 116 142 
307 477 393 74 103 134 
179 924 405 88 66 50 
187 673 459 187 179 179 
256 938 352 76 57 51 
152 692 402 107 121 142 
164 416 437 52 76 113 
129 806 366 159 36 48 
95 656 422 116 84 76 
171 344 411 101 100 102 
221 293 475 114 118 125 
272 22 393 142 98 79 
77 681 409 101 80 74 
233 55 482 98 82 65 
262 847 349 222 168 134 
216 866 436 115 88 59 
175 377 426 31 68 99 
190 208 405 121 80 60 
172 825 348 170 148 130 
188 985 367 102 81 61 
266 727 463 70 60 51 
238 594 280 91 139 177 
356 167 548 157 63 0 
196 973 432 108 84 70 
86 683 392 62 92 123 
236 48 480 103 85 67 
236 49 480 102 85 67 
225 737 297 177 44 66 
346 362 539 147 143 146 
230 198 326 87 77 79 
229 856 398 163 122 92 
187 957 431 154 121 98 
271 297 481 111 117 128 
373 196 558 48 69 92 
231 459 318 109 124 145 
140 466 396 117 106 98 
123 825 395 213 128 65 
225 192 420 47 32 38 
202 338 314 211 158 84 
63 753 389 63 79 156 
159 425 344 98 102 129 
359 198 534 102 42 46 
148 363 416 158 135 109 
188 684 459 95 113 151 
153 386 330 207 177 144 
88 670 389 79 90 103 
378 244 570 138 7 59 
311 714 465 116 77 82 
83 661 406 80 74 80 
302 491 501 98 114 150 
374 214 559 82 60 84 
226 715 292 167 170 183 
201 197 301 82 42 40 
195 982 417 108 88 69 
238 315 293 183 96 129 
166 266 354 121 14 56 
172 607 387 83 85 90 
78 708 411 89 101 125 
189 643 315 121 123 130 
90 738 366 95 116 157 
309 534 454 122 136 155 
306 640 459 56 49 61 
192 628 358 72 83 95 
369 408 532 190 135 89 
138 639 370 71 95 117 
156 777 342 152 119 127 
186 519 465 185 181 185 
269 601 477 90 111 167 
235 58 482 104 87 70 
146 713 402 91 104 131 
236 174 480 100 46 35 
176 716 466 119 142 165 
294 529 351 110 127 147 
134 522 454 80 106 157 
155 651 443 158 163 185 
282 536 327 114 142 172 
295 507 502 23 65 131 
235 60 483 103 86 68 
231 890 349 127 91 66 
391 376 547 132 151 182 
61 655 433 118 93 66 
342 400 517 128 5 42 
156 383 358 140 79 69 
224 193 415 41 36 36 
87 761 415 158 168 191 
275 23 387 173 124 100 
282 643 297 118 121 130 
142 484 387 61 92 134 
228 911 329 92 70 50 
227 533 278 87 113 150 
318 468 519 95 117 182 
165 248 290 92 122 149 
296 397 506 79 108 154 
262 747 305 122 118 115 
241 591 484 100 127 174 
65 655 404 106 96 87 
215 878 444 146 114 91 
284 830 369 217 161 132 
203 992 395 112 74 48 
372 285 548 136 107 74 
291 412 350 97 121 155 
244 296 287 204 146 77 
146 777 433 121 47 53 
231 545 476 118 132 151 
250 876 388 151 114 86 
386 306 540 151 155 165 
174 702 448 154 154 162 
254 196 394 43 62 89 
221 137 409 133 60 1 
324 450 504 59 81 125 
273 297 486 95 96 101 
228 824 334 143 109 74 
85 649 395 65 79 93 
274 364 412 98 116 135 
236 61 483 103 86 69 
216 622 278 186 184 192 
344 413 528 162 57 94 
127 750 352 130 138 156 
290 476 354 166 170 183 
149 612 474 133 104 90 
180 595 374 97 97 100 
222 765 456 83 81 93 
195 168 331 97 86 77 
279 533 479 61 77 111 
254 952 434 150 112 88 
318 534 388 112 123 140 
258 154 370 110 115 124 
193 456 334 131 140 154 
285 340 302 154 158 167 
152 651 422 121 134 161 
221 154 330 18 59 85 
196 388 329 79 121 160 
345 652 343 168 167 174 
264 243 331 124 125 132 
365 629 371 74 106 133 
187 671 288 84 137 179 
251 422 292 129 140 158 
148 380 408 98 108 122 
309 551 451 130 143 168 
309 659 332 123 136 156 
250 180 391 111 49 64 
259 153 499 62 92 117 
133 521 435 123 133 147 
163 724 448 127 139 155 
181 971 384 80 63 56 
323 452 507 81 100 119 
242 427 486 103 126 174 
382 622 392 79 115 147 
197 987 376 67 50 35 
326 761 416 142 86 90 
297 426 449 74 90 109 
314 206 496 82 58 77 
275 371 483 119 120 127 
140 374 425 142 127 115 
296 794 328 117 99 81 
210 745 472 178 40 59 
168 480 354 116 127 152 
236 872 414 129 95 63 
223 347 309 98 131 167 
270 281 337 87 121 149 
349 625 404 62 65 71 
301 436 491 43 67 107 
195 882 415 136 108 80 
223 212 470 89 47 45 
271 424 489 72 87 126 
248 520 474 111 127 152 
197 421 336 96 118 146 
306 572 367 150 145 146 
140 437 411 128 114 103 
286 507 324 132 150 174 
390 256 557 103 98 101 
355 308 524 144 151 163 
117 818 391 193 42 55 
117 633 463 182 131 116 
53 705 424 174 121 100 
138 722 345 136 147 167 
215 266 449 127 125 130 
263 525 478 98 113 150 
214 65 386 96 80 65 
357 335 545 112 137 163 
215 65 386 94 78 63 
203 254 294 87 95 104 
277 723 302 91 99 138 
211 360 441 129 130 137 
212 872 415 110 81 50 
210 242 410 81 96 112 
135 519 454 92 118 154 
215 66 387 94 78 62 
257 171 357 90 94 107 
295 740 459 168 142 118 
154 750 431 106 133 159 
311 718 329 71 38 41 
137 518 405 90 116 150 
122 737 353 67 93 141 
206 904 446 163 125 102 
321 547 390 100 118 142 
127 779 423 125 149 174 
349 319 518 144 146 154 
121 772 417 112 125 142 
140 723 344 81 97 126 
182 662 314 66 83 100 
214 68 386 98 81 66 
417 664 366 124 138 156 
395 706 356 82 100 123 
181 965 376 89 64 52 
405 656 373 88 101 132 
65 681 371 64 101 167 
197 634 296 78 93 111 
54 676 374 65 94 117 
287 340 314 78 106 133 
144 753 420 111 125 143 
135 539 457 126 145 169 
259 246 398 142 139 142 
258 244 308 127 126 129 
335 639 454 26 57 97 
192 984 355 112 87 63 
299 685 476 92 111 130 
187 691 460 79 95 139 
305 316 508 116 96 88 
283 408 407 65 96 130 
160 322 345 140 143 153 
236 1009 355 140 113 80 
324 447 502 72 93 129 
333 727 422 138 117 109 
195 973 431 113 88 74 
146 377 417 159 136 114 
159 314 309 167 164 170 
184 270 415 88 93 99 
22 690 396 170 119 99 
158 821 354 158 134 119 
159 707 325 111 128 152 
311 470 447 111 125 146 
165 638 470 181 122 120 
141 648 414 42 56 72 
221 989 433 97 80 66 
247 136 360 97 64 64 
204 534 465 166 172 184 
288 485 310 51 95 141 
140 397 421 148 69 17 
262 302 391 120 128 139 
335 663 458 109 143 174 
136 532 418 126 133 146 
342 628 370 59 99 129 
189 650 288 143 145 153 
216 572 280 129 142 159 
292 788 326 141 129 121 
219 748 467 138 83 63 
153 362 328 154 138 124 
382 624 380 44 95 141 
262 170 485 98 44 27 
267 374 290 123 142 167 
216 572 279 123 138 157 
284 388 441 67 85 105 
258 841 379 177 127 103 
299 428 445 94 107 122 
329 429 519 75 102 127 
140 622 471 175 129 119 
147 354 428 182 144 110 
173 632 366 59 78 99 
217 66 388 91 75 60 
179 645 469 178 126 116 
83 742 416 107 130 174 
389 353 556 113 148 182 
280 382 423 79 102 127 
229 637 479 177 173 177 
388 344 561 116 146 178 
218 292 469 77 91 107 
309 527 378 129 135 145 
219 67 388 89 72 55 
214 536 468 121 142 166 
258 846 344 217 164 129 
230 867 433 121 89 60 
265 954 413 121 102 86 
116 677 360 118 133 160 
198 243 409 114 56 11 
288 292 505 137 138 144 
298 430 321 93 118 156 
303 659 470 88 78 86 
259 406 493 130 153 181 
217 68 388 93 77 61 
256 475 479 91 109 164 
198 752 470 185 159 138 
219 68 388 90 72 56 
302 440 449 110 113 123 
254 478 479 97 118 168 
342 211 520 55 43 45 
320 158 492 107 98 99 
263 573 282 88 126 158 
315 473 493 85 109 142 
201 862 360 194 147 114 
247 1005 362 112 82 65 
200 566 352 110 119 132 
169 615 393 81 87 94 
248 718 293 151 177 206 
399 720 354 145 156 171 
230 198 478 53 42 69 
241 898 353 95 75 58 
219 437 329 84 110 143 
242 243 302 142 137 134 
179 651 320 104 105 119 
306 203 498 86 56 60 
271 219 493 60 42 60 
386 326 539 165 174 190 
153 416 360 176 151 125 
298 367 510 139 146 161 
361 440 514 162 141 120 
106 808 403 199 43 67 
314 668 474 94 119 144 
317 295 497 118 121 127 
291 497 480 87 109 143 
201 590 361 89 77 72 
252 267 506 147 146 152 
185 818 340 144 124 106 
111 730 367 65 42 90 
367 222 585 55 78 102 
284 667 478 100 85 73 
367 758 391 164 146 134 
296 307 498 128 154 183 
279 152 512 113 70 68 
247 393 299 101 121 152 
180 631 364 56 74 92 
165 718 437 53 85 123 
252 162 495 114 82 75 
343 209 617 121 104 93 
231 139 481 106 107 113 
187 669 288 88 143 186 
314 426 477 87 87 91 
270 273 472 86 97 110 
134 739 404 80 101 128 
427 714 379 157 168 220 
216 74 386 97 79 62 
203 514 340 103 127 159 
238 519 461 82 96 114 
418 667 403 113 92 70 
309 476 455 168 159 159 
151 662 413 57 77 143 
203 998 349 113 73 49 
287 350 499 176 135 82 
157 421 342 153 104 74 
308 233 492 125 38 61 
218 184 456 32 56 96 
216 312 300 143 150 165 
445 682 373 158 167 182 
46 716 374 116 134 172 
272 359 395 145 145 153 
207 572 469 161 158 162 
372 418 534 217 133 43 
250 678 277 163 168 183 
201 327 420 93 105 121 
70 674 440 175 124 98 
159 347 357 137 52 68 
215 249 417 77 95 113 
145 759 427 106 117 132 
327 672 466 90 131 165 
254 988 378 111 88 69 
351 207 528 120 46 43 
132 531 446 90 110 149 
83 701 406 113 122 153 
295 438 402 74 101 125 
220 396 476 92 109 144 
342 731 415 158 132 118 
188 394 331 91 124 157 
193 280 302 118 134 156 
248 524 474 122 132 153 
223 176 467 42 53 81 
292 153 493 101 81 72 
322 613 395 91 80 72 
329 157 505 79 62 68 
261 760 311 167 137 108 
160 326 370 84 108 132 
79 682 404 72 78 92 
263 8 388 115 99 89 
257 209 420 36 43 70 
287 502 354 115 133 155 
259 257 388 130 136 147 
230 976 349 86 65 40 
170 224 285 97 96 100 
138 670 395 56 85 142 
230 492 304 130 137 149 
161 675 420 107 119 141 
294 155 504 89 72 57 
338 260 507 101 105 117 
354 298 528 98 73 88 
301 434 496 36 67 114 
220 79 387 104 82 63 
274 732 463 142 132 128 
305 446 445 137 136 140 
411 724 393 173 192 218 
383 727 349 102 32 38 
118 619 449 88 81 77 
269 163 493 126 65 29 
233 176 478 95 47 34 
347 747 341 102 100 102 
299 393 484 114 109 107 
261 670 483 130 95 76 
208 908 447 171 130 110 
121 786 365 141 148 161 
222 264 290 147 144 146 
175 251 399 85 70 77 
81 763 411 130 134 182 
86 675 429 151 98 79 
199 815 335 197 155 100 
269 341 399 92 117 138 
275 611 474 86 82 111 
297 445 397 36 80 114 
394 650 379 68 86 112 
165 679 327 56 80 114 
289 365 499 158 162 173 
264 125 495 126 93 72 
269 261 441 87 38 38 
254 197 495 46 63 86 
134 700 357 96 106 120 
238 404 308 68 102 146 
244 386 493 82 122 167 
231 649 478 76 127 165 
258 241 386 143 140 142 
161 315 345 132 134 143 
135 480 418 81 105 142 
211 358 451 137 134 138 
342 368 505 179 148 113 
214 80 384 98 82 65 
134 641 436 33 47 77 
281 238 508 140 137 140 
281 382 362 77 106 142 
196 294 410 67 97 122 
195 826 407 168 154 146 
268 345 414 125 58 79 
342 724 417 185 169 158 
329 740 422 153 131 112 
295 460 331 125 139 173 
180 268 288 180 126 117 
151 521 369 160 160 175 
214 713 481 135 164 194 
280 755 456 130 138 152 
241 562 477 112 123 149 
319 422 485 91 66 71 
226 188 417 35 39 51 
381 303 564 150 158 172 
93 703 366 75 99 138 
283 890 422 145 124 109 
255 195 424 81 28 43 
199 657 283 88 140 190 
161 550 366 93 109 143 
213 813 331 163 139 117 
281 383 422 71 98 125 
290 388 303 98 123 149 
151 651 418 149 154 166 
363 753 393 176 161 151 
355 737 400 111 104 104 
214 370 321 145 161 185 
282 676 476 153 107 48 
332 195 495 135 52 71 
208 88 384 101 83 65 
161 317 349 140 142 150 
237 599 484 172 176 189 
219 652 283 81 147 202 
199 876 382 165 124 96 
51 740 399 146 146 204 
208 91 384 101 82 63 
343 367 525 84 103 123 
220 976 444 111 91 76 
244 922 339 66 54 50 
210 88 385 96 79 62 
224 132 476 148 68 3 
98 641 414 94 85 81 
217 867 439 123 96 72 
211 89 386 93 76 59 
250 156 384 106 105 115 
382 764 378 60 46 47 
228 285 289 176 132 93 
274 255 505 99 107 120 
209 767 458 105 114 130 
268 923 412 116 76 51 
215 471 332 151 157 175 
150 392 394 126 43 47 
123 672 359 87 114 165 
275 747 311 47 86 128 
353 709 407 111 27 42 
102 729 408 50 70 107 
284 754 456 228 208 195 
327 813 384 209 153 121 
204 811 332 190 138 69 
370 390 526 159 53 76 
134 497 417 53 82 134 
351 298 519 65 111 146 
294 277 508 88 121 150 
262 933 420 97 75 58 
317 197 497 111 43 37 
281 799 325 94 125 152 
157 352 375 162 139 117 
291 414 455 46 71 91 
152 368 424 139 125 113 
201 859 385 171 127 99 
332 405 503 75 116 148 
173 953 386 77 63 55 
149 789 349 60 45 121 
387 247 551 80 80 87 
214 416 451 74 91 118 
283 492 477 95 108 126 
302 610 454 64 64 66 
183 193 393 97 45 59 
214 88 386 93 77 59 
284 382 355 101 124 150 
188 157 392 55 70 85 
229 603 278 77 142 191 
250 548 474 65 90 139 
314 600 380 103 121 141 
221 1015 373 124 98 68 
62 715 419 99 116 162 
60 726 372 165 164 173 
388 353 539 145 49 58 
190 278 304 110 78 98 
317 457 516 112 126 149 
252 719 466 110 95 87 
279 891 422 140 118 98 
279 651 291 134 134 143 
265 188 470 74 40 40 
214 92 386 90 73 55 
356 357 541 82 124 156 
258 144 477 95 79 65 
210 162 408 42 55 81 
221 407 326 84 124 164 
180 770 326 103 35 46 
282 798 325 124 106 94 
223 661 284 188 184 191 
235 397 311 73 107 149 
349 353 519 203 179 155 
247 887 364 128 94 70 
246 540 467 38 66 107 
203 954 350 83 63 46 
325 565 425 107 120 140 
150 540 376 116 128 156 
229 136 418 122 77 61 
69 674 371 47 85 149 
256 152 495 66 88 109 
363 314 537 121 135 152 
217 82 386 99 80 60 
217 83 386 97 78 58 
383 624 392 79 116 147 
73 757 374 143 141 182 
181 444 459 119 124 138 
38 691 376 104 116 134 
281 495 296 117 131 149 
224 288 478 110 123 138 
139 803 424 152 125 108 
168 427 339 70 97 136 
196 231 283 156 51 81 
285 558 493 138 160 196 
279 641 467 155 114 101 
285 412 402 57 92 127 
230 621 481 84 118 147 
306 692 328 140 150 166 
267 142 492 124 102 82 
335 220 498 140 100 105 
184 607 379 74 77 81 
345 172 509 131 114 99 
244 532 465 111 118 132 
163 804 424 112 112 118 
368 187 574 141 55 0 
264 215 471 67 30 30 
368 738 397 121 120 131 
257 123 391 149 72 2 
391 304 547 100 107 119 
218 86 386 96 77 55 
266 236 475 98 33 32 
218 87 386 99 79 59 
308 316 498 74 110 140 
267 74 437 119 106 98 
259 251 370 152 148 151 
164 280 345 74 89 109 
125 647 426 67 115 150 
221 81 387 103 80 62 
121 659 361 80 98 117 
189 991 371 119 97 74 
296 746 455 157 105 72 
265 73 430 142 127 115 
201 816 335 186 153 117 
160 327 367 89 111 134 
309 469 452 122 128 141 
161 450 450 81 103 129 
300 620 329 79 100 120 
165 276 357 70 96 117 
327 806 388 199 149 116 
269 364 290 83 115 144 
228 516 288 156 163 175 
137 644 358 84 104 129 
321 369 494 110 34 60 
85 672 419 132 91 77 
148 447 379 138 68 12 
220 84 387 102 80 60 
332 620 452 168 118 104 
182 945 365 86 69 56 
209 958 350 118 87 56 
357 238 599 114 92 88 
220 87 387 97 77 57 
303 457 399 67 99 125 
282 282 494 131 68 3 
304 281 498 126 139 157 
387 642 369 40 75 126 
197 232 286 150 45 70 
253 896 385 121 90 65 
166 374 331 194 165 138 
296 522 363 148 147 151 
380 308 550 81 111 138 
243 910 347 75 59 45 
184 288 411 76 92 108 
41 673 423 130 99 71 
194 928 352 105 91 79 
234 462 310 76 109 141 
256 235 311 109 117 128 
330 455 514 49 74 129 
209 367 321 94 118 170 
332 289 505 122 136 155 
279 398 375 59 95 142 
123 766 415 100 111 127 
312 784 334 160 150 147 
373 642 435 127 101 76 
94 783 410 128 131 173 
161 646 349 54 78 103 
127 647 426 65 113 148 
177 945 412 85 68 56 
329 816 354 204 140 108 
132 443 429 120 130 147 
227 678 285 129 148 174 
245 779 317 160 132 104 
298 432 422 125 131 142 
252 882 424 147 107 77 
279 448 295 182 183 193 
111 662 374 36 72 127 
152 462 446 82 99 122 
217 93 387 89 72 54 
297 610 301 128 148 171 
188 654 308 80 104 125 
104 635 423 90 86 84 
117 646 452 179 122 105 
376 284 550 105 94 102 
360 443 518 159 143 132 
299 279 507 109 126 146 
260 208 350 128 11 59 
157 332 409 124 120 122 
216 340 480 110 93 113 
384 686 355 59 93 119 
227 968 447 187 136 111 
308 611 400 72 74 78 
250 145 422 62 62 78 
204 892 444 168 132 111 
265 891 418 157 122 92 
132 552 440 92 112 139 
343 388 537 159 163 174 
152 412 379 159 136 112 
221 88 386 96 75 56 
221 88 387 95 76 57 
391 271 554 134 9 64 
255 161 351 103 85 71 
262 165 481 94 63 56 
221 90 386 94 76 56 
188 969 423 132 105 88 
287 487 330 114 133 160 
205 589 355 114 107 105 
219 899 454 136 94 78 
218 436 329 99 118 149 
171 469 464 102 114 135 
374 266 576 92 84 113 
230 433 321 78 109 151 
368 659 362 71 94 115 
241 218 486 85 57 71 
265 295 364 147 146 152 
262 655 479 97 71 65 
160 633 381 73 87 103 
218 280 465 143 139 142 
191 466 464 160 159 165 
381 223 548 112 34 64 
269 569 283 105 128 153 
197 186 405 97 35 44 
220 95 386 90 73 55 
388 246 561 143 70 69 
363 660 349 126 128 136 
213 283 422 70 103 130 
240 662 483 79 66 91 
290 363 305 55 96 128 
83 767 375 136 137 187 
165 226 360 102 48 64 
184 215 272 84 137 183 
198 837 343 179 146 109 
269 309 359 114 129 147 
102 632 429 103 95 91 
274 350 368 135 142 155 
243 187 331 125 94 50 
362 242 528 57 44 63 
336 302 505 66 110 144 
318 499 509 102 127 186 
308 552 452 145 158 178 
244 490 472 143 146 156 
284 833 341 228 174 138 
339 411 533 136 142 169 
267 194 481 75 49 50 
171 568 465 167 160 162 
245 847 388 171 123 93 
95 742 366 96 113 135 
297 441 323 85 114 152 
159 751 331 155 167 186 
310 282 503 112 116 124 
146 678 341 118 124 135 
229 523 311 90 112 140 
154 333 382 161 141 122 
199 648 281 96 117 151 
305 610 455 69 67 67 
259 224 412 98 77 87 
268 210 510 126 102 87 
241 389 304 89 115 154 
169 437 452 76 100 127 
133 553 421 47 58 84 
403 725 395 161 57 73 
266 193 455 38 45 59 
257 207 419 40 47 73 
269 284 476 72 91 110 
238 785 319 159 134 109 
380 266 585 112 105 114 
187 916 367 113 88 65 
353 285 535 79 109 137 
129 702 364 87 110 133 
273 362 399 77 109 138 
285 756 318 125 110 99 
270 326 291 110 128 148 
260 267 395 123 127 136 
261 334 291 115 144 177 
159 341 366 132 51 68 
198 410 447 71 90 115 
322 303 497 124 131 141 
221 565 295 143 154 170 
155 634 374 57 90 121 
86 780 387 141 144 204 
259 150 494 70 87 103 
155 658 329 102 124 147 
153 714 333 154 153 161 
313 607 415 69 73 80 
359 239 604 150 117 112 
294 351 491 121 114 121 
107 801 412 159 141 159 
257 669 274 130 159 195 
147 384 411 131 130 136 
310 458 431 94 115 138 
226 535 295 68 104 155 
124 646 411 73 97 134 
147 641 355 92 122 155 
299 695 474 167 84 53 
274 210 509 114 90 91 
87 661 413 97 75 70 
199 179 307 103 58 18 
223 82 441 114 94 74 
153 479 356 118 132 156 
243 910 340 80 64 49 
244 359 497 170 171 181 
292 404 345 119 133 155 
249 164 402 129 87 64 
309 502 471 81 110 139 
193 819 412 109 80 108 
395 362 548 202 176 153 
293 688 311 119 143 170 
218 548 335 83 109 135 
297 234 496 132 45 52 
286 321 495 110 109 114 
212 165 332 81 55 47 
374 221 539 103 59 44 
94 751 366 90 117 151 
191 343 319 214 145 47 
353 163 534 117 81 72 
243 742 301 165 16 27 
176 298 414 69 93 114 
215 627 476 153 147 148 
311 600 441 150 145 145 
204 662 285 96 158 210 
81 649 405 100 90 82 
166 704 313 91 130 164 
227 258 293 133 129 129 
127 615 451 84 82 82 
301 362 509 134 146 162 
223 541 283 52 98 148 
202 854 386 176 132 104 
333 792 392 195 144 113 
223 85 442 116 95 74 
136 518 399 71 99 142 
151 355 391 163 143 121 
234 155 342 41 60 78 
108 667 369 25 64 116 
227 630 281 188 185 194 
222 926 454 164 121 97 
62 650 420 91 78 65 
199 795 433 178 150 123 
262 401 289 153 156 168 
266 146 464 115 58 5 
288 782 324 113 118 127 
353 165 542 153 61 5 
222 85 446 118 96 76 
388 697 411 168 185 209 
139 461 404 120 106 95 
296 667 478 76 89 103 
279 382 493 60 110 149 
316 470 497 76 100 128 
276 328 488 96 110 126 
151 431 432 46 62 84 
333 338 498 152 117 68 
136 470 409 72 95 131 
223 274 289 111 131 154 
279 627 298 132 137 148 
186 906 388 127 78 43 
313 465 516 50 77 125 
156 330 328 146 150 160 
270 330 441 97 105 117 
150 356 427 148 90 66 
125 625 439 88 84 83 
360 438 508 141 115 83 
358 625 427 103 91 80 
267 159 467 94 80 78 
327 200 493 141 89 86 
263 739 461 141 127 115 
203 247 408 108 79 63 
281 797 324 143 139 141 
165 473 461 88 104 131 
207 106 384 102 84 65 
154 370 344 136 106 111 
143 685 353 91 103 122 
195 572 357 139 129 124 
338 673 342 97 119 154 
265 210 464 67 39 45 
214 529 334 107 121 142 
266 24 391 115 71 66 
253 189 397 58 52 62 
239 681 282 161 142 145 
334 204 497 155 121 94 
358 661 444 84 122 192 
342 435 509 116 47 7 
185 162 389 88 65 63 
298 589 456 110 134 160 
221 191 442 69 45 58 
334 402 505 76 106 137 
315 163 498 42 63 83 
27 700 388 118 104 105 
195 127 385 81 73 65 
215 296 453 92 107 125 
312 464 428 66 95 119 
347 443 505 119 103 86 
268 284 307 132 136 145 
123 824 401 205 169 127 
321 584 409 98 115 135 
199 123 385 92 77 63 
228 755 457 130 114 110 
146 716 402 49 78 123 
181 700 299 175 175 185 
126 681 363 112 135 179 
294 667 309 107 134 163 
269 339 430 138 107 75 
305 473 392 92 113 135 
345 179 520 136 18 22 
273 359 465 97 101 108 
270 281 499 69 74 80 
162 318 424 117 119 127 
178 190 387 90 88 95 
197 126 386 87 78 68 
131 718 351 115 122 134 
161 299 366 132 129 131 
204 884 367 170 132 101 
233 146 432 130 39 19 
250 542 477 84 115 150 
188 442 459 104 122 147 
227 129 446 129 58 3 
27 704 390 97 85 122 
251 368 295 65 110 148 
113 807 411 85 77 95 
333 718 429 87 88 98 
166 637 406 69 72 78 
289 829 368 220 165 136 
296 443 466 40 67 87 
266 307 291 169 144 118 
179 169 379 102 74 63 
251 957 437 167 129 102 
273 307 343 144 143 148 
199 125 389 88 80 72 
236 428 482 127 142 165 
273 17 369 168 147 139 
146 608 452 39 48 56 
104 641 388 82 121 155 
173 249 328 135 80 57 
308 626 462 163 115 102 
259 476 478 92 109 155 
198 127 391 91 84 78 
385 274 565 62 84 111 
271 308 297 91 99 109 
276 751 313 149 133 123 
233 464 464 89 104 134 
356 300 546 116 116 126 
353 661 431 104 130 156 
310 243 501 61 84 104 
267 329 421 123 79 82 
143 610 446 56 67 79 
177 563 466 158 152 155 
203 116 384 101 83 64 
331 263 503 69 101 127 
140 451 408 120 108 102 
307 654 330 171 168 174 
166 395 427 60 82 108 
295 582 303 83 111 135 
175 621 479 137 100 91 
173 740 468 175 30 63 
313 469 440 122 131 145 
266 224 462 66 41 47 
204 112 384 104 86 66 
327 142 508 140 67 1 
306 193 493 107 55 45 
231 483 303 94 113 136 
269 348 408 119 57 78 
236 765 310 98 134 166 
279 911 416 168 131 92 
143 467 357 75 86 142 
290 500 478 104 122 150 
293 153 493 100 79 73 
130 758 413 110 120 134 
209 331 431 123 92 58 
376 712 348 135 145 159 
183 937 367 85 66 56 
291 517 479 100 116 138 
176 665 322 124 126 134 
195 166 293 134 93 59 
285 502 341 148 153 164 
230 568 477 134 146 166 
200 1001 350 142 107 72 
378 265 565 32 61 95 
202 136 399 123 58 13 
358 619 403 111 124 154 
226 411 480 99 120 156 
296 446 387 83 106 129 
209 428 331 113 123 140 
215 250 438 130 126 129 
326 710 449 186 155 138 
296 302 507 151 155 165 
342 413 529 160 73 103 
199 863 365 190 146 112 
268 269 331 121 130 144 
342 481 500 198 202 215 
251 149 388 92 93 99 
188 636 355 69 83 97 
354 295 531 158 156 162 
327 690 465 178 20 46 
207 1011 361 128 86 39 
238 654 478 58 65 90 
288 541 498 83 106 145 
207 861 393 164 121 94 
226 189 422 39 37 37 
353 225 535 130 37 22 
381 249 574 165 60 72 
353 742 344 94 76 68 
371 190 558 82 69 68 
216 901 456 86 51 43 
359 362 535 202 187 180 
358 363 531 205 184 167 
321 515 428 100 115 149 
172 680 446 139 143 158 
192 673 462 66 78 124 
308 651 330 172 170 176 
288 350 304 89 110 131 
147 452 373 131 115 101 
358 403 521 121 102 90 
253 195 404 49 42 48 
149 435 366 161 71 0 
139 822 369 73 29 90 
251 344 294 160 165 181 
248 268 292 123 125 131 
257 173 357 95 96 110 
298 610 305 123 147 173 
389 734 393 166 132 99 
119 643 434 87 73 78 
215 563 339 101 112 127 
172 475 350 105 116 136 
263 711 293 147 170 197 
228 277 480 113 121 134 
301 694 474 202 170 135 
150 603 452 74 90 114 
202 122 386 90 77 62 
192 148 346 92 76 62 
165 456 456 121 128 139 
203 122 386 89 75 61 
197 615 318 74 99 121 
201 123 388 84 72 62 
180 407 335 91 113 149 
180 329 318 112 148 188 
161 801 427 159 125 113 
203 226 300 113 79 62 
217 964 450 219 182 159 
283 344 497 169 126 77 
230 160 328 59 55 61 
219 779 316 144 126 115 
247 313 498 120 135 154 
407 716 401 155 179 208 
183 208 328 79 63 60 
147 672 342 103 114 131 
252 131 487 125 63 3 
392 684 424 162 184 212 
239 992 349 140 113 84 
379 770 367 160 145 138 
164 280 347 78 99 119 
217 468 457 165 163 168 
83 781 400 126 133 183 
260 563 284 182 179 184 
139 612 448 49 52 56 
311 490 472 118 131 147 
331 361 500 147 116 78 
137 764 352 78 101 157 
164 301 353 132 131 136 
171 838 361 214 165 115 
89 671 429 146 96 78 
160 380 327 230 191 141 
141 604 441 65 92 123 
160 313 307 163 163 172 
130 534 392 132 145 164 
165 276 294 157 77 92 
166 408 341 91 110 143 
147 409 348 178 148 116 
151 539 463 76 99 143 
308 350 501 84 101 118 
343 766 401 179 170 168 
186 530 464 111 130 158 
42 729 402 167 167 217 
94 636 423 105 96 89 
243 495 469 117 128 146 
238 518 461 112 118 131 
316 669 335 151 150 156 
228 380 487 81 121 152 
174 389 335 122 136 162 
233 204 322 87 54 36 
161 824 403 150 123 97 
223 150 453 63 45 57 
308 315 498 65 102 132 
206 120 391 78 66 54 
300 441 475 49 64 81 
197 632 295 76 83 101 
287 480 307 175 179 192 
233 524 462 98 104 113 
285 547 341 144 149 160 
297 421 317 88 116 155 
267 460 487 68 92 148 
67 704 371 150 149 158 
233 657 282 166 168 177 
429 675 406 112 131 152 
151 420 340 200 84 34 
176 171 368 117 57 67 
124 636 389 50 88 136 
197 827 406 132 98 78 
203 152 400 76 57 72 
274 793 423 210 151 123 
202 562 468 142 149 162 
288 513 343 122 136 154 
240 685 281 152 140 144 
135 472 415 91 113 138 
135 612 453 62 64 68 
308 455 441 160 157 161 
143 455 394 114 98 85 
393 333 563 169 172 182 
79 678 370 141 147 161 
252 866 374 185 136 106 
219 406 471 69 91 143 
289 465 361 129 141 157 
202 126 395 100 90 81 
202 127 394 100 91 82 
274 644 287 95 121 147 
254 364 502 129 148 172 
103 805 393 190 172 173 
228 930 453 128 98 72 
253 975 366 133 105 81 
276 444 490 81 106 152 
257 124 432 113 100 91 
251 820 331 162 115 83 
287 492 354 98 125 159 
301 428 499 54 78 122 
251 156 381 110 108 111 
287 528 336 121 144 170 
213 505 335 95 119 145 
172 378 422 83 97 117 
378 212 554 46 43 41 
357 643 361 89 97 107 
155 331 380 125 127 133 
223 553 324 97 113 130 
369 238 533 61 44 55 
205 866 393 160 117 91 
252 624 278 112 133 159 
253 199 389 72 91 110 
291 505 480 64 86 135 
196 976 356 87 67 49 
117 660 368 69 90 109 
287 644 464 137 95 92 
122 678 361 121 144 184 
163 249 385 113 21 54 
210 805 425 181 175 176 
386 319 539 179 181 189 
48 708 372 142 149 167 
251 267 494 85 101 124 
278 365 363 60 100 135 
280 285 494 121 67 30 
344 680 423 140 110 117 
323 532 418 140 144 155 
226 881 347 165 123 88 
128 653 360 90 103 119 
384 309 578 88 137 175 
226 176 422 53 48 82 
324 540 401 127 139 155 
237 643 281 178 175 181 
296 382 322 77 107 147 
243 315 291 167 74 93 
231 966 344 146 123 103 
212 328 306 178 83 121 
172 245 338 45 35 38 
283 570 289 93 130 162 
162 274 395 102 61 63 
387 644 409 105 89 73 
243 279 488 101 90 95 
310 710 467 166 71 40 
373 194 559 67 58 81 
249 878 422 139 102 72 
399 667 428 124 146 176 
202 285 297 148 161 181 
361 436 527 161 140 119 
166 720 445 103 120 138 
236 158 343 60 77 93 
286 294 496 101 99 109 
297 266 497 137 58 74 
240 571 280 185 184 194 
206 917 346 89 72 57 
211 359 453 133 131 136 
155 348 334 169 149 131 
141 445 438 115 127 145 
223 249 296 136 131 130 
401 676 430 116 133 182 
384 661 441 128 155 216 
236 332 497 166 128 82 
155 529 368 176 169 171 
392 370 549 194 178 166 
388 378 546 184 152 112 
176 172 367 116 56 70 
202 728 303 121 148 183 
246 190 487 59 35 45 
158 510 365 124 129 143 
289 599 286 149 149 156 
268 922 413 134 89 67 
246 308 496 139 144 155 
212 488 335 163 163 171 
282 410 482 67 76 91 
380 765 362 160 139 122 
232 544 275 131 151 177 
354 364 530 210 180 149 
298 319 498 86 125 158 
210 99 385 97 78 59 
210 98 386 96 78 58 
210 99 386 96 78 58 
141 427 412 134 74 22 
251 175 376 113 71 75 
218 558 469 111 126 147 
301 600 305 107 128 150 
281 418 492 94 120 149 
180 215 335 100 68 75 
194 910 439 175 135 111 
152 394 333 200 172 143 
342 200 507 119 106 119 
209 102 385 99 81 62 
182 480 340 127 135 151 
292 665 303 170 165 169 
68 750 375 191 186 191 
202 173 407 45 38 47 
201 936 453 118 103 89 
338 748 341 107 89 72 
213 989 427 107 87 69 
334 706 439 174 59 55 
214 335 472 92 114 136 
156 392 330 217 183 142 
281 549 319 145 151 164 
212 96 386 91 74 56 
253 990 377 103 80 61 
281 897 417 178 140 109 
238 997 399 68 49 39 
216 568 335 128 130 136 
330 423 519 39 75 113 
208 904 351 95 79 71 
165 741 459 132 152 175 
322 517 424 83 110 139 
250 774 445 190 189 195 
261 211 512 138 85 78 
190 338 316 206 129 15 
268 961 377 92 70 51 
133 546 451 104 112 126 
202 928 448 53 42 39 
202 160 320 132 65 11 
124 714 362 100 116 140 
136 709 395 115 122 137 
234 321 494 156 118 79 
294 191 498 110 52 55 
189 461 336 104 120 141 
348 351 516 145 85 80 
244 970 356 99 65 33 
237 474 466 89 106 136 
357 303 527 149 152 161 
368 702 347 130 148 169 
150 778 345 173 24 49 
226 233 306 84 103 123 
172 375 421 75 90 109 
284 628 296 164 166 177 
160 327 348 141 143 151 
380 294 575 105 68 86 
178 933 374 93 71 53 
251 254 300 88 111 137 
306 389 484 122 116 113 
179 194 292 148 62 0 
234 483 293 77 102 131 
209 104 385 100 82 63 
397 703 357 45 77 105 
221 174 320 103 46 30 
202 199 417 74 52 65 
150 364 393 152 129 104 
250 149 428 98 51 40 
233 224 312 79 98 118 
296 245 496 118 104 115 
374 244 585 130 57 72 
310 800 393 204 149 111 
174 482 347 111 128 147 
135 540 387 115 131 164 
111 645 419 47 70 109 
249 696 481 221 159 75 
205 354 319 146 132 124 
308 768 422 137 102 78 
201 154 338 113 90 65 
204 847 347 178 134 100 
198 1014 359 173 143 112 
196 429 334 134 135 141 
200 602 365 61 76 92 
289 885 428 147 126 112 
167 806 420 216 199 190 
193 983 412 93 75 68 
382 644 390 60 75 90 
254 272 294 140 139 142 
262 617 277 126 144 165 
193 983 408 113 93 75 
269 290 304 141 138 139 
241 464 475 152 155 165 
267 127 459 88 81 77 
147 635 408 45 81 121 
86 774 409 117 127 181 
211 110 385 93 75 55 
294 197 500 94 66 66 
166 282 339 85 113 136 
330 466 498 60 78 113 
211 111 386 92 74 54 
175 800 338 111 100 97 
262 964 409 98 75 67 
303 398 495 44 67 99 
393 701 409 123 155 186 
299 218 504 73 52 66 
394 637 383 132 138 151 
177 443 344 128 141 167 
412 664 404 112 91 67 
320 642 464 69 90 109 
313 715 331 91 63 78 
402 727 394 188 91 96 
179 551 354 95 120 154 
153 405 383 143 89 81 
385 243 549 80 52 72 
227 542 317 111 123 140 
214 106 386 88 71 52 
31 713 404 136 88 78 
253 985 369 129 105 80 
213 571 340 103 115 131 
322 374 495 87 91 106 
184 811 338 160 142 129 
213 582 285 95 120 156 
70 693 425 160 104 88 
266 161 492 94 67 32 
376 231 568 141 31 47 
284 555 331 118 133 152 
218 406 468 68 90 139 
129 697 365 82 104 141 
168 624 397 50 61 72 
205 702 295 88 133 198 
280 403 379 117 136 159 
255 218 493 88 52 71 
183 917 401 176 131 102 
288 127 510 123 96 80 
184 978 395 92 75 63 
344 732 410 147 123 105 
375 277 591 158 105 94 
279 928 422 145 117 91 
230 529 470 115 125 144 
299 746 324 133 122 116 
422 718 390 147 171 214 
378 267 544 113 35 73 
261 234 344 159 72 0 
355 611 398 97 110 126 
345 385 519 163 137 107 
158 300 316 71 112 147 
297 583 307 78 106 131 
279 128 511 125 93 65 
255 985 371 143 118 91 
236 712 286 86 127 175 
172 626 394 54 64 75 
272 358 415 127 79 93 
185 903 398 147 113 86 
358 196 531 79 41 52 
161 258 365 83 40 63 
233 378 312 70 103 155 
230 498 294 108 122 149 
301 358 509 130 93 124 
181 805 336 148 120 94 
334 291 501 102 139 173 
260 271 402 142 141 145 
190 825 341 192 158 122 
271 770 447 171 167 169 
349 634 400 45 60 75 
246 879 409 145 109 77 
232 409 485 120 140 163 
124 805 369 68 60 124 
200 326 418 105 110 120 
249 128 413 138 67 1 
120 640 431 75 77 91 
203 889 370 154 117 87 
176 956 380 79 56 46 
164 822 404 184 155 127 
77 696 406 101 112 132 
166 606 472 47 61 73 
301 652 321 126 134 148 
342 225 520 78 48 57 
316 472 518 99 121 186 
222 705 292 178 173 178 
288 288 496 114 93 89 
124 644 379 71 108 152 
81 708 407 115 120 132 
388 349 557 103 142 178 
245 872 393 166 125 95 
269 211 491 104 49 45 
233 804 425 206 148 126 
209 980 438 86 71 62 
223 96 385 85 68 51 
319 320 499 103 30 54 
178 249 402 100 63 68 
169 627 396 42 59 74 
217 257 291 135 132 133 
108 634 426 85 81 81 
286 489 323 96 127 165 
285 757 318 133 118 107 
176 481 345 160 156 159 
196 324 309 222 165 98 
332 212 505 54 37 42 
233 735 467 177 89 42 
425 703 401 171 191 229 
273 477 292 126 142 163 
382 307 579 64 115 155 
391 749 359 215 180 141 
221 102 387 86 70 52 
315 756 337 153 140 133 
304 488 387 67 89 109 
306 467 399 71 96 118 
319 272 497 117 84 94 
135 570 399 132 141 158 
257 432 488 87 116 168 
251 154 433 90 41 33 
165 324 417 107 108 113 
251 265 504 145 142 145 
299 503 486 83 99 135 
232 830 403 182 120 100 
386 672 430 71 102 168 
294 504 483 71 98 145 
259 204 353 137 62 82 
256 983 371 124 100 71 
258 662 485 105 80 60 
345 731 409 139 121 113 
284 646 298 100 113 129 
195 164 338 93 80 67 
347 667 424 120 154 186 
266 162 464 103 40 32 
236 202 322 77 58 53 
219 179 462 38 49 76 
227 671 285 170 171 180 
217 685 290 150 165 189 
286 507 311 102 132 167 
119 817 407 141 158 172 
243 1008 366 125 100 73 
204 205 308 101 37 24 
160 348 417 86 80 88 
292 777 423 203 148 115 
102 643 385 81 121 153 
217 109 387 80 65 47 
230 792 434 135 145 157 
233 769 312 147 120 102 
307 725 461 175 158 148 
311 795 334 112 123 136 
264 74 432 130 117 106 
159 836 389 200 143 63 
228 172 425 61 44 64 
255 244 503 96 96 107 
230 131 439 136 65 2 
235 738 464 172 91 46 
326 723 339 186 150 100 
133 635 387 89 115 143 
286 422 369 108 128 151 
134 558 454 190 183 184 
267 250 479 90 47 61 
362 309 548 109 102 98 
318 263 495 103 100 111 
182 357 419 105 110 119 
223 312 298 167 53 82 
80 675 401 63 80 96 
306 508 384 140 139 143 
194 252 296 44 51 81 
125 816 377 172 24 45 
222 105 387 84 68 54 
166 450 455 103 115 132 
306 507 468 51 73 113 
374 274 582 103 77 100 
284 394 456 74 86 99 
344 617 438 115 99 85 
341 188 505 113 99 92 
183 670 292 83 121 152 
339 438 518 67 80 123 
89 699 370 128 133 142 
175 953 399 74 52 48 
194 387 438 39 71 97 
377 265 559 33 51 95 
221 827 336 114 78 49 
211 911 448 178 136 115 
228 953 344 84 63 35 
222 108 387 82 67 53 
190 624 365 69 79 92 
146 402 431 98 95 122 
362 237 545 80 31 59 
288 399 301 157 159 168 
219 595 478 113 66 76 
276 391 476 81 69 77 
374 643 384 48 66 89 
223 110 387 81 67 55 
72 657 397 94 87 82 
265 20 362 184 165 156 
187 705 298 176 174 184 
176 186 348 61 77 92 
310 559 374 91 105 121 
138 464 408 120 102 90 
355 767 347 200 181 169 
264 937 372 66 54 50 
267 304 364 118 130 147 
360 314 547 127 137 151 
279 476 297 130 144 165 
371 242 592 113 88 96 
211 197 413 68 37 54 
166 725 316 114 120 133 
283 343 332 103 123 146 
276 833 375 206 149 119 
392 677 364 71 97 124 
280 637 302 113 116 123 
383 683 355 56 88 121 
316 353 501 110 48 74 
327 233 494 115 110 120 
300 500 380 94 107 122 
145 674 398 147 148 156 
294 784 326 143 132 126 
248 975 362 133 102 75 
212 959 452 207 162 142 
106 658 396 110 119 142 
225 944 457 192 150 128 
245 745 302 163 22 40 
245 629 474 141 132 133 
333 811 384 209 153 121 
357 448 512 174 44 92 
210 117 386 87 71 56 
280 912 416 171 136 100 
204 380 437 47 82 109 
243 495 468 112 124 143 
201 141 398 126 56 6 
290 471 314 123 141 166 
172 263 401 125 124 129 
209 118 389 76 64 51 
341 633 348 132 134 140 
215 557 340 96 112 131 
347 424 512 158 131 104 
372 400 533 187 157 124 
339 385 502 152 30 70 
122 819 408 182 147 118 
220 198 412 46 34 39 
307 500 461 77 96 141 
236 373 492 73 100 151 
252 881 420 142 108 76 
199 698 294 109 136 185 
235 297 289 133 136 145 
261 285 407 133 136 144 
246 960 441 188 142 114 
347 614 406 67 96 123 
269 322 443 129 128 133 
277 174 497 123 70 63 
221 208 426 76 38 48 
168 229 388 129 99 71 
227 404 483 71 104 143 
290 429 478 48 63 79 
267 482 481 168 175 190 
143 648 422 34 46 77 
165 284 358 71 99 124 
262 484 477 153 160 174 
361 747 345 53 79 103 
324 393 493 96 100 109 
199 884 381 157 122 92 
73 694 411 63 85 127 
222 462 458 103 117 144 
328 683 465 114 148 177 
316 600 411 141 134 134 
315 226 494 115 46 49 
211 146 404 116 76 63 
320 468 488 84 104 129 
214 114 387 83 66 48 
299 433 426 72 98 123 
160 835 370 193 161 130 
295 607 452 114 120 131 
130 828 400 169 151 133 
365 294 537 151 148 152 
308 405 480 105 92 81 
317 466 489 69 98 134 
174 209 274 117 81 81 
85 735 416 59 88 151 
200 277 409 126 124 127 
258 243 358 97 101 108 
307 457 414 147 146 151 
176 663 323 130 132 139 
274 644 469 150 108 96 
293 615 311 175 177 187 
200 602 364 61 76 91 
309 528 457 118 126 156 
267 158 454 95 40 41 
146 523 372 174 169 171 
293 410 498 103 119 153 
401 684 426 154 174 216 
191 580 362 132 121 115 
390 272 551 118 103 109 
232 887 447 124 58 65 
194 295 302 178 176 183 
178 384 433 48 76 101 
214 116 391 70 57 44 
258 164 441 90 35 34 
255 137 479 89 70 49 
309 791 333 115 101 92 
138 599 426 41 73 111 
86 639 444 111 90 68 
296 766 433 220 173 147 
168 777 445 140 120 113 
235 1011 358 145 114 85 
295 714 318 155 30 47 
218 936 457 173 137 114 
233 859 399 159 115 86 
230 1012 355 116 84 52 
432 678 390 114 91 67 
134 656 400 84 103 136 
312 810 338 181 127 89 
272 815 401 206 142 119 
180 201 303 108 118 131 
214 374 469 70 97 130 
204 433 332 153 151 157 
142 692 345 100 116 138 
341 276 510 131 115 117 
327 444 506 71 93 130 
58 653 413 92 81 70 
296 416 483 71 66 82 
107 667 372 32 68 130 
181 216 395 90 89 93 
164 258 393 67 98 123 
190 209 407 116 78 59 
337 296 508 80 114 145 
260 264 504 118 109 103 
265 505 476 72 97 144 
235 629 484 159 164 176 
205 623 481 172 120 114 
147 499 366 101 114 134 
291 406 497 90 106 143 
298 438 461 71 83 99 
269 287 442 110 120 134 
250 196 490 48 39 54 
178 701 453 137 137 146 
334 407 499 163 146 133 
290 614 468 66 72 79 
265 346 494 80 103 128 
272 422 489 69 92 125 
211 295 296 158 61 43 
306 724 463 158 127 123 
214 117 395 79 70 62 
223 544 280 156 158 166 
158 399 332 232 195 150 
318 198 495 126 62 58 
358 774 389 203 184 172 
281 397 368 77 108 149 
203 555 346 118 122 132 
247 606 478 128 147 170 
383 376 534 186 161 138 
265 253 316 153 151 154 
262 158 477 89 55 46 
212 119 398 93 83 75 
266 939 378 70 55 48 
367 764 389 180 160 144 
213 118 399 101 90 80 
232 520 461 95 102 113 
262 213 334 128 89 95 
395 659 431 87 110 166 
394 639 381 109 116 136 
271 352 423 123 64 83 
348 298 515 80 114 148 
250 129 417 141 76 2 
256 688 281 119 149 180 
160 303 401 89 109 130 
342 735 412 111 108 113 
251 854 347 213 161 128 
336 195 500 134 62 71 
246 322 291 186 91 105 
307 509 384 140 139 143 
240 197 325 86 90 96 
49 672 432 141 105 78 
146 544 378 112 125 143 
292 204 496 73 60 74 
202 544 465 136 153 174 
311 330 502 87 90 100 
153 328 384 110 122 137 
224 210 471 78 39 34 
209 121 398 92 83 75 
257 611 475 165 177 196 
164 612 480 131 97 86 
285 455 486 58 84 129 
208 122 399 92 84 80 
231 498 288 144 148 157 
183 215 297 113 94 82 
210 405 330 117 136 158 
199 882 388 161 123 95 
210 120 397 85 76 69 
177 345 324 163 159 159 
250 185 332 121 96 64 
165 264 350 101 57 78 
112 632 462 176 126 112 
41 719 414 86 117 178 
282 399 294 135 144 160 
139 444 416 120 107 94 
153 377 345 128 109 120 
370 239 595 105 90 108 
216 113 388 78 65 51 
267 128 493 143 104 77 
224 1015 374 104 79 56 
281 461 297 150 156 168 
259 246 354 108 94 100 
205 605 283 122 127 136 
318 367 496 107 72 78 
185 166 390 100 80 67 
345 363 519 155 148 146 
319 510 482 68 93 144 
322 425 485 143 61 0 
346 207 524 36 46 69 
135 633 416 44 86 132 
315 632 452 132 95 79 
218 113 388 80 68 57 
159 331 422 118 121 129 
256 175 434 37 56 70 
302 618 383 40 40 44 
164 695 432 104 110 149 
134 484 422 84 108 141 
397 705 408 119 136 158 
172 654 455 93 99 138 
348 628 408 40 42 46 
296 147 501 98 58 51 
219 114 391 76 66 57 
239 948 342 62 47 39 
215 484 333 149 152 164 
280 546 301 168 171 182 
308 273 500 118 93 100 
263 283 414 138 137 141 
152 338 400 164 142 119 
405 658 414 120 96 69 
165 530 359 89 110 151 
175 221 275 151 122 110 
346 696 421 172 96 87 
375 648 369 37 65 121 
346 297 507 80 119 154 
220 114 391 82 72 63 
255 415 490 84 109 162 
222 112 389 78 67 57 
281 298 495 107 105 109 
179 498 468 112 126 155 
167 572 464 160 159 165 
348 725 407 192 172 156 
224 193 426 89 34 37 
203 875 418 115 88 60 
290 430 492 119 134 156 
133 414 429 143 125 106 
222 575 312 103 125 149 
381 315 555 108 130 153 
232 158 429 115 35 22 
217 115 393 80 71 63 
190 179 330 104 70 46 
281 382 453 122 118 119 
217 115 395 90 82 75 
301 545 474 118 142 173 
445 683 379 89 109 131 
210 994 408 153 123 95 
316 734 333 136 127 120 
165 314 420 100 102 108 
347 627 446 153 114 91 
376 204 553 55 63 76 
395 680 363 93 104 124 
90 784 408 141 137 175 
332 644 461 109 133 165 
236 394 311 82 113 153 
346 158 532 157 72 9 
365 408 526 151 90 57 
316 673 474 84 107 132 
209 812 331 165 118 69 
342 698 424 131 56 72 
96 676 386 61 89 118 
93 660 421 123 87 76 
283 500 298 112 124 139 
218 115 399 91 83 76 
348 694 417 74 57 74 
333 468 496 70 101 153 
279 423 293 168 170 179 
304 490 388 95 109 126 
248 654 482 56 68 101 
62 677 438 165 116 91 
216 116 396 92 83 76 
261 140 500 111 116 125 
314 605 442 36 49 61 
180 683 453 122 131 149 
245 981 422 97 75 56 
144 701 398 73 90 131 
261 610 475 171 177 190 
375 417 531 237 195 148 
159 811 348 82 69 71 
209 191 313 46 49 64 
267 846 358 221 166 135 
345 240 516 127 33 37 
186 689 293 141 135 139 
256 133 389 116 125 137 
134 512 422 95 118 147 
147 789 350 130 143 159 
257 157 441 109 33 30 
165 298 351 136 137 145 
151 410 387 161 138 116 
137 521 411 99 115 138 
291 372 331 63 103 139 
187 828 344 86 80 84 
163 533 464 107 120 161 
175 252 284 127 108 131 
356 349 532 168 142 113 
210 407 448 62 87 114 
223 292 292 158 42 58 
358 212 524 139 90 54 
235 244 300 129 127 127 
255 394 495 111 140 175 
359 179 581 118 101 85 
418 694 409 96 114 192 
160 335 421 102 109 120 
147 610 470 115 97 80 
221 113 398 93 85 79 
89 652 410 87 81 88 
228 845 397 168 121 96 
238 884 350 127 92 67 
233 1000 402 106 84 69 
302 668 325 112 128 153 
211 341 312 181 130 143 
78 641 424 93 82 73 
154 730 422 81 90 111 
259 773 316 169 147 137 
123 787 365 162 169 184 
215 525 333 141 142 149 
179 289 414 83 87 96 
247 720 291 158 183 210 
321 536 438 133 141 156 
223 113 397 94 85 78 
327 421 489 139 85 59 
226 411 479 84 108 152 
244 856 346 198 149 114 
246 725 294 144 165 193 
210 934 338 88 67 45 
257 223 397 120 20 63 
193 251 291 32 88 131 
201 349 320 208 154 90 
84 637 434 99 85 72 
225 343 493 142 84 100 
257 446 484 143 158 181 
213 119 401 105 95 85 
153 325 394 108 120 135 
212 871 351 147 110 76 
267 340 403 102 120 139 
253 170 426 73 60 71 
71 662 444 154 110 85 
201 154 399 85 53 69 
392 341 543 146 155 169 
120 641 382 38 86 134 
257 241 371 94 114 136 
279 327 298 96 107 121 
213 489 458 159 158 165 
180 426 338 103 121 148 
370 619 380 58 108 144 
214 118 402 89 79 70 
305 567 366 126 132 144 
199 411 448 71 91 113 
156 732 433 139 150 169 
226 736 297 183 45 62 
215 386 467 70 94 136 
330 626 451 145 98 85 
140 652 407 51 101 138 
248 283 491 94 83 89 
294 720 317 155 48 56 
333 716 430 92 88 108 
387 254 549 90 32 47 
121 649 403 78 94 131 
207 729 303 169 181 200 
209 122 401 100 91 83 
172 794 432 147 122 108 
385 645 397 69 70 74 
264 392 289 107 131 160 
223 557 319 142 144 150 
156 383 355 140 36 58 
345 438 515 60 62 71 
349 183 520 157 68 12 
369 256 551 19 44 78 
119 683 362 135 156 193 
311 796 394 204 148 114 
238 288 487 95 112 131 
208 359 433 116 120 130 
173 935 397 80 64 54 
358 733 401 105 93 91 
206 822 336 175 149 129 
353 797 363 140 162 184 
332 308 498 144 147 156 
328 194 493 140 56 71 
157 353 342 156 119 103 
208 731 477 121 153 185 
175 929 376 97 76 61 
211 152 405 34 56 88 
207 562 348 100 115 133 
265 457 285 122 136 167 
296 148 505 92 94 99 
287 324 495 107 114 125 
376 642 384 50 67 89 
380 641 403 79 75 74 
230 164 422 84 34 54 
192 477 465 157 157 164 
272 908 422 133 103 83 
276 566 491 95 119 163 
272 634 298 130 132 141 
173 661 323 140 142 150 
226 934 339 57 45 35 
140 608 460 84 77 73 
240 168 343 90 48 37 
263 178 466 80 37 29 
235 951 453 183 136 109 
378 721 402 152 100 100 
352 621 433 114 97 81 
195 308 303 128 149 180 
307 140 502 125 66 1 
36 701 376 139 152 173 
219 303 474 122 16 49 
269 310 464 62 95 123 
212 122 403 98 91 86 
313 416 479 119 68 0 
225 861 402 152 114 86 
297 291 498 98 101 135 
177 672 304 90 92 104 
243 874 398 168 127 94 
364 243 592 101 86 94 
363 636 395 54 66 81 
223 1016 390 90 61 48 
408 671 422 100 122 177 
337 342 500 165 126 81 
160 697 328 113 125 148 
280 376 446 111 112 116 
238 948 452 184 139 109 
138 823 370 118 115 134 
59 749 397 223 219 225 
192 175 330 97 83 70 
250 545 478 51 85 140 
164 706 427 36 67 129 
284 416 480 60 72 93 
212 124 403 100 90 82 
316 240 497 67 84 102 
256 8 391 100 89 81 
212 127 403 91 80 74 
292 726 316 147 79 66 
358 405 516 164 133 94 
213 125 404 86 79 74 
276 836 370 209 150 124 
416 658 368 121 136 158 
132 781 358 166 167 175 
213 126 405 82 75 73 
303 457 490 42 67 99 
237 901 446 158 117 94 
219 503 331 101 119 141 
223 778 445 159 123 94 
299 697 323 143 155 173 
132 529 442 90 108 143 
439 682 390 110 87 70 
214 126 405 93 84 79 
271 266 467 112 108 110 
235 316 294 182 51 102 
290 217 506 48 77 100 
293 513 489 130 140 155 
216 116 400 89 79 71 
210 798 431 218 194 178 
205 839 342 184 140 104 
199 405 446 93 104 118 
268 216 443 103 31 16 
179 223 326 75 51 63 
216 117 402 90 80 71 
343 372 511 195 171 149 
333 393 494 91 118 147 
232 962 344 93 65 45 
119 693 366 122 141 183 
197 242 294 41 71 102 
218 116 401 91 82 75 
315 244 495 86 81 102 
165 273 348 120 43 75 
357 448 516 170 148 118 
221 600 480 85 124 155 
267 808 325 169 142 114 
219 116 403 91 80 70 
310 553 376 91 111 131 
332 397 500 83 105 130 
226 789 437 109 120 133 
200 632 309 114 117 124 
219 948 344 72 53 31 
332 418 516 53 90 129 
380 639 386 58 76 103 
237 996 407 87 66 54 
353 374 537 187 177 174 
115 672 382 63 85 115 
155 394 379 132 45 65 
184 290 302 172 170 184 
191 387 330 58 105 145 
347 331 516 143 151 166 
379 645 431 125 101 75 
196 996 376 106 86 68 
278 836 343 225 167 134 
121 774 361 166 170 199 
314 245 494 95 90 108 
153 727 415 79 103 131 
279 790 323 147 127 113 
289 662 477 140 122 108 
313 549 447 68 92 147 
219 118 407 86 78 74 
220 115 400 76 67 60 
156 303 395 138 138 144 
287 492 310 140 155 176 
232 147 329 36 78 128 
221 115 401 86 78 72 
163 780 337 82 60 114 
194 938 350 87 69 56 
272 761 315 133 122 117 
264 126 464 85 76 67 
107 699 362 68 128 178 
197 717 477 121 137 157 
348 759 344 130 105 88 
248 916 346 77 59 43 
299 578 315 115 114 119 
348 418 515 137 118 100 
360 720 346 108 64 68 
295 445 336 164 168 178 
141 483 379 40 82 138 
288 628 314 59 82 103 
