ply
format ascii 1.0
comment Created by CloudCompare v2.11.1 (Anoia)
comment Created 2/28/22 9:39 PM
obj_info Generated by CloudCompare!
element vertex 2013
property float x
property float y
property float z
property uchar red
property uchar green
property uchar blue
end_header
114 761 420 96 129 159 
215 640 471 130 91 104 
206 936 334 74 54 39 
109 726 361 64 49 96 
249 225 299 119 120 125 
159 778 442 191 149 87 
318 771 327 157 126 89 
280 789 316 130 127 129 
338 442 499 123 51 8 
58 675 444 159 114 87 
266 527 478 76 95 154 
118 625 467 133 100 82 
97 784 382 145 147 175 
308 504 453 60 88 144 
322 730 442 179 140 112 
198 317 298 218 159 67 
269 150 498 146 110 108 
158 731 438 134 149 169 
286 360 332 83 121 152 
345 385 494 155 54 88 
411 194 574 169 71 6 
186 624 362 60 78 95 
242 562 275 187 187 196 
396 630 378 96 110 125 
273 821 384 199 139 117 
293 373 310 78 106 137 
218 596 286 99 126 153 
217 201 468 97 33 51 
202 829 336 135 122 112 
238 988 404 93 74 59 
206 906 339 90 71 54 
238 603 475 114 121 133 
201 328 423 85 100 118 
168 705 318 101 120 142 
277 499 472 90 117 158 
252 510 471 106 117 150 
247 501 465 78 98 133 
215 830 400 171 113 99 
243 709 279 172 199 227 
165 930 385 123 98 80 
395 225 536 94 35 26 
267 542 477 116 133 164 
382 209 521 91 72 63 
204 94 342 110 85 54 
257 349 289 105 124 150 
307 184 507 113 45 61 
193 621 481 133 107 91 
330 696 454 181 25 48 
192 448 460 103 118 144 
42 724 412 156 164 214 
240 252 284 110 124 143 
313 473 411 134 138 147 
214 747 466 179 33 60 
244 712 470 202 112 34 
184 623 372 61 83 104 
82 671 445 166 111 89 
206 94 342 105 84 57 
130 641 447 116 89 82 
320 583 398 116 126 141 
148 662 361 76 102 130 
285 240 481 116 60 85 
207 95 344 99 79 55 
250 894 421 161 115 85 
259 303 365 78 96 115 
294 484 474 74 98 140 
164 640 465 180 128 120 
126 618 447 96 92 92 
419 694 392 118 131 193 
175 772 336 181 140 84 
227 869 423 124 88 57 
327 135 517 121 101 82 
306 483 484 79 102 136 
348 220 513 112 83 82 
382 729 385 154 26 52 
317 462 500 53 80 121 
161 235 374 102 72 87 
193 883 391 163 123 95 
219 581 279 142 152 168 
60 748 397 70 69 147 
261 283 361 129 132 140 
399 654 399 122 98 71 
300 599 332 158 156 161 
162 291 359 124 120 121 
242 160 400 77 58 66 
244 900 434 175 130 103 
292 514 346 83 110 135 
287 417 409 80 98 116 
284 413 365 106 120 140 
168 246 282 111 101 125 
157 600 391 75 95 119 
252 221 305 117 119 125 
209 69 329 141 99 68 
209 69 330 142 100 70 
267 260 305 82 95 109 
192 534 343 95 113 133 
266 768 441 173 168 170 
329 674 325 97 121 153 
427 710 354 151 168 196 
342 657 447 114 141 173 
281 214 498 118 85 93 
151 359 433 179 151 121 
260 554 280 111 80 76 
253 192 332 143 107 81 
352 386 511 177 148 127 
144 444 446 170 170 178 
354 756 384 147 132 122 
250 909 371 70 56 46 
245 208 388 31 64 100 
308 421 493 55 84 134 
321 532 390 136 141 152 
216 301 293 176 43 81 
277 625 296 111 134 158 
323 644 324 164 173 199 
157 379 433 131 114 99 
180 380 316 108 132 173 
333 776 394 82 106 135 
213 622 301 73 80 91 
277 197 478 107 38 43 
179 744 326 165 176 194 
210 775 317 143 129 121 
390 635 364 77 110 144 
180 191 384 96 50 61 
281 411 382 57 94 126 
387 253 532 29 38 72 
197 136 381 98 84 70 
200 884 437 143 113 88 
274 396 387 51 87 118 
350 330 503 135 141 152 
172 940 408 83 66 55 
272 804 404 209 148 124 
256 136 454 86 78 72 
170 416 439 38 65 107 
214 65 332 133 100 70 
214 947 452 192 153 128 
183 146 358 92 84 79 
209 689 292 113 150 188 
174 956 364 104 81 61 
372 349 529 108 134 162 
313 534 485 85 105 168 
298 415 481 63 96 143 
321 326 500 110 106 122 
327 640 447 69 87 105 
215 67 333 137 105 82 
411 202 569 93 109 127 
140 468 447 57 79 129 
290 405 302 96 119 152 
282 367 337 53 101 141 
269 448 280 146 156 174 
209 458 455 164 159 162 
155 384 355 114 116 133 
306 636 312 146 146 153 
200 984 426 90 77 66 
201 877 348 126 95 63 
368 269 515 138 82 98 
280 299 474 101 103 109 
68 648 443 117 94 68 
338 728 420 126 117 119 
236 662 275 95 124 158 
238 753 298 180 103 101 
309 467 461 33 52 77 
140 574 453 64 66 71 
265 176 466 83 35 38 
178 968 368 121 92 72 
215 69 334 135 105 84 
301 647 306 162 162 171 
259 177 481 123 31 62 
253 279 374 91 112 134 
181 954 429 157 124 102 
369 412 508 178 138 88 
179 413 443 87 103 124 
212 243 460 77 108 133 
208 72 330 133 93 69 
274 624 300 69 101 128 
213 603 281 91 119 147 
268 287 496 77 108 137 
176 917 400 156 112 87 
80 774 402 160 161 184 
400 213 544 87 52 84 
245 899 377 101 73 55 
281 385 436 95 100 108 
258 257 484 77 91 106 
309 320 508 130 113 129 
291 598 290 148 143 147 
265 332 446 122 120 122 
185 181 260 169 145 126 
214 260 464 121 121 124 
324 557 417 103 119 139 
258 179 481 122 36 64 
245 278 486 106 91 97 
194 651 299 110 109 118 
293 485 352 82 109 159 
342 162 513 85 71 81 
211 72 334 130 98 77 
211 73 334 127 96 74 
210 74 334 126 93 70 
254 693 278 98 126 161 
120 684 390 134 136 146 
165 261 392 71 100 124 
358 319 510 102 40 63 
210 655 283 140 22 76 
297 174 492 136 63 36 
78 664 403 78 86 98 
348 667 325 174 174 182 
301 555 458 113 127 162 
170 209 294 105 72 67 
392 378 521 173 145 113 
322 329 501 107 110 126 
322 605 422 65 66 69 
202 656 283 85 139 183 
403 682 343 120 129 142 
221 421 320 99 122 161 
310 568 430 114 127 149 
240 484 292 92 115 143 
307 421 494 63 90 141 
296 420 346 148 150 159 
184 214 405 61 82 101 
238 902 439 173 130 100 
215 72 335 133 104 85 
267 273 297 86 111 133 
134 497 425 97 114 144 
327 399 478 104 111 121 
200 809 332 179 147 111 
159 299 395 135 134 138 
301 697 313 145 146 153 
197 646 293 94 68 71 
294 164 501 79 66 70 
242 442 294 90 117 152 
255 284 289 152 153 160 
249 879 385 152 114 84 
359 231 524 141 27 21 
191 1010 383 181 154 131 
91 768 376 141 162 188 
320 286 502 103 106 125 
252 726 287 139 55 68 
218 64 335 131 106 80 
276 357 291 56 100 134 
188 230 270 197 110 71 
253 707 281 148 167 191 
277 569 285 107 132 157 
312 501 384 77 103 129 
432 682 375 109 90 69 
128 797 423 140 21 39 
268 145 498 117 103 92 
192 996 375 106 84 64 
279 307 333 144 145 152 
193 593 467 83 96 120 
256 266 290 91 101 115 
179 798 424 189 166 147 
229 923 442 120 87 81 
369 295 527 145 147 155 
209 76 336 121 90 67 
323 535 415 132 139 152 
157 596 463 96 114 135 
300 414 487 86 106 145 
328 787 383 186 134 104 
330 294 501 106 133 159 
233 989 413 98 82 70 
252 219 349 137 132 132 
261 312 364 157 117 69 
36 685 430 166 121 98 
224 190 304 84 79 76 
211 76 336 121 93 68 
416 665 370 72 77 93 
250 810 411 208 147 123 
357 442 514 122 107 94 
392 238 523 32 42 58 
250 913 361 83 66 57 
270 169 473 104 34 34 
269 225 496 107 82 98 
215 914 331 62 46 39 
254 539 466 30 61 123 
300 303 494 156 155 161 
266 683 467 146 85 39 
186 369 424 78 90 106 
327 343 495 109 51 70 
365 244 518 64 78 101 
382 180 537 100 35 42 
277 295 306 131 130 134 
177 844 368 128 100 69 
259 848 358 166 112 73 
148 602 409 67 83 100 
298 759 318 147 137 132 
192 163 330 92 81 73 
410 690 402 112 140 193 
151 783 347 164 34 37 
153 394 362 137 59 61 
118 755 354 112 121 143 
117 754 354 84 96 138 
298 264 497 100 116 135 
146 520 463 91 115 157 
317 567 374 114 123 136 
341 638 441 24 52 96 
299 239 502 143 141 143 
216 200 426 79 31 20 
160 500 462 102 114 134 
275 177 494 99 89 104 
206 314 425 127 127 131 
305 534 454 133 144 165 
356 617 373 61 107 141 
294 769 423 217 166 133 
231 501 321 88 105 131 
348 405 521 144 124 104 
229 261 282 104 135 174 
271 147 474 93 83 75 
166 308 302 169 167 173 
215 77 338 118 94 69 
290 415 354 132 140 154 
155 621 476 180 132 121 
155 726 420 36 60 101 
213 79 340 113 91 66 
345 690 433 103 148 184 
212 359 455 147 139 139 
384 202 530 85 36 35 
58 742 388 36 51 151 
375 325 532 106 131 157 
172 195 380 94 96 102 
367 629 412 123 101 78 
212 991 335 138 106 72 
285 815 324 186 132 94 
91 655 379 96 123 150 
254 408 283 124 135 156 
403 678 416 135 165 202 
181 624 376 56 69 84 
206 467 458 140 141 147 
247 208 420 90 37 55 
223 276 478 139 138 142 
329 695 455 205 100 105 
355 301 509 64 106 138 
274 281 483 100 59 62 
289 495 345 112 130 153 
220 488 329 156 157 164 
166 295 407 103 120 138 
208 297 421 106 98 100 
218 202 292 81 55 37 
158 786 344 176 99 79 
282 174 484 110 66 64 
291 131 499 136 114 89 
218 69 336 136 109 89 
304 388 474 102 104 109 
236 846 335 212 150 109 
286 823 366 198 145 113 
174 195 263 144 68 0 
261 140 498 105 96 89 
328 381 483 88 93 102 
208 625 312 93 98 111 
371 213 530 30 36 59 
357 437 498 116 86 44 
200 726 476 97 134 166 
266 741 301 147 117 83 
409 651 375 145 151 163 
392 170 547 120 64 0 
205 995 335 113 84 62 
259 400 282 153 154 163 
220 66 338 126 106 86 
66 666 377 136 146 163 
57 663 443 135 102 75 
219 520 329 152 157 168 
323 573 394 121 124 133 
314 476 485 106 123 143 
222 557 464 112 128 157 
221 67 340 120 101 83 
287 322 315 131 136 147 
135 756 422 103 120 139 
258 11 402 90 77 67 
249 865 364 178 131 100 
113 813 406 175 36 56 
322 341 501 113 114 132 
146 802 352 121 44 64 
165 775 445 176 44 87 
316 586 365 88 100 113 
119 726 350 110 120 138 
385 307 531 107 114 126 
36 705 387 131 129 168 
341 726 414 101 120 139 
243 159 369 132 100 75 
311 666 464 109 99 93 
289 709 461 150 83 62 
247 640 477 189 186 190 
323 445 504 36 69 120 
206 199 282 97 34 30 
202 152 387 58 71 90 
192 560 465 184 178 181 
171 632 357 58 73 92 
158 568 471 103 121 144 
357 613 395 89 108 129 
317 274 502 121 76 88 
410 732 357 198 211 232 
239 139 487 118 99 97 
228 688 280 101 142 174 
333 491 505 157 174 199 
189 325 302 187 142 88 
129 720 400 63 86 127 
47 672 393 62 78 93 
284 309 321 146 145 150 
284 737 454 154 135 120 
240 509 299 128 139 154 
387 644 405 121 99 75 
215 167 291 128 27 57 
244 206 367 88 68 53 
221 701 479 145 174 204 
109 632 419 64 77 92 
393 730 338 164 18 37 
216 72 337 131 105 85 
263 712 285 167 185 209 
49 685 439 168 121 96 
181 985 356 136 110 83 
215 132 466 149 62 4 
319 146 505 129 84 62 
205 729 306 166 174 190 
282 764 313 144 132 126 
392 753 361 195 86 66 
260 135 494 109 65 13 
422 302 556 105 132 158 
314 708 320 106 63 50 
357 658 439 78 117 202 
207 539 462 164 168 180 
295 181 504 98 55 63 
346 301 501 70 110 142 
353 389 512 141 58 47 
306 707 458 197 95 26 
248 510 272 106 132 180 
279 538 327 106 128 152 
172 954 406 85 70 60 
296 421 443 64 80 96 
328 668 457 123 142 164 
291 285 485 111 81 61 
392 647 391 107 90 72 
94 649 405 100 120 152 
263 587 277 124 141 161 
264 292 355 147 145 150 
248 820 401 202 135 118 
281 533 329 75 104 140 
289 518 336 137 147 165 
193 723 308 172 177 190 
244 164 423 114 30 22 
190 268 294 120 89 91 
166 566 466 136 143 158 
115 642 440 120 87 76 
221 601 272 93 157 209 
198 242 288 61 97 124 
296 421 467 55 65 76 
214 793 431 172 158 153 
180 559 353 189 183 185 
260 280 488 72 108 137 
238 293 289 102 113 151 
217 78 342 114 93 71 
282 450 304 55 96 155 
293 498 470 99 115 138 
267 535 283 133 136 144 
237 391 306 98 118 153 
274 820 323 217 152 115 
250 246 382 99 86 77 
377 739 334 115 71 79 
291 430 375 88 112 136 
276 614 464 172 125 119 
403 221 534 83 32 23 
200 786 437 167 139 123 
146 453 448 95 118 147 
283 486 473 97 109 126 
272 685 465 165 127 93 
219 78 343 112 91 70 
316 329 506 141 64 97 
241 952 341 84 63 49 
47 710 428 75 109 168 
267 500 284 99 121 148 
233 533 287 98 117 154 
210 594 353 108 105 106 
177 318 308 120 90 117 
167 949 388 78 66 57 
93 678 372 110 119 133 
244 741 455 189 150 117 
253 332 497 148 117 85 
169 400 324 66 108 154 
342 466 486 39 83 130 
112 672 360 109 131 162 
268 366 490 90 99 124 
174 271 285 179 108 102 
327 621 440 144 99 87 
223 739 296 172 38 56 
279 252 473 119 0 45 
249 661 478 76 58 102 
159 285 392 116 105 108 
195 712 471 119 145 172 
356 711 398 114 38 48 
288 522 333 119 139 162 
305 564 439 115 130 158 
256 275 368 131 128 129 
61 684 376 93 118 173 
338 145 514 152 72 4 
210 955 449 203 156 137 
223 74 343 127 106 86 
213 597 331 100 118 137 
354 184 519 115 54 51 
232 151 320 82 90 107 
308 457 431 127 131 140 
221 76 342 120 99 79 
377 674 422 129 155 183 
274 418 483 64 78 126 
162 459 452 128 132 143 
259 193 481 72 27 49 
162 702 336 85 102 126 
147 422 376 165 140 116 
373 196 521 79 79 96 
196 806 419 130 129 136 
272 421 488 122 138 170 
398 634 371 116 131 148 
180 416 445 143 143 147 
194 423 451 96 111 132 
367 269 514 136 75 96 
221 76 344 117 96 73 
429 710 360 190 205 229 
99 753 422 94 112 164 
349 342 506 129 128 135 
318 227 510 97 55 73 
245 159 362 128 77 71 
245 987 376 83 65 53 
278 380 432 123 120 121 
180 933 428 162 127 100 
119 638 462 182 128 106 
295 520 350 112 133 156 
187 228 269 204 120 85 
288 808 388 213 156 124 
255 293 421 110 122 138 
289 412 425 101 108 118 
284 668 288 107 88 97 
181 981 392 86 68 59 
337 426 500 139 115 97 
210 153 391 82 59 67 
314 447 470 64 67 76 
137 462 411 128 113 99 
186 166 339 97 87 79 
348 689 325 133 139 158 
235 191 413 81 47 53 
287 488 337 124 141 161 
219 981 338 117 91 57 
331 666 325 134 153 181 
205 872 401 135 101 75 
252 956 352 94 76 63 
274 917 409 144 97 72 
331 747 328 101 97 95 
234 782 434 198 181 168 
261 288 495 71 115 149 
89 688 368 72 94 118 
39 694 429 165 119 96 
195 359 422 80 94 113 
247 159 435 76 48 57 
319 496 421 132 139 152 
314 483 463 98 112 128 
297 391 472 85 84 88 
314 522 467 91 121 177 
168 192 369 103 105 111 
360 669 326 117 127 149 
325 810 374 203 154 120 
300 342 485 128 119 115 
263 242 494 137 77 48 
259 274 364 101 68 69 
344 685 441 126 159 189 
261 699 463 116 81 51 
211 82 340 109 87 62 
218 906 331 96 75 63 
223 493 327 90 115 150 
291 430 374 95 117 138 
287 495 468 83 93 108 
116 770 422 129 145 166 
191 707 469 148 163 182 
232 995 341 149 119 90 
49 734 402 177 176 213 
279 807 318 152 109 70 
301 214 508 58 92 120 
266 922 407 106 82 62 
318 588 378 88 108 128 
208 87 341 103 82 57 
145 622 423 53 60 67 
354 157 525 146 75 23 
191 196 396 111 37 57 
150 368 423 171 145 120 
132 631 467 175 120 107 
98 641 411 93 106 125 
262 949 393 75 58 48 
312 749 433 152 141 135 
310 430 478 30 60 96 
272 509 290 19 76 133 
183 336 307 154 99 21 
171 582 371 113 129 152 
92 693 362 93 111 131 
237 458 307 153 158 171 
158 347 342 137 143 154 
217 185 442 66 28 26 
314 497 388 108 123 143 
352 760 383 159 134 111 
201 649 282 87 134 172 
190 487 337 168 166 172 
212 81 340 112 89 65 
279 570 286 86 119 148 
294 692 305 133 156 181 
285 324 328 153 158 169 
357 703 327 151 160 174 
274 393 484 52 83 124 
385 217 521 133 56 37 
243 139 404 103 95 90 
184 951 353 78 60 45 
159 266 385 79 110 135 
287 225 496 128 13 57 
285 686 292 121 145 174 
208 480 459 161 156 160 
242 132 361 110 91 98 
150 441 445 115 128 147 
218 503 330 110 124 144 
278 614 276 115 140 167 
102 645 433 110 86 78 
296 178 505 97 51 65 
318 493 496 96 115 165 
290 351 323 77 104 137 
257 357 500 157 165 179 
240 465 301 103 125 150 
213 82 344 109 87 62 
168 554 471 112 144 175 
305 433 492 54 84 135 
223 718 473 90 141 179 
280 455 300 53 94 154 
147 648 360 84 116 159 
259 86 421 131 117 106 
59 687 376 79 109 167 
310 637 441 100 60 57 
197 175 311 78 76 76 
283 563 300 126 137 151 
87 707 411 77 94 124 
63 659 398 97 88 81 
150 732 417 107 121 139 
166 634 356 60 93 125 
228 427 463 71 94 139 
226 212 288 104 63 29 
199 145 332 99 85 81 
203 202 408 68 42 57 
217 131 302 110 63 26 
93 755 421 160 167 184 
315 176 497 122 58 25 
168 737 459 121 148 175 
140 449 393 119 88 56 
251 168 445 103 39 23 
239 271 285 120 141 171 
165 295 400 125 129 138 
280 270 472 132 68 5 
316 593 403 130 126 127 
227 204 478 36 41 69 
219 864 337 160 111 63 
296 468 364 86 111 149 
179 165 375 97 53 59 
195 136 343 115 71 52 
183 980 370 71 45 32 
329 683 460 114 154 189 
405 739 363 166 87 93 
249 246 396 72 99 123 
306 453 419 156 151 152 
208 90 342 100 80 58 
156 651 427 118 133 159 
209 90 342 99 79 56 
193 419 450 153 149 151 
270 278 446 92 104 117 
397 384 523 140 138 137 
210 88 342 103 82 58 
234 839 388 178 124 100 
210 89 342 100 80 56 
192 200 259 165 132 120 
160 329 411 103 119 137 
248 900 383 133 102 76 
276 446 483 143 155 179 
157 821 354 187 171 161 
162 651 340 64 69 76 
124 633 384 46 94 143 
215 823 406 201 149 131 
375 405 510 196 152 101 
111 626 461 111 91 70 
204 1001 395 136 104 70 
280 521 322 109 128 158 
232 784 313 172 148 127 
306 238 498 128 81 71 
273 651 284 93 114 136 
243 183 377 61 48 54 
176 522 347 130 141 161 
322 286 509 156 157 165 
162 452 451 105 117 134 
251 899 390 142 107 78 
305 558 443 97 115 142 
414 308 538 97 137 171 
178 577 363 193 172 156 
185 345 307 191 137 77 
333 342 491 136 105 67 
157 678 413 35 54 95 
254 167 451 117 34 21 
314 176 496 122 54 23 
229 583 296 108 130 156 
254 521 472 125 137 161 
269 916 401 138 99 70 
174 486 342 130 137 151 
117 736 351 95 121 167 
244 648 473 79 127 164 
235 597 275 90 146 195 
122 716 399 91 103 125 
270 22 393 132 89 71 
223 474 325 113 131 155 
295 246 494 129 135 146 
234 247 282 142 141 145 
258 543 475 67 100 153 
212 91 345 99 79 55 
235 308 491 71 98 123 
260 844 338 225 169 136 
130 806 367 160 28 45 
213 91 346 98 79 55 
253 834 383 189 123 99 
262 221 484 96 24 48 
181 271 286 165 115 113 
294 402 308 84 113 145 
356 759 331 140 122 108 
254 228 426 94 35 26 
280 474 302 150 159 175 
278 372 460 108 110 115 
314 510 468 75 90 115 
214 141 305 119 95 64 
269 288 346 134 141 153 
187 828 402 92 126 155 
351 147 526 147 76 23 
117 789 370 164 120 130 
403 247 540 59 33 48 
265 372 375 88 112 136 
260 901 402 144 105 76 
341 728 415 137 131 139 
257 535 474 148 158 173 
389 293 533 138 71 15 
210 598 317 86 105 124 
253 852 347 218 167 133 
91 677 392 92 112 137 
289 578 294 86 117 143 
301 586 440 129 141 158 
277 623 464 75 65 80 
297 461 363 164 166 176 
198 1011 365 184 148 108 
320 515 401 101 121 144 
227 1014 366 136 107 76 
226 907 330 104 77 50 
310 205 501 94 77 97 
326 618 380 77 94 113 
413 336 549 175 180 194 
259 128 478 124 102 86 
232 441 314 84 117 155 
255 146 455 125 59 2 
384 246 533 28 34 52 
245 175 321 97 88 95 
291 405 305 83 111 152 
199 150 321 105 84 57 
154 290 376 77 113 142 
264 544 478 93 121 165 
113 754 418 59 94 133 
387 309 523 131 150 172 
259 149 494 60 91 117 
218 461 327 155 157 168 
306 412 469 99 66 57 
166 248 285 83 98 127 
50 677 380 38 73 107 
154 379 435 116 99 85 
219 81 347 105 85 62 
154 628 392 64 75 88 
317 751 327 147 111 65 
367 667 424 116 145 174 
269 385 392 80 104 128 
166 687 431 76 89 145 
217 166 292 126 37 51 
180 344 309 120 74 17 
216 84 346 98 78 54 
113 715 362 46 77 119 
172 969 391 95 78 65 
306 693 316 151 162 179 
266 743 301 130 112 102 
225 552 278 111 131 162 
129 689 394 106 112 140 
323 759 413 158 147 142 
231 676 277 169 166 171 
172 765 334 74 64 116 
136 634 373 83 115 143 
223 317 298 138 142 167 
196 400 441 81 98 118 
251 820 323 179 127 89 
420 304 550 80 113 141 
313 616 374 72 75 82 
266 301 489 98 116 136 
178 806 416 152 117 80 
159 336 328 110 130 153 
307 321 506 115 107 125 
270 388 284 53 92 128 
294 572 306 127 130 136 
238 884 436 152 122 92 
273 933 409 141 110 81 
317 402 478 36 64 84 
307 467 381 78 107 136 
368 418 518 157 90 38 
192 659 294 72 107 135 
324 441 473 123 108 94 
188 186 332 109 58 8 
87 769 381 86 117 185 
220 83 347 102 83 62 
183 820 405 177 95 111 
396 217 538 33 50 86 
341 230 507 108 80 86 
205 142 307 149 52 0 
316 570 370 90 103 119 
276 676 465 128 70 36 
298 421 467 54 67 81 
265 309 445 70 102 129 
351 338 506 147 140 139 
160 309 343 81 76 97 
85 712 417 69 82 117 
281 635 298 107 108 114 
229 731 467 144 57 75 
292 479 343 139 154 180 
314 415 478 34 47 68 
209 612 341 71 96 118 
200 944 339 106 83 59 
260 907 388 100 68 43 
250 222 357 131 129 131 
266 937 415 119 100 81 
286 393 454 78 86 96 
242 147 407 119 43 43 
147 652 363 95 114 139 
307 186 499 91 45 69 
352 740 329 102 20 31 
326 791 381 193 140 113 
281 642 294 116 121 129 
157 629 383 63 74 89 
365 169 523 114 94 84 
221 196 299 84 76 70 
65 670 447 160 115 89 
358 382 514 194 166 136 
249 235 384 71 97 120 
164 247 388 112 22 52 
23 681 410 157 110 86 
189 492 338 187 180 181 
254 977 369 118 92 68 
410 343 533 171 176 188 
278 775 431 209 152 124 
194 588 467 75 125 164 
329 651 324 94 122 169 
113 793 374 164 178 199 
359 174 522 113 63 43 
302 159 489 110 96 86 
178 185 381 86 77 90 
300 576 314 110 127 146 
390 736 379 179 109 122 
422 286 566 170 52 90 
395 363 527 139 11 52 
217 89 347 103 83 59 
195 628 480 184 135 127 
173 402 323 44 83 139 
342 462 489 62 90 126 
180 447 336 116 128 144 
165 235 320 123 56 70 
217 88 348 102 82 60 
186 984 385 72 52 43 
137 498 380 90 121 160 
320 460 475 80 77 117 
257 529 280 111 137 166 
241 848 381 177 132 102 
304 656 459 73 76 92 
204 383 319 50 99 148 
52 677 378 60 92 122 
242 161 407 83 32 38 
267 217 459 39 36 38 
253 963 413 128 99 84 
390 200 528 78 55 41 
262 356 420 134 108 78 
392 244 532 51 39 65 
330 434 486 150 79 55 
197 434 325 162 160 166 
269 817 391 202 140 118 
184 982 379 86 60 43 
324 212 508 95 71 76 
77 640 443 107 88 68 
314 480 463 102 112 126 
264 340 439 123 121 125 
204 872 412 108 77 47 
228 211 290 98 76 69 
90 689 367 68 94 118 
147 420 404 156 131 104 
296 426 353 152 155 164 
169 664 441 98 110 168 
303 661 464 86 74 67 
168 231 347 110 47 57 
258 354 388 67 95 120 
369 376 519 191 185 187 
270 383 410 64 83 102 
279 518 471 89 109 137 
193 244 405 102 42 14 
78 667 375 116 135 166 
321 554 421 132 139 152 
203 544 340 118 132 156 
403 365 540 133 153 177 
38 719 410 97 123 194 
342 620 369 79 111 138 
249 763 444 195 173 157 
269 254 328 112 122 136 
358 623 418 125 104 82 
298 832 347 234 173 136 
166 444 340 63 84 142 
204 881 438 152 119 98 
260 919 379 95 70 48 
223 90 350 101 83 65 
190 601 474 79 71 68 
300 312 489 146 149 158 
191 482 466 177 171 172 
292 407 305 77 107 149 
68 706 427 94 107 151 
160 381 430 126 111 97 
188 344 414 102 107 115 
86 781 408 144 156 194 
267 354 436 126 106 88 
184 204 329 74 50 52 
335 202 516 51 56 90 
277 287 329 90 104 118 
31 711 412 111 148 206 
252 704 279 136 159 184 
83 674 426 136 94 81 
154 648 434 93 108 158 
230 297 486 98 109 123 
196 173 317 89 74 62 
332 153 509 124 82 66 
148 407 384 124 68 41 
149 595 403 128 128 134 
150 555 379 90 110 140 
309 314 509 117 60 76 
172 798 424 108 104 108 
281 370 474 122 125 133 
315 340 494 121 130 149 
284 515 325 106 127 160 
304 801 324 156 135 115 
223 95 350 104 85 65 
281 613 278 124 141 162 
192 64 353 121 98 76 
351 655 444 132 158 212 
148 407 376 169 145 121 
362 626 361 85 111 135 
305 296 503 127 136 149 
166 942 381 95 78 64 
193 64 355 120 97 77 
298 249 500 136 142 153 
205 547 463 115 137 161 
165 373 416 94 69 63 
303 443 445 118 116 119 
357 737 330 143 89 29 
273 139 479 141 107 85 
302 456 371 115 132 152 
239 463 303 75 101 152 
188 855 361 200 152 116 
151 477 455 98 120 147 
296 289 491 108 99 100 
110 707 365 66 89 118 
329 337 490 120 104 85 
273 929 408 125 92 74 
151 544 468 88 108 131 
276 441 290 113 139 169 
275 445 484 151 163 187 
175 290 293 142 82 107 
279 409 378 70 101 130 
250 410 286 126 134 146 
251 377 290 112 129 152 
132 534 413 96 116 148 
157 540 362 128 139 158 
257 296 429 82 73 78 
421 291 560 120 80 98 
194 67 357 122 99 84 
321 424 473 89 83 79 
144 795 432 159 61 82 
189 180 309 75 69 66 
280 557 303 145 147 155 
195 67 359 124 103 86 
252 197 340 137 84 76 
253 736 453 129 99 77 
289 359 482 115 129 149 
203 872 418 113 85 58 
226 165 417 79 34 59 
292 526 486 126 140 164 
176 201 344 59 79 97 
296 674 470 94 127 157 
251 248 412 79 99 118 
192 71 353 123 96 79 
180 699 306 172 169 175 
233 947 337 64 50 36 
95 708 360 125 139 184 
120 651 364 91 110 129 
275 284 330 77 118 149 
152 739 334 76 100 141 
347 407 507 131 97 60 
69 689 434 162 107 88 
259 257 359 87 116 141 
203 871 428 135 106 78 
157 398 338 190 164 138 
313 481 463 110 117 128 
194 69 357 123 99 84 
194 68 358 122 99 84 
236 310 493 146 116 79 
328 213 511 100 65 59 
96 647 408 61 90 149 
277 765 442 137 128 124 
280 385 434 103 107 115 
256 552 280 198 195 202 
272 412 488 87 104 150 
194 71 356 124 100 82 
271 287 450 123 119 120 
304 824 368 216 157 123 
161 473 352 105 116 164 
137 506 448 107 124 152 
195 71 358 123 102 83 
293 429 413 70 92 113 
196 68 359 124 104 86 
308 484 381 73 104 137 
232 562 311 106 127 149 
292 683 299 154 161 177 
200 217 278 121 68 79 
188 627 480 197 142 138 
301 227 494 129 40 58 
212 194 453 124 36 17 
195 594 364 65 89 113 
231 469 456 82 99 131 
312 602 425 47 52 58 
279 299 306 147 145 148 
336 438 513 58 82 143 
222 316 484 110 114 123 
209 235 435 125 121 124 
165 233 386 129 92 68 
315 618 353 88 95 106 
251 719 462 175 100 33 
216 650 469 164 106 98 
251 149 487 60 89 113 
232 986 421 90 72 60 
322 642 453 95 115 135 
224 222 281 86 109 133 
162 299 306 86 124 154 
294 559 468 154 164 181 
408 224 543 102 25 53 
269 287 345 120 134 151 
218 513 465 125 141 165 
152 660 356 67 88 111 
167 676 432 124 131 150 
115 648 371 100 115 132 
282 832 333 229 173 137 
342 163 515 63 53 74 
189 229 271 199 112 75 
146 615 430 54 59 66 
231 441 462 63 89 134 
244 442 288 149 153 163 
277 288 330 92 70 75 
398 249 524 118 87 96 
145 608 466 89 79 72 
251 246 378 119 118 121 
412 212 567 89 66 56 
198 907 351 83 69 59 
340 446 508 42 73 142 
153 409 440 88 102 128 
103 630 455 112 92 71 
227 146 306 31 63 92 
214 366 464 101 114 134 
153 685 408 59 102 135 
179 800 338 127 109 94 
408 234 534 115 39 28 
241 885 434 161 127 95 
342 372 494 105 115 128 
262 954 373 97 79 67 
368 279 525 92 116 144 
225 217 283 93 109 124 
330 750 328 116 100 87 
99 799 409 187 206 230 
199 68 365 119 100 82 
287 537 338 103 116 135 
327 166 509 36 65 90 
65 647 421 103 92 82 
157 523 360 125 133 152 
339 732 414 191 163 155 
317 503 435 159 157 162 
315 277 502 115 91 92 
143 744 419 124 134 148 
265 205 462 35 49 68 
321 423 475 86 80 78 
195 624 316 145 146 153 
159 718 328 104 117 134 
165 219 354 115 45 59 
127 653 401 132 136 146 
159 638 465 182 129 119 
238 310 492 146 118 83 
222 933 337 71 51 36 
94 682 368 58 84 107 
63 708 429 111 138 176 
165 422 438 55 85 115 
207 285 417 66 97 123 
77 698 418 130 142 163 
412 278 533 140 16 71 
103 625 449 105 89 74 
205 232 283 87 66 70 
159 571 372 193 182 179 
312 802 327 187 160 137 
322 578 415 124 139 158 
146 397 411 168 144 121 
200 718 473 114 136 159 
282 510 319 111 141 176 
290 518 339 121 135 153 
217 224 469 107 53 74 
195 72 358 124 104 85 
272 814 319 183 130 87 
63 646 433 99 83 68 
302 491 480 67 91 132 
322 460 486 87 104 133 
217 938 453 184 146 123 
69 689 435 164 108 88 
304 802 324 156 142 130 
284 305 320 138 138 144 
169 667 437 94 111 157 
194 791 330 149 119 91 
229 523 324 98 113 133 
295 812 378 212 152 117 
121 718 351 83 99 124 
331 686 324 69 79 112 
390 308 529 120 121 127 
324 568 394 121 127 142 
284 369 476 105 112 125 
356 341 510 150 139 139 
122 696 362 92 113 139 
322 377 480 104 76 68 
226 967 342 145 110 80 
164 648 349 43 55 67 
210 870 438 156 120 101 
209 240 441 132 129 131 
345 182 513 152 69 11 
248 199 426 33 51 71 
192 593 467 82 113 139 
87 702 408 96 109 129 
369 331 533 126 147 172 
289 707 462 175 98 49 
166 598 382 72 81 90 
203 175 271 139 89 39 
106 729 410 95 104 120 
211 860 396 162 127 97 
267 586 277 128 142 160 
160 537 466 98 111 147 
142 440 421 118 103 90 
256 148 491 55 78 98 
182 999 365 146 119 90 
142 523 377 166 164 172 
240 811 321 86 124 155 
243 554 470 106 122 149 
321 579 395 87 107 132 
366 627 411 116 97 79 
312 479 394 109 127 146 
150 712 409 75 91 129 
42 724 397 145 170 199 
209 233 451 75 98 122 
270 385 408 67 87 105 
87 773 384 133 159 191 
186 178 272 123 101 88 
196 77 359 116 96 78 
237 484 308 98 119 145 
271 429 488 125 149 182 
78 679 437 159 107 87 
248 891 423 162 115 84 
264 940 385 84 70 60 
373 285 535 122 119 119 
342 273 510 141 138 143 
188 275 407 74 84 95 
209 130 391 106 79 47 
98 642 383 111 133 156 
141 505 376 95 105 130 
160 243 358 41 62 86 
153 407 348 129 136 149 
111 630 416 62 83 102 
169 195 376 76 100 121 
173 218 388 99 63 73 
197 75 361 115 97 79 
68 643 436 100 84 68 
411 213 560 60 85 107 
248 915 355 84 68 56 
390 729 381 88 40 116 
371 671 331 127 128 133 
165 370 417 98 27 53 
212 872 440 170 130 113 
393 341 538 105 140 170 
195 685 461 94 114 151 
326 807 376 200 148 115 
300 454 368 126 140 160 
290 460 324 144 159 180 
369 689 328 65 92 137 
195 153 384 86 97 108 
180 673 323 112 109 112 
220 397 469 73 97 146 
198 74 364 110 93 76 
230 1006 384 127 98 75 
418 313 557 124 64 85 
184 381 317 49 102 160 
445 696 359 135 164 211 
300 140 497 128 65 10 
199 74 366 109 92 75 
415 274 563 114 71 96 
232 130 301 136 106 100 
158 629 377 65 78 98 
161 792 344 140 105 94 
265 368 371 95 117 140 
255 323 419 91 107 124 
297 391 320 68 99 142 
210 225 453 107 60 77 
232 573 297 119 136 155 
197 77 363 113 95 78 
221 872 339 198 140 97 
196 78 361 115 97 79 
184 282 408 87 94 103 
179 801 422 153 131 115 
268 269 491 119 127 141 
125 637 463 182 124 107 
310 403 471 85 94 111 
418 210 597 165 69 5 
208 617 347 64 85 103 
186 890 404 141 110 82 
417 328 538 169 172 181 
222 255 474 70 106 137 
399 216 528 94 50 26 
316 560 374 113 121 134 
319 655 325 47 58 73 
143 624 473 181 133 121 
198 77 365 111 93 77 
354 750 385 180 165 156 
288 502 341 95 118 147 
94 713 411 121 121 132 
95 666 375 26 79 121 
287 630 304 87 88 96 
317 472 491 59 90 132 
198 78 364 112 94 78 
292 608 301 124 147 173 
329 171 511 37 42 55 
162 264 295 159 120 99 
269 323 294 125 135 149 
86 644 424 102 91 83 
110 715 402 131 136 147 
242 561 275 184 184 193 
264 247 438 89 65 74 
206 332 435 148 117 86 
212 771 315 144 123 103 
394 235 534 93 29 35 
141 738 347 152 154 167 
165 222 293 88 85 91 
409 717 384 168 196 229 
400 655 378 79 73 67 
200 67 365 117 98 79 
347 436 508 58 81 130 
386 760 356 186 163 143 
256 266 425 129 127 131 
191 340 414 104 109 118 
262 196 462 71 42 34 
389 645 406 121 97 70 
393 198 541 137 24 39 
168 286 405 123 130 140 
87 706 410 56 77 116 
180 311 306 127 142 167 
336 397 481 165 152 143 
237 629 277 148 153 165 
144 623 411 58 72 88 
327 714 447 146 82 98 
207 262 285 167 153 155 
385 285 523 149 139 138 
224 1012 354 149 116 80 
238 214 298 132 125 121 
295 467 360 71 101 152 
290 649 458 85 108 141 
200 73 367 108 91 74 
227 235 479 81 111 137 
178 367 419 101 105 114 
283 311 328 153 151 155 
155 338 403 148 120 95 
299 444 382 54 88 130 
165 257 334 83 86 98 
342 377 494 114 121 132 
189 145 377 123 57 5 
346 618 431 139 110 85 
310 530 473 174 184 201 
251 857 355 182 133 104 
344 618 403 41 59 74 
290 612 306 168 170 180 
258 149 493 56 88 113 
247 210 416 89 33 49 
176 596 466 69 110 143 
239 469 303 145 151 163 
203 64 370 110 93 77 
319 523 386 110 126 146 
338 207 509 122 112 112 
202 66 368 111 93 77 
219 556 334 136 134 138 
242 136 378 55 58 80 
351 222 520 116 49 40 
138 545 458 93 104 126 
110 667 362 109 122 138 
203 66 370 109 91 73 
207 295 292 157 37 50 
166 939 382 81 67 55 
245 724 463 202 87 25 
201 70 368 113 95 76 
68 662 449 148 108 83 
325 304 503 128 149 173 
402 739 371 165 57 85 
307 717 454 186 100 44 
299 463 367 172 171 177 
271 711 290 152 172 196 
315 549 428 178 176 182 
348 674 423 114 150 183 
225 752 300 172 59 42 
274 736 302 170 69 63 
230 295 486 92 108 125 
292 567 312 117 127 139 
391 262 521 135 20 44 
203 71 369 114 95 76 
270 337 291 138 146 159 
141 823 370 175 161 152 
295 421 442 60 79 97 
243 891 368 129 96 71 
194 171 274 79 61 30 
334 497 481 112 132 155 
159 315 345 149 146 148 
329 639 324 57 94 154 
227 591 301 100 119 139 
176 293 414 59 86 108 
294 555 349 119 120 125 
193 793 331 148 132 123 
241 460 468 90 105 143 
358 638 432 109 113 123 
148 608 415 42 57 70 
244 184 357 88 76 93 
313 558 370 89 102 121 
148 419 399 165 142 119 
271 529 473 84 102 151 
400 313 528 157 161 171 
166 414 328 72 116 158 
307 144 503 135 72 30 
217 667 285 178 178 187 
410 195 571 163 68 11 
152 411 350 180 151 120 
220 766 309 83 89 104 
161 667 425 119 131 158 
190 507 342 123 134 159 
300 556 462 137 145 166 
272 537 295 167 171 182 
186 475 336 168 167 174 
244 150 425 115 80 60 
266 574 475 84 106 159 
204 68 371 110 91 74 
117 817 397 159 3 47 
243 177 379 112 38 55 
280 477 477 116 128 152 
262 285 357 133 139 151 
245 147 330 81 85 92 
125 779 427 133 155 179 
107 762 362 158 159 170 
309 398 472 118 107 107 
397 721 385 126 142 175 
201 500 464 84 104 135 
153 373 419 163 138 112 
189 329 303 184 135 81 
253 296 376 113 125 142 
318 153 505 65 83 101 
272 604 275 121 144 172 
255 807 412 208 147 123 
246 158 434 82 48 61 
177 320 309 89 76 100 
312 664 460 76 68 82 
201 435 453 105 118 140 
224 970 439 168 125 101 
132 767 428 118 121 131 
204 152 388 65 66 82 
285 605 282 156 158 167 
89 661 426 125 88 77 
154 716 414 38 64 122 
283 235 478 90 70 68 
152 668 341 84 99 121 
149 424 363 158 80 30 
237 488 458 56 77 114 
385 173 544 159 63 4 
163 671 425 110 125 154 
224 386 482 106 121 149 
113 808 385 77 68 119 
262 272 434 130 125 126 
397 716 338 137 148 163 
365 691 413 105 138 167 
272 344 456 106 105 108 
410 654 359 53 99 133 
275 333 344 101 121 146 
202 73 369 108 90 73 
237 908 344 85 67 54 
270 834 367 210 153 125 
215 156 453 94 41 34 
305 546 361 99 119 141 
138 645 415 48 98 135 
222 584 471 126 142 161 
409 210 592 155 67 11 
266 338 445 119 116 117 
272 305 459 124 118 117 
202 75 371 105 88 73 
164 243 347 47 38 56 
371 202 520 92 94 98 
238 675 475 115 114 123 
181 971 365 108 85 64 
295 438 402 89 107 127 
239 399 303 85 109 154 
222 710 475 85 137 177 
256 247 296 114 107 105 
274 534 471 55 85 137 
201 76 370 100 84 69 
243 140 346 140 114 87 
339 458 492 84 79 81 
409 223 586 102 78 95 
185 935 440 171 138 113 
240 389 301 98 115 148 
343 735 405 160 140 125 
166 278 410 103 115 131 
327 335 494 130 122 127 
257 935 413 86 66 48 
410 356 538 206 184 166 
288 705 300 137 147 156 
177 678 329 119 118 121 
312 314 509 128 23 52 
216 361 468 78 99 124 
205 641 279 87 137 179 
169 313 303 177 176 186 
240 350 299 76 107 153 
185 684 453 158 152 153 
133 494 409 84 107 140 
309 178 496 132 54 5 
243 129 406 139 78 4 
250 227 359 134 130 132 
242 903 362 76 59 48 
176 560 354 146 153 166 
338 465 488 81 94 120 
203 78 373 97 83 69 
156 362 382 161 137 114 
113 641 377 54 86 122 
251 554 279 170 174 187 
335 166 512 42 60 83 
294 781 320 170 143 117 
375 181 533 149 26 19 
186 794 429 126 106 100 
234 885 349 119 90 67 
287 484 335 149 158 173 
257 230 308 119 121 127 
190 627 355 67 77 88 
214 296 454 83 105 128 
280 153 497 133 63 78 
149 408 400 152 127 99 
247 519 461 148 148 155 
254 329 380 101 97 110 
54 696 377 94 114 168 
143 834 391 186 177 175 
274 355 468 123 122 126 
142 631 375 77 108 136 
234 623 476 124 149 174 
287 787 410 205 149 118 
373 690 328 94 95 107 
237 592 472 112 122 137 
177 975 382 95 78 64 
280 550 474 98 117 148 
329 788 330 168 156 150 
204 76 373 98 83 68 
234 429 312 86 114 153 
205 76 373 96 80 66 
204 77 374 97 82 69 
160 807 347 159 129 95 
205 77 374 95 80 67 
293 674 298 168 167 176 
274 340 467 65 96 122 
241 141 390 42 65 91 
359 422 506 160 130 97 
168 699 321 80 100 119 
407 716 340 139 151 169 
250 557 279 182 179 185 
226 804 419 207 148 125 
215 671 469 101 102 107 
166 250 333 126 79 56 
170 431 336 74 97 142 
305 672 316 118 128 142 
255 206 326 83 93 98 
280 370 292 77 107 138 
200 643 317 72 95 115 
194 921 346 87 70 53 
396 254 522 97 56 63 
400 348 530 161 126 128 
106 636 424 84 79 84 
198 176 309 74 70 66 
169 668 438 93 106 157 
390 655 424 45 100 148 
166 433 336 106 113 156 
396 196 546 136 13 42 
244 140 330 149 118 95 
331 478 483 42 89 149 
296 764 430 150 123 102 
234 537 318 86 113 138 
419 703 387 138 155 206 
152 438 444 149 154 164 
194 80 354 120 100 81 
272 304 485 79 104 128 
359 184 521 133 55 31 
94 683 367 69 90 112 
362 181 524 143 27 21 
291 367 324 79 114 146 
318 622 343 74 84 97 
202 880 436 146 114 93 
278 774 433 210 154 126 
233 249 282 161 158 163 
418 265 575 116 116 128 
296 744 449 185 155 124 
280 657 288 88 125 157 
293 519 347 138 146 159 
175 819 405 230 210 198 
266 237 442 73 38 42 
118 650 403 71 94 134 
25 673 409 121 95 68 
341 201 521 42 42 82 
299 348 482 135 118 103 
188 180 257 191 160 139 
194 83 356 119 98 77 
227 822 328 154 112 78 
254 850 345 221 168 134 
365 235 518 119 59 74 
249 973 362 127 97 67 
141 422 442 101 117 148 
305 495 377 38 76 107 
277 382 288 117 133 153 
199 292 293 121 138 159 
229 758 453 139 117 108 
413 706 389 129 154 209 
178 158 361 123 60 4 
192 880 408 118 93 65 
337 808 368 210 150 118 
194 84 355 120 98 76 
187 980 415 91 73 61 
177 439 455 107 119 137 
284 405 421 41 74 97 
46 660 413 85 75 67 
266 603 274 64 102 133 
308 610 367 60 73 86 
269 327 292 107 119 135 
328 187 505 124 119 118 
172 963 379 109 86 70 
167 944 390 77 62 52 
354 218 525 108 43 49 
312 143 506 140 69 3 
145 614 474 143 112 98 
297 420 328 114 133 155 
203 927 334 68 52 39 
319 419 469 102 62 33 
345 296 500 96 127 155 
195 84 358 117 96 75 
241 259 284 101 85 97 
273 294 485 68 103 131 
316 558 374 102 113 128 
228 522 465 131 140 156 
102 660 373 55 84 125 
203 156 388 75 60 65 
251 259 387 123 123 126 
287 148 496 97 80 74 
382 279 521 137 93 92 
149 384 411 160 134 106 
184 170 381 94 73 65 
156 628 398 63 71 82 
196 80 359 116 97 78 
26 687 420 165 118 96 
235 633 474 157 153 158 
195 84 360 115 95 75 
81 702 413 116 123 136 
245 276 286 133 148 171 
389 252 532 23 36 65 
280 177 495 68 96 120 
282 537 472 67 88 118 
335 499 482 180 187 202 
197 662 465 127 140 190 
172 949 408 93 76 65 
205 337 434 134 118 104 
271 340 460 76 78 89 
320 515 393 98 120 144 
196 80 362 114 95 77 
279 471 299 115 138 164 
354 430 507 112 88 66 
280 941 416 132 106 87 
304 674 468 97 109 123 
251 686 479 172 153 141 
380 635 358 38 66 91 
73 687 431 153 101 82 
202 372 315 127 148 188 
267 394 283 125 132 148 
239 846 335 222 158 118 
339 436 500 128 41 12 
146 539 377 76 99 149 
357 627 424 132 103 77 
381 215 529 37 48 79 
239 716 471 216 176 134 
234 645 471 100 52 72 
365 268 524 151 148 152 
338 155 512 133 78 55 
197 83 364 112 94 75 
70 693 427 133 95 88 
197 83 366 103 86 70 
267 242 448 90 29 52 
252 139 449 103 91 81 
78 667 407 79 79 85 
241 867 350 183 143 108 
121 628 415 64 77 91 
365 731 390 64 52 83 
314 180 505 81 44 58 
198 81 367 100 85 71 
202 875 434 156 123 98 
266 604 470 124 162 200 
233 247 483 106 39 55 
149 544 468 45 81 128 
198 82 367 98 82 67 
187 890 403 138 107 81 
226 203 477 36 43 69 
196 694 468 159 168 184 
300 618 323 95 89 107 
304 615 456 138 105 88 
210 644 468 98 92 101 
295 211 503 63 101 131 
297 755 317 123 114 111 
252 197 321 135 105 93 
188 784 331 126 111 98 
299 415 485 61 87 139 
184 421 332 112 131 169 
247 843 375 181 133 108 
220 492 456 109 122 149 
250 276 407 128 129 135 
278 296 308 143 139 140 
210 540 337 141 156 178 
262 954 372 99 83 70 
363 450 510 161 126 100 
362 221 528 77 42 63 
331 678 459 100 131 159 
283 239 493 151 147 150 
236 181 481 95 35 45 
185 997 348 138 113 89 
245 183 481 93 26 45 
244 753 299 51 24 77 
269 289 485 80 72 95 
253 879 388 149 109 78 
324 562 417 194 182 176 
209 775 446 47 39 61 
177 411 328 92 113 155 
382 680 334 41 79 117 
388 716 334 139 150 166 
329 429 477 161 75 10 
166 298 406 101 119 139 
364 699 408 90 115 139 
305 449 440 89 103 121 
343 789 337 190 172 160 
215 967 444 188 145 126 
220 785 316 115 106 103 
195 89 355 122 98 73 
272 396 486 58 79 120 
179 347 411 104 101 102 
97 769 373 119 128 172 
262 359 376 153 148 149 
238 144 482 86 61 85 
186 728 314 135 151 174 
297 324 485 83 117 144 
184 463 463 163 161 166 
246 783 312 159 124 85 
215 474 329 99 122 162 
176 634 352 56 71 93 
147 373 429 170 144 116 
321 275 511 134 135 140 
245 760 303 167 159 160 
247 444 481 172 176 188 
252 470 273 102 126 161 
176 609 481 130 102 87 
136 497 394 76 106 143 
205 168 284 118 60 31 
335 326 497 66 100 128 
225 642 277 187 183 188 
196 91 355 122 98 73 
240 556 471 171 173 182 
262 366 286 61 101 135 
86 669 378 81 110 145 
357 307 509 75 116 152 
269 922 402 123 91 71 
196 90 358 122 98 74 
198 216 274 112 101 112 
259 297 433 77 95 116 
316 475 488 96 117 144 
157 296 326 84 121 151 
389 757 356 239 195 145 
155 367 357 166 144 121 
201 576 354 140 131 126 
304 342 496 133 73 96 
196 92 355 122 98 73 
266 259 305 79 85 92 
388 664 342 42 48 67 
291 632 459 182 130 121 
419 723 371 84 136 201 
270 407 491 75 100 152 
60 725 421 95 115 173 
206 688 470 101 130 157 
314 487 395 155 155 162 
196 95 354 119 96 72 
303 707 458 197 85 28 
366 751 380 78 81 85 
367 631 417 129 103 75 
324 550 394 108 130 154 
401 636 379 120 137 156 
281 301 313 160 156 159 
183 490 339 147 151 167 
256 977 379 96 76 60 
141 473 379 44 76 139 
249 846 337 228 169 130 
232 511 320 83 107 136 
299 227 491 137 51 58 
163 799 345 63 62 65 
213 1015 367 136 106 75 
145 756 345 124 131 150 
266 349 360 96 81 101 
243 143 342 136 113 90 
215 418 320 116 137 170 
345 280 507 139 140 147 
354 647 443 74 107 178 
259 671 269 104 138 187 
204 372 316 98 127 179 
339 741 408 191 172 160 
220 939 337 84 67 51 
376 193 528 86 42 49 
210 226 455 88 79 93 
249 762 305 163 117 79 
196 89 361 118 96 74 
158 822 353 152 136 125 
359 158 531 154 70 10 
196 89 362 116 95 74 
209 792 323 161 141 124 
170 288 292 167 43 84 
343 182 512 153 66 2 
303 192 509 119 53 61 
224 737 295 162 117 129 
382 247 522 44 71 95 
328 693 457 191 92 95 
102 653 435 126 90 79 
292 132 497 144 86 22 
282 499 311 138 157 179 
352 645 336 83 98 113 
409 730 374 170 193 220 
248 222 362 134 131 131 
196 575 355 153 143 139 
120 620 463 116 97 80 
345 166 518 86 58 55 
315 458 472 52 74 109 
111 643 417 80 94 132 
262 760 307 134 115 99 
261 24 358 145 131 122 
91 763 374 126 149 186 
131 580 434 49 78 134 
196 90 366 100 81 61 
176 318 306 128 135 166 
283 244 478 91 49 49 
249 360 499 174 174 181 
245 891 371 128 97 69 
167 453 344 84 110 157 
179 348 410 97 96 98 
254 246 369 138 134 136 
243 194 482 41 36 49 
205 570 466 173 168 171 
152 639 357 107 130 159 
306 693 317 156 164 178 
273 539 305 129 144 165 
279 565 288 107 131 156 
324 409 473 112 95 77 
258 850 353 194 139 106 
220 987 432 85 66 51 
138 457 439 105 123 145 
201 727 307 162 176 196 
256 548 469 64 90 142 
387 210 531 36 37 45 
211 608 348 65 87 108 
272 533 294 168 173 187 
181 824 402 169 165 167 
374 665 432 114 142 192 
298 231 490 136 62 56 
194 1004 346 144 107 69 
209 619 478 123 95 80 
161 437 444 62 85 116 
183 555 468 190 176 170 
95 670 392 70 95 131 
262 230 485 122 92 96 
278 830 364 220 163 136 
352 365 518 165 158 158 
254 855 356 166 114 81 
245 360 296 77 118 153 
396 174 555 137 76 15 
250 940 429 173 131 102 
212 179 407 78 34 40 
130 828 400 68 36 78 
332 462 504 57 89 155 
252 911 374 77 61 47 
144 439 426 144 123 114 
304 460 377 109 127 148 
194 389 437 86 99 115 
352 680 412 96 133 164 
139 477 448 144 151 163 
251 915 427 182 133 105 
235 852 337 212 153 112 
199 82 369 94 80 65 
258 792 314 177 163 155 
133 512 415 137 142 154 
416 230 572 90 81 100 
218 626 473 127 126 134 
220 287 476 142 139 142 
243 311 492 132 104 72 
192 883 400 112 86 60 
184 813 411 213 196 187 
256 178 450 104 36 29 
267 486 475 134 147 171 
357 201 517 59 99 132 
198 837 393 186 142 119 
299 554 484 97 131 180 
132 751 415 100 117 135 
180 375 426 84 98 114 
155 391 353 135 119 113 
179 184 284 116 103 91 
145 657 406 58 80 133 
335 498 482 163 173 190 
242 323 495 164 124 76 
196 208 266 52 86 127 
263 329 442 123 120 121 
410 226 586 88 82 104 
198 86 370 105 87 69 
246 983 403 92 76 63 
253 315 416 94 113 133 
91 699 362 122 131 146 
376 322 521 126 127 135 
227 849 390 173 129 100 
329 716 443 112 114 138 
232 391 311 69 102 151 
343 739 402 131 138 149 
116 723 403 76 87 114 
197 88 368 102 83 62 
91 685 369 90 105 123 
174 601 381 79 81 85 
403 208 549 96 36 42 
152 389 366 132 25 64 
155 376 388 155 133 110 
269 243 453 90 32 47 
142 461 375 137 110 84 
339 309 498 151 149 154 
142 813 420 116 117 124 
145 521 463 101 121 160 
166 203 369 102 77 85 
142 602 421 62 98 126 
211 242 423 100 105 114 
132 567 436 90 125 155 
345 182 520 95 36 64 
320 461 509 78 104 166 
197 91 371 110 87 68 
251 522 277 104 136 175 
198 89 371 109 88 66 
341 741 403 62 62 67 
50 660 435 121 95 66 
299 390 473 90 90 96 
360 195 525 68 41 59 
193 194 402 107 58 53 
334 694 453 85 75 166 
45 730 403 145 157 213 
203 333 429 98 103 111 
305 492 494 97 119 155 
229 686 280 109 94 116 
198 91 373 111 89 70 
174 356 412 80 70 62 
217 696 478 138 158 181 
173 520 468 110 127 161 
206 849 391 167 124 98 
215 202 423 84 29 31 
283 834 340 241 187 148 
379 761 371 136 107 93 
159 247 358 63 76 92 
184 177 290 102 79 52 
37 670 425 124 97 68 
290 638 454 146 104 96 
197 94 368 107 87 66 
302 609 350 84 85 89 
257 604 471 108 128 152 
197 95 369 110 89 68 
157 331 402 161 140 122 
160 323 361 148 128 111 
184 656 327 71 106 137 
316 507 469 32 59 101 
326 505 501 116 142 188 
289 682 296 140 153 173 
292 274 484 137 108 72 
215 261 467 123 111 109 
226 145 411 77 40 55 
236 556 309 131 142 157 
175 945 360 89 72 60 
246 451 478 160 163 172 
198 94 372 113 89 70 
369 189 522 40 74 103 
266 323 360 166 130 86 
161 239 379 126 74 71 
176 939 416 113 90 72 
174 953 410 93 78 67 
188 600 472 58 78 96 
109 642 436 116 86 77 
258 351 500 145 156 173 
257 493 478 101 127 167 
253 311 414 92 111 132 
280 320 299 106 119 135 
372 732 390 123 57 81 
193 182 322 95 71 54 
235 152 321 94 85 97 
190 421 450 135 137 144 
308 427 490 39 68 111 
188 986 398 123 103 82 
213 241 281 90 129 161 
170 524 467 185 185 191 
214 780 318 84 68 62 
304 258 507 144 145 153 
246 158 358 99 83 92 
345 388 500 146 33 74 
391 744 341 103 81 143 
269 683 468 164 108 47 
244 200 423 70 54 55 
268 392 283 119 130 149 
88 690 405 44 67 113 
213 609 311 102 112 126 
302 828 363 220 159 127 
234 850 336 212 150 111 
296 253 494 106 132 160 
252 796 422 215 157 130 
279 314 335 78 106 133 
347 716 403 159 133 121 
203 82 375 92 78 63 
103 636 390 82 114 144 
174 200 284 125 64 16 
169 747 460 142 166 190 
95 795 405 182 198 221 
149 805 425 132 130 143 
200 85 373 101 84 67 
256 250 369 134 132 135 
301 376 477 105 110 119 
279 520 319 102 125 159 
153 338 399 125 60 46 
197 357 311 133 148 180 
243 419 486 148 154 170 
206 844 339 170 127 92 
285 775 424 212 155 123 
330 307 502 163 143 124 
117 808 416 161 120 118 
233 534 287 55 83 139 
400 290 535 128 129 136 
370 737 386 91 106 124 
253 290 418 98 115 135 
393 648 392 110 91 71 
226 619 474 121 70 83 
202 86 375 98 80 63 
277 793 414 210 151 121 
162 703 420 49 57 70 
175 681 329 119 119 124 
225 137 434 109 110 113 
339 465 487 74 99 133 
329 246 504 105 117 134 
239 485 300 73 102 142 
270 148 471 103 86 68 
271 343 453 114 111 112 
301 525 361 110 118 130 
150 371 396 157 134 110 
242 141 394 66 69 84 
178 673 448 81 99 153 
164 589 378 106 120 137 
185 660 461 158 168 203 
156 507 363 123 128 146 
288 393 339 133 142 157 
252 960 355 79 61 53 
319 681 323 146 144 149 
205 83 377 94 79 63 
96 788 386 150 170 193 
345 682 325 78 108 146 
196 147 311 140 74 7 
393 376 536 172 151 130 
254 609 275 98 128 157 
190 630 350 78 86 96 
247 292 289 135 149 168 
304 518 367 94 107 123 
106 717 404 110 120 136 
323 618 379 83 95 113 
219 536 333 98 117 138 
410 350 545 150 170 196 
168 837 359 113 105 107 
409 730 352 196 205 223 
292 382 327 98 117 141 
305 783 399 197 137 105 
243 541 462 86 104 123 
309 478 447 99 114 139 
377 635 394 52 64 75 
205 85 377 97 80 63 
187 743 319 165 157 158 
237 204 305 77 57 58 
300 579 446 108 131 165 
235 442 469 73 97 140 
151 567 472 41 67 133 
151 392 423 169 140 113 
379 391 518 161 130 94 
247 416 289 80 107 132 
162 630 366 64 88 124 
217 754 462 176 126 127 
158 605 392 84 92 103 
230 648 469 193 195 206 
214 397 445 80 97 123 
206 86 378 99 82 64 
252 236 419 83 78 82 
169 190 366 108 107 110 
259 587 276 168 164 168 
274 339 292 92 117 143 
404 200 542 39 61 77 
405 669 408 109 132 181 
