ply
format ascii 1.0
comment Created by CloudCompare v2.11.1 (Anoia)
comment Created 2/28/22 9:39 PM
obj_info Generated by CloudCompare!
element vertex 2003
property float x
property float y
property float z
property uchar red
property uchar green
property uchar blue
end_header
238 220 470 102 95 104 
49 655 436 90 82 75 
136 768 362 139 49 54 
297 488 309 99 117 143 
341 377 476 157 20 72 
291 493 295 102 120 141 
190 26 459 132 118 114 
82 639 446 110 99 90 
326 505 457 169 175 188 
413 280 505 101 108 126 
169 783 441 79 68 68 
194 289 282 144 51 74 
189 26 463 130 137 142 
206 687 456 114 126 147 
285 443 470 123 143 174 
315 190 474 130 29 61 
164 308 429 132 137 148 
240 275 475 147 147 153 
420 192 491 88 61 52 
290 382 292 86 106 127 
311 135 484 155 83 8 
323 519 356 79 108 152 
326 782 359 187 160 136 
410 688 355 124 141 173 
256 914 395 143 104 81 
147 825 378 157 125 100 
398 185 522 136 37 41 
292 311 466 122 121 126 
169 621 402 71 78 86 
233 185 290 86 102 119 
179 246 288 165 65 89 
187 369 304 68 90 169 
196 395 442 70 90 113 
158 942 401 86 69 57 
189 28 457 136 122 117 
320 483 436 82 113 148 
146 427 371 177 82 15 
197 782 312 164 148 137 
313 425 445 58 65 73 
289 193 465 92 73 90 
47 711 441 139 151 208 
290 150 472 138 92 80 
166 167 308 67 56 48 
244 188 418 109 51 31 
366 354 502 218 182 143 
307 586 360 117 113 114 
249 753 433 197 176 160 
231 278 288 125 142 165 
159 649 434 70 85 142 
230 534 453 99 124 151 
190 31 458 134 122 118 
168 205 279 119 124 132 
174 346 311 165 131 90 
280 521 459 61 85 141 
160 406 451 137 124 116 
233 775 429 192 157 122 
197 426 456 129 138 153 
300 417 291 105 117 135 
73 731 387 142 156 187 
246 561 278 128 149 175 
315 778 364 159 117 77 
376 749 334 189 110 140 
269 634 462 188 181 183 
173 513 349 120 132 151 
232 213 366 88 28 35 
309 496 321 173 174 186 
418 666 305 115 124 139 
255 631 462 149 141 142 
166 217 386 108 72 68 
255 905 398 154 113 80 
298 273 463 58 90 115 
234 322 292 113 122 135 
430 696 318 131 144 169 
191 29 461 134 123 120 
158 927 358 87 65 56 
190 29 463 136 124 122 
262 140 436 119 99 75 
166 525 480 110 136 171 
294 409 387 94 111 131 
258 827 363 194 137 115 
199 155 285 53 62 71 
289 124 475 177 125 80 
264 328 391 136 108 81 
277 610 446 120 130 144 
157 952 357 114 90 68 
300 188 463 70 67 88 
202 594 470 64 112 147 
190 749 462 53 47 126 
303 570 455 113 145 192 
229 683 464 76 88 104 
336 634 392 38 37 50 
320 466 341 80 116 155 
183 19 466 128 114 108 
308 460 373 87 109 138 
181 19 469 127 113 108 
167 182 379 111 95 91 
366 232 506 55 41 46 
263 390 476 118 136 156 
158 270 379 130 35 72 
183 17 468 115 104 99 
415 178 503 128 67 0 
234 900 372 121 88 66 
375 730 364 126 112 128 
182 17 471 119 108 101 
183 16 470 118 108 103 
301 676 275 167 166 177 
177 287 427 73 104 130 
260 766 299 116 104 94 
178 650 334 73 135 184 
293 557 453 90 111 144 
316 493 323 119 134 164 
205 679 454 130 133 151 
355 711 388 151 81 86 
341 229 503 53 52 81 
273 618 293 71 106 138 
364 421 492 170 150 138 
237 316 475 140 36 73 
252 285 406 86 101 118 
349 687 274 66 88 109 
315 481 411 121 123 147 
181 22 467 132 118 111 
169 554 357 86 121 157 
169 912 421 179 137 111 
277 537 283 147 148 154 
401 298 511 157 161 172 
327 347 450 119 102 94 
403 675 372 55 97 159 
130 647 467 153 105 85 
226 191 355 45 60 75 
395 656 295 94 114 133 
346 198 496 80 83 95 
368 753 341 144 130 122 
173 578 369 190 174 165 
228 214 469 87 42 69 
306 338 442 120 123 131 
95 664 445 116 86 78 
344 713 406 186 70 84 
181 21 469 138 123 115 
287 379 290 57 92 122 
255 641 271 116 131 151 
203 476 469 152 154 163 
280 569 281 151 141 145 
194 622 374 56 63 71 
241 547 453 128 133 144 
224 480 453 117 123 138 
194 619 341 88 97 107 
245 454 313 134 148 171 
421 681 324 76 67 58 
352 381 503 112 130 162 
295 618 347 72 79 89 
166 562 480 110 132 159 
265 370 481 74 110 157 
62 735 429 94 111 190 
288 713 433 49 59 70 
247 917 371 181 110 88 
384 257 502 123 54 79 
364 621 343 30 74 106 
340 615 354 94 101 112 
200 710 466 119 141 165 
394 342 505 186 182 186 
77 752 408 153 178 206 
310 442 345 99 128 157 
259 121 469 131 102 73 
183 246 291 135 43 74 
338 692 427 94 142 180 
368 409 484 195 68 11 
290 468 465 120 136 164 
221 149 349 115 91 70 
206 136 291 80 75 71 
137 466 404 138 115 109 
263 756 430 198 168 140 
203 192 424 45 33 43 
305 645 424 61 50 46 
255 159 429 91 41 21 
183 20 474 157 145 139 
182 22 472 108 100 96 
242 395 296 183 179 185 
195 617 333 91 106 123 
184 670 343 66 74 94 
132 808 375 115 106 101 
201 221 278 92 127 155 
239 385 466 60 87 137 
181 523 344 87 107 128 
338 467 462 116 139 174 
349 785 317 195 164 135 
245 267 389 115 114 117 
208 135 293 80 71 66 
283 644 278 178 176 184 
236 235 391 122 119 119 
242 306 294 87 111 134 
180 310 425 75 88 102 
254 269 327 92 66 68 
141 502 390 112 124 147 
213 142 425 76 47 38 
151 531 369 103 120 153 
228 204 383 37 45 62 
133 812 376 172 161 160 
125 800 431 155 35 52 
305 606 413 87 89 96 
226 824 312 167 122 86 
386 707 374 113 167 211 
205 599 318 130 138 152 
184 946 334 111 83 50 
182 24 468 142 129 122 
285 127 469 202 101 18 
293 177 464 103 71 75 
164 910 350 110 85 60 
237 852 342 204 153 120 
182 24 470 148 136 129 
338 664 289 28 64 90 
236 128 395 131 76 0 
88 680 438 82 97 124 
182 369 429 109 107 121 
254 249 472 152 147 149 
197 606 367 60 71 82 
88 746 441 158 161 189 
248 234 471 86 106 124 
183 28 464 143 132 127 
157 651 346 68 128 173 
159 309 338 101 68 70 
250 519 305 68 96 123 
136 645 406 121 142 166 
183 29 466 146 134 128 
266 12 365 150 129 115 
222 549 461 100 125 151 
150 666 360 88 111 149 
440 186 480 169 79 10 
171 969 343 85 54 45 
192 259 414 82 77 76 
183 626 341 70 86 102 
127 723 422 129 138 153 
106 657 470 168 116 91 
162 215 343 57 63 78 
185 17 467 119 108 104 
184 18 464 120 105 98 
375 759 314 210 165 102 
186 385 311 44 90 178 
341 646 415 110 135 167 
168 166 304 63 51 42 
371 699 278 81 104 139 
346 416 493 184 159 149 
161 447 335 121 135 165 
184 18 467 113 102 96 
399 730 306 194 202 218 
293 269 451 106 123 142 
293 363 333 74 114 145 
204 528 334 112 122 137 
218 586 330 102 122 145 
419 680 295 137 146 160 
278 497 288 82 116 145 
301 595 357 73 80 88 
315 356 453 102 67 75 
133 786 365 143 33 47 
252 291 389 111 116 126 
283 225 455 133 55 62 
299 379 306 91 111 136 
284 595 451 62 102 151 
319 257 477 64 94 118 
277 482 273 142 154 173 
248 941 402 99 81 66 
213 315 287 205 152 70 
221 861 332 176 131 95 
226 386 306 99 122 154 
377 683 398 115 139 165 
295 613 438 160 117 113 
307 526 330 86 112 143 
258 306 397 107 111 118 
307 453 378 159 157 161 
185 265 289 139 136 139 
294 213 461 117 41 61 
189 16 467 125 112 107 
94 770 400 99 116 170 
249 286 376 109 110 114 
329 240 489 129 126 128 
390 653 378 121 136 154 
225 338 466 163 105 123 
359 672 408 126 161 194 
368 264 496 87 83 98 
143 517 444 82 102 142 
175 648 457 187 190 205 
251 253 325 80 114 142 
332 158 495 93 98 107 
318 655 276 111 117 127 
181 596 374 55 57 69 
201 620 353 86 86 89 
263 261 319 85 118 145 
321 482 326 138 155 175 
126 806 382 154 138 124 
401 313 508 135 158 184 
426 685 298 104 123 145 
41 697 421 116 123 171 
189 19 471 161 154 150 
163 302 316 168 165 170 
182 602 380 51 49 55 
272 780 296 152 131 111 
180 855 372 181 133 104 
161 612 463 44 46 49 
161 287 339 119 104 100 
153 394 411 135 15 58 
175 191 347 96 102 110 
160 730 433 128 141 160 
191 960 337 130 96 63 
224 954 432 192 144 118 
353 781 323 164 141 121 
176 931 329 80 63 46 
269 706 450 207 159 87 
288 687 288 142 160 189 
255 403 286 105 129 170 
252 546 285 118 122 130 
190 18 471 176 165 160 
292 491 462 74 89 133 
177 525 477 78 102 136 
289 512 292 85 111 139 
201 397 319 85 113 172 
190 21 467 113 80 75 
200 356 431 117 122 134 
282 808 362 220 159 125 
149 387 397 160 138 116 
206 248 436 116 117 124 
282 192 455 44 46 55 
127 634 481 165 121 100 
169 727 443 143 160 181 
222 732 468 93 148 189 
153 415 427 165 140 112 
190 23 467 190 191 191 
208 592 324 131 142 159 
330 482 476 110 133 171 
165 633 478 194 138 127 
202 694 458 112 135 159 
166 996 343 132 113 100 
294 786 378 203 146 111 
189 21 470 155 124 138 
353 272 489 88 122 153 
124 621 470 100 86 73 
159 313 329 146 148 156 
218 305 287 199 143 83 
228 417 440 116 127 144 
260 395 281 93 121 163 
337 783 302 205 171 132 
295 322 464 123 129 140 
229 205 366 32 58 81 
269 584 458 109 138 168 
267 334 287 109 121 137 
295 509 301 108 126 149 
177 976 333 122 96 67 
110 752 440 133 129 162 
343 358 495 136 131 132 
301 412 418 40 71 94 
115 652 458 130 93 81 
253 489 311 103 120 140 
282 783 398 210 150 121 
259 537 274 155 153 164 
290 541 456 83 99 134 
70 651 421 88 99 111 
322 187 483 128 43 63 
160 954 403 84 66 57 
248 898 401 151 113 82 
176 548 350 167 161 161 
402 664 332 89 78 69 
184 16 476 141 128 121 
285 294 475 111 134 158 
150 464 374 109 128 155 
245 944 358 88 73 62 
152 783 441 154 68 67 
185 17 477 158 146 140 
162 991 343 133 108 84 
190 491 472 132 137 156 
231 913 344 66 47 44 
164 781 331 69 71 78 
222 658 300 101 121 143 
243 164 466 120 60 56 
227 158 291 114 61 59 
302 599 428 81 113 155 
171 368 314 155 158 167 
341 376 476 162 40 74 
235 618 272 133 139 152 
280 768 419 87 132 168 
247 921 372 163 89 67 
339 783 340 166 145 132 
265 353 281 101 120 141 
187 239 288 114 60 76 
330 316 459 121 125 134 
250 915 386 148 107 80 
400 201 522 93 46 64 
398 321 508 73 124 162 
163 173 296 102 81 63 
226 272 283 138 135 136 
152 412 362 154 82 63 
280 779 406 209 150 121 
273 338 342 136 95 107 
348 176 500 143 56 9 
318 523 378 110 127 151 
283 546 458 63 92 150 
124 756 371 120 130 146 
91 672 365 63 81 109 
386 678 399 149 172 196 
242 513 449 52 79 113 
295 357 466 102 112 128 
294 471 301 174 177 187 
195 786 314 152 137 128 
59 696 460 87 106 150 
337 160 499 118 102 88 
223 947 435 185 136 112 
147 761 437 120 151 180 
187 825 399 174 143 117 
231 939 334 71 54 44 
432 211 497 66 95 119 
232 211 382 46 39 60 
217 920 324 55 46 40 
342 364 488 130 132 140 
156 308 376 128 132 140 
269 387 279 130 142 158 
369 256 517 105 84 92 
197 133 336 88 73 61 
259 520 282 100 120 141 
163 507 358 76 95 147 
173 353 441 115 121 131 
115 706 422 158 157 164 
270 587 274 106 76 82 
246 229 416 106 43 14 
377 633 306 92 121 147 
234 697 285 150 171 196 
199 723 469 139 157 179 
103 740 380 103 79 157 
241 348 286 70 113 150 
152 520 462 167 162 164 
162 914 398 125 91 70 
294 616 437 59 65 99 
317 572 371 123 135 151 
181 196 259 199 78 6 
236 563 307 140 151 168 
125 711 371 156 160 180 
436 196 479 155 107 116 
256 610 283 97 88 99 
230 901 363 91 70 54 
304 344 440 117 116 118 
262 905 418 159 121 89 
435 179 476 172 85 30 
145 563 409 138 144 156 
324 715 421 45 60 103 
399 202 523 93 53 74 
298 496 311 91 113 141 
199 717 468 139 154 173 
166 427 459 136 148 164 
369 167 526 127 110 110 
34 689 438 151 112 104 
177 632 480 192 136 124 
234 379 298 112 130 158 
190 16 478 164 140 134 
190 16 479 160 139 133 
237 483 320 115 119 128 
207 319 423 118 121 128 
234 879 401 141 107 75 
221 283 281 161 159 164 
373 182 515 104 68 76 
151 343 374 134 75 64 
324 611 413 152 113 98 
181 650 457 146 146 186 
354 328 501 74 114 145 
279 618 292 71 103 138 
305 370 437 123 114 106 
276 649 453 63 60 68 
170 972 403 91 71 58 
374 170 514 165 67 6 
207 939 327 69 53 41 
171 522 350 179 171 169 
103 628 462 92 80 69 
307 559 342 81 102 124 
283 565 284 176 182 196 
151 642 430 48 72 113 
259 741 437 151 120 94 
291 179 459 75 62 82 
375 386 500 211 177 141 
353 143 523 122 104 89 
187 627 381 54 60 67 
149 614 467 70 69 70 
156 253 349 125 88 76 
383 241 503 78 47 40 
184 463 339 116 128 146 
401 168 515 144 59 4 
297 432 465 77 95 124 
198 194 273 103 71 66 
291 771 405 221 164 131 
136 645 419 109 126 147 
267 781 411 209 149 120 
252 318 290 78 102 125 
309 403 331 101 126 152 
273 549 280 148 151 160 
222 146 335 104 102 104 
317 521 399 170 167 173 
281 715 436 80 44 48 
263 223 441 68 37 36 
307 356 456 61 79 97 
275 198 463 94 65 78 
372 324 507 164 133 123 
203 138 318 96 85 85 
107 732 440 106 109 145 
187 28 465 143 130 128 
304 569 454 120 155 197 
124 646 416 95 109 151 
315 446 428 50 76 99 
208 624 313 104 67 75 
178 688 340 120 121 126 
183 718 456 123 138 155 
147 643 410 73 115 149 
205 235 431 120 115 114 
294 656 443 61 43 56 
197 410 449 98 111 131 
315 723 281 143 42 38 
185 28 468 150 138 133 
205 427 327 67 105 154 
237 258 472 129 128 132 
241 414 456 96 114 144 
215 229 464 108 41 63 
242 629 466 125 94 84 
281 360 288 69 98 124 
321 531 349 59 90 133 
213 907 440 188 140 119 
186 28 468 161 145 142 
194 823 328 146 108 76 
256 922 401 133 101 72 
233 762 443 151 98 89 
148 495 374 139 143 152 
337 633 391 38 39 46 
375 278 504 168 156 153 
232 966 407 146 111 94 
219 306 450 136 99 40 
237 237 368 72 95 116 
174 394 442 89 91 122 
300 767 291 105 94 85 
187 963 431 200 152 132 
168 806 336 148 123 98 
283 500 290 96 117 143 
150 414 415 164 138 111 
274 801 383 212 148 123 
152 345 362 96 114 134 
252 443 305 172 173 184 
333 399 475 133 129 130 
133 654 372 69 107 140 
82 636 457 94 80 67 
211 788 308 144 114 80 
171 795 429 101 99 116 
315 785 355 174 122 89 
299 403 413 66 86 105 
369 672 407 139 159 196 
257 333 484 145 93 107 
219 817 313 153 113 79 
68 702 457 99 132 181 
265 374 480 85 132 168 
213 973 340 104 79 58 
313 730 427 109 119 135 
333 366 455 125 113 120 
391 717 290 126 150 182 
356 449 475 92 117 150 
311 459 350 149 154 166 
269 335 482 162 134 104 
389 315 512 100 141 174 
190 26 465 139 129 126 
196 151 302 57 63 71 
207 702 308 126 130 138 
382 342 510 122 134 167 
353 234 499 66 41 55 
188 803 416 223 188 157 
63 660 406 98 109 122 
189 25 468 124 105 104 
300 385 306 77 99 123 
234 662 462 73 74 78 
188 26 468 137 123 129 
212 781 306 161 134 105 
255 273 305 88 116 145 
290 290 469 62 82 103 
162 971 363 86 68 57 
417 216 509 148 92 78 
110 632 422 68 92 112 
211 179 461 34 61 102 
367 229 508 63 39 43 
269 519 281 111 137 167 
188 29 467 144 130 128 
180 988 329 128 95 65 
327 140 496 160 71 4 
225 80 476 108 87 63 
134 719 361 98 113 146 
214 790 307 112 99 91 
176 459 462 76 90 110 
251 517 304 80 104 127 
180 373 431 111 113 127 
168 816 403 154 126 107 
141 518 392 135 141 155 
198 158 411 32 55 73 
267 252 441 94 58 48 
301 608 435 100 90 91 
299 170 465 109 76 60 
271 287 438 97 99 104 
412 694 346 126 150 183 
246 447 309 164 170 185 
163 250 318 103 85 100 
272 599 311 95 97 102 
229 830 380 176 114 94 
224 893 430 167 129 103 
222 140 351 71 93 113 
156 934 394 80 65 53 
160 538 477 162 172 187 
281 645 278 175 173 180 
408 688 363 147 162 183 
242 199 414 62 42 36 
334 483 459 133 152 183 
151 551 377 107 124 154 
318 457 320 164 166 176 
240 144 465 94 47 47 
126 754 369 136 140 150 
167 169 364 129 65 6 
323 389 448 46 67 85 
158 662 357 26 79 140 
299 349 460 86 101 118 
192 841 331 161 122 89 
207 508 334 131 135 145 
330 414 479 155 117 90 
254 938 397 100 72 59 
67 656 406 119 125 136 
312 540 421 105 124 155 
247 428 302 111 135 168 
360 306 490 139 115 100 
348 768 343 167 138 110 
192 675 449 109 114 163 
269 172 446 104 48 47 
198 619 324 81 121 153 
304 385 435 87 80 77 
185 812 328 151 131 117 
200 866 406 114 87 55 
213 202 278 101 61 66 
121 675 351 122 138 207 
199 189 420 71 38 51 
186 10 481 133 103 91 
186 11 480 127 103 95 
371 280 499 162 153 152 
187 10 480 133 104 91 
348 451 473 153 157 172 
186 11 482 131 107 98 
150 490 366 100 122 147 
230 906 345 80 66 56 
195 202 405 114 59 63 
288 643 278 186 182 193 
205 247 443 143 138 140 
202 812 408 100 94 99 
215 303 428 126 127 133 
299 367 437 109 104 101 
159 328 329 125 144 166 
313 636 323 70 93 117 
401 711 357 132 175 215 
200 863 394 147 116 87 
322 155 496 97 70 76 
306 585 421 95 129 162 
313 800 303 150 148 150 
250 266 335 81 58 56 
155 912 379 157 106 89 
351 739 283 166 51 55 
172 346 420 125 69 92 
361 617 331 71 97 121 
414 666 299 126 130 139 
170 215 274 72 107 136 
168 207 353 70 70 75 
65 736 407 150 169 202 
263 432 286 156 163 178 
312 790 353 188 133 101 
160 391 448 143 124 105 
196 822 400 169 122 101 
331 633 317 94 114 135 
208 515 334 126 132 142 
126 806 429 192 90 67 
98 647 419 53 81 107 
246 418 298 123 146 177 
236 229 367 70 92 111 
371 272 499 154 146 144 
213 813 315 141 115 92 
378 679 285 64 91 116 
127 706 370 168 170 190 
203 142 438 134 30 21 
192 375 431 45 70 92 
234 886 417 160 116 86 
166 951 417 137 110 92 
171 815 339 116 113 114 
170 594 383 110 108 110 
190 9 485 133 94 85 
372 624 338 142 145 153 
208 925 439 155 115 90 
269 333 288 108 119 134 
208 721 303 128 137 149 
297 421 358 45 85 137 
257 11 359 142 120 100 
132 658 351 84 116 147 
192 253 282 85 71 71 
153 380 403 155 130 105 
356 276 489 78 110 138 
303 611 366 71 87 109 
168 377 429 162 138 115 
60 696 390 88 91 145 
256 126 439 166 116 95 
225 182 335 74 82 93 
182 311 293 140 106 121 
95 656 423 114 128 146 
142 747 430 124 137 154 
291 210 460 123 44 61 
431 688 301 10 45 104 
220 561 464 175 169 171 
328 401 492 84 104 133 
362 364 499 200 173 147 
160 219 312 142 83 90 
211 138 428 76 54 38 
305 768 288 129 114 101 
277 161 452 137 61 6 
250 620 465 135 78 95 
161 641 380 45 57 72 
168 438 464 129 142 160 
213 811 314 128 109 102 
242 246 346 99 109 122 
265 326 405 93 103 114 
191 14 481 143 108 90 
336 239 499 116 91 105 
256 383 283 86 110 159 
256 278 331 110 120 134 
165 604 462 35 72 101 
156 509 464 93 109 143 
317 241 465 97 100 106 
241 237 344 118 117 121 
151 589 456 54 89 139 
339 239 501 118 53 82 
199 155 414 46 70 91 
299 819 309 235 162 123 
204 441 329 92 116 144 
204 158 441 95 41 46 
327 801 338 204 147 113 
171 692 428 44 48 73 
225 158 332 100 85 84 
241 167 411 87 37 26 
112 730 374 105 123 180 
220 994 364 127 102 78 
306 561 451 153 168 188 
225 965 419 151 109 86 
166 259 297 107 86 110 
190 16 480 157 140 133 
319 458 450 93 105 120 
330 754 283 160 133 105 
168 322 409 118 121 128 
212 862 393 152 118 87 
248 556 286 74 110 138 
249 725 453 135 39 42 
156 182 323 123 80 23 
209 335 437 78 101 124 
225 82 476 111 90 66 
135 629 436 65 100 128 
331 394 457 166 148 132 
232 906 361 70 56 46 
383 345 508 155 154 163 
231 343 295 91 111 151 
267 320 418 88 100 113 
264 9 385 126 106 94 
298 637 432 163 119 106 
351 739 282 158 76 80 
259 505 300 67 94 122 
236 197 405 62 49 72 
308 160 475 106 96 89 
246 310 479 141 94 108 
438 201 489 159 114 117 
101 684 357 159 169 191 
190 33 455 137 125 120 
144 572 447 41 59 85 
376 659 391 55 80 116 
158 830 383 173 150 132 
235 397 456 67 91 135 
165 834 358 192 159 124 
255 494 309 120 125 136 
350 659 417 92 119 165 
227 881 360 163 124 94 
427 214 502 90 108 127 
316 285 462 137 138 145 
209 631 478 156 102 95 
160 433 350 87 109 145 
212 378 435 57 93 122 
275 681 283 174 178 197 
259 908 403 168 132 96 
180 972 420 106 87 74 
34 685 428 70 104 159 
328 495 477 121 143 178 
286 229 455 108 83 82 
314 469 413 71 94 138 
382 197 526 71 38 42 
188 37 453 136 125 120 
219 660 464 109 130 195 
178 164 337 94 85 76 
234 880 401 142 108 75 
393 175 509 166 81 55 
292 388 293 111 123 137 
266 726 296 203 162 105 
89 643 403 76 112 141 
160 381 350 96 98 105 
189 38 452 126 115 109 
217 1007 359 160 123 99 
180 496 344 136 148 170 
204 190 423 42 36 51 
290 360 437 98 97 99 
396 672 380 101 132 163 
187 834 335 166 127 93 
303 612 368 66 85 105 
305 599 409 104 116 133 
80 759 420 173 177 194 
322 227 472 89 83 99 
204 458 330 170 166 170 
280 831 316 246 180 143 
305 554 463 128 153 185 
180 156 330 99 89 82 
109 667 356 91 107 125 
278 339 292 82 102 123 
299 429 366 103 123 146 
157 276 379 74 107 134 
242 705 464 108 148 184 
105 795 412 224 115 123 
309 477 364 88 111 144 
270 338 398 108 75 20 
168 226 389 87 85 97 
241 391 294 95 124 156 
288 379 405 111 116 125 
217 474 460 149 145 148 
111 656 380 109 129 151 
89 769 410 140 161 200 
140 646 420 54 83 129 
155 567 469 122 128 142 
316 608 385 99 91 86 
180 982 406 87 72 63 
312 405 433 75 69 76 
314 754 286 134 120 111 
344 771 343 140 104 71 
187 35 456 138 126 120 
192 648 335 71 83 118 
206 396 318 72 103 175 
377 362 498 197 168 136 
184 33 460 134 122 116 
194 421 454 89 106 131 
217 745 298 162 90 82 
173 619 398 67 77 88 
316 343 456 109 53 74 
246 240 471 103 54 65 
195 742 465 199 136 132 
282 565 283 181 182 191 
184 35 460 139 127 120 
236 417 446 155 150 152 
162 229 351 89 42 27 
272 614 456 158 161 171 
340 614 398 161 115 99 
367 360 499 208 178 149 
197 665 318 145 144 149 
397 301 512 125 140 159 
383 222 512 125 40 17 
71 721 447 161 171 195 
263 306 418 67 94 116 
277 202 453 115 30 44 
160 255 385 90 68 63 
234 139 315 97 87 82 
98 659 447 127 90 77 
205 631 480 162 107 99 
265 327 397 113 81 36 
258 527 284 128 135 147 
68 710 383 87 113 175 
317 543 349 125 140 162 
297 620 347 75 80 88 
126 661 410 115 128 149 
239 766 300 126 114 104 
264 165 442 93 48 62 
307 416 453 25 50 75 
187 39 457 112 95 80 
61 709 394 171 171 180 
196 723 467 126 148 173 
160 231 350 101 21 45 
251 339 284 106 116 130 
195 675 450 108 114 157 
250 117 453 124 110 99 
288 342 326 93 114 137 
285 755 292 109 96 85 
106 793 400 118 119 152 
419 184 501 139 78 10 
440 184 490 154 69 4 
115 780 379 149 155 166 
238 199 299 129 32 56 
155 324 383 111 117 127 
423 709 313 169 179 230 
334 486 460 150 162 183 
225 787 424 101 108 126 
158 639 406 53 87 122 
200 517 336 151 151 157 
139 525 422 74 99 146 
264 506 446 155 154 160 
149 363 380 151 126 98 
318 240 466 86 94 111 
168 389 330 77 119 152 
325 443 487 74 107 168 
350 688 274 70 92 119 
225 990 348 139 110 88 
171 149 280 128 126 128 
366 267 494 131 120 121 
59 712 451 143 145 184 
376 758 317 179 110 86 
271 522 284 88 118 150 
152 740 431 118 130 145 
233 699 285 158 175 198 
321 219 468 104 78 77 
159 796 433 161 136 122 
304 154 478 115 93 80 
238 108 465 76 66 57 
345 430 488 46 81 150 
300 366 321 123 136 153 
165 909 354 108 85 62 
205 419 325 98 126 164 
330 647 313 52 93 127 
140 483 390 114 131 156 
177 773 323 112 120 130 
312 482 318 195 191 197 
302 773 384 195 144 107 
379 682 284 72 98 123 
157 429 442 120 100 80 
307 341 460 83 94 114 
53 652 447 90 77 64 
190 283 416 75 90 105 
335 795 336 118 148 176 
278 545 454 46 70 138 
304 392 310 129 137 150 
239 667 463 111 113 121 
143 406 395 174 149 125 
64 649 461 110 89 67 
373 622 328 58 78 97 
316 425 434 91 93 98 
227 128 300 106 87 73 
321 461 481 79 111 162 
332 352 452 129 98 93 
140 752 433 119 133 152 
326 718 415 97 120 143 
288 379 347 127 139 155 
139 653 396 99 126 154 
191 44 454 117 99 84 
247 813 300 183 129 90 
376 716 374 181 74 87 
232 168 398 40 39 42 
417 181 502 140 74 6 
227 300 468 120 15 36 
182 931 328 93 74 54 
277 282 445 90 82 75 
307 720 284 113 52 61 
257 362 281 107 124 144 
354 744 285 155 31 41 
197 170 408 46 51 60 
165 379 345 142 135 136 
205 813 406 155 107 93 
145 768 348 97 69 89 
171 1000 358 129 100 76 
159 643 362 28 51 71 
331 434 490 45 86 162 
389 652 379 125 138 155 
160 674 420 55 104 143 
277 357 350 92 112 135 
241 198 317 97 47 58 
151 916 374 93 73 56 
371 258 519 111 84 97 
226 194 360 45 60 74 
282 572 291 106 144 179 
258 583 458 93 113 136 
242 889 401 156 120 89 
232 653 275 73 108 159 
162 614 456 47 51 57 
211 598 314 140 141 148 
235 211 333 125 121 121 
308 659 273 67 75 93 
200 630 323 72 106 134 
176 964 342 94 68 49 
384 305 515 163 163 172 
191 546 343 134 142 156 
357 330 492 186 158 130 
226 763 445 159 139 133 
134 643 462 130 93 79 
148 502 366 73 103 149 
197 625 328 70 125 169 
218 163 282 122 54 56 
317 523 470 181 186 199 
318 519 397 100 112 138 
188 43 461 137 117 97 
263 476 300 122 140 163 
390 690 286 124 139 159 
84 691 366 48 110 152 
205 548 336 137 148 168 
229 720 467 134 166 197 
206 863 429 125 101 78 
152 644 399 66 102 135 
374 709 380 129 162 194 
151 631 435 38 80 111 
217 325 294 206 155 98 
143 659 345 115 137 201 
176 487 345 156 152 155 
253 607 264 106 132 162 
136 635 412 30 64 142 
190 44 456 122 104 87 
241 386 293 68 105 150 
255 835 346 214 157 130 
227 176 287 129 95 52 
151 349 367 170 146 118 
283 829 335 218 161 132 
414 279 503 132 35 88 
300 424 290 126 137 152 
159 395 355 85 97 121 
255 238 320 132 131 135 
183 337 433 98 111 126 
176 783 439 178 173 185 
266 274 475 83 82 91 
96 663 471 169 117 89 
338 490 475 112 136 195 
268 312 296 108 121 135 
221 527 456 179 176 180 
292 650 433 122 100 89 
303 412 298 115 125 139 
378 211 514 100 50 37 
156 266 352 42 82 119 
423 229 488 76 87 108 
320 400 436 99 82 82 
322 497 340 112 132 156 
328 654 297 144 146 154 
239 886 403 156 119 85 
289 776 397 215 155 124 
189 46 462 138 117 97 
222 745 297 115 99 85 
179 959 429 204 158 136 
265 359 483 172 167 171 
151 448 371 100 110 133 
239 425 447 93 110 138 
345 744 283 205 164 109 
210 175 276 132 61 35 
197 630 330 74 105 139 
255 159 467 132 89 61 
267 279 476 138 136 140 
304 407 340 131 146 165 
408 222 505 150 27 49 
155 583 394 172 165 165 
206 887 438 129 73 68 
240 783 420 173 165 162 
270 479 278 96 124 153 
196 233 279 86 128 163 
352 676 280 131 128 128 
235 892 419 169 123 92 
185 35 465 161 148 143 
156 521 468 163 160 164 
247 777 422 166 169 177 
369 289 501 147 148 157 
294 497 301 87 112 143 
318 494 403 121 130 151 
289 650 442 49 39 56 
271 828 337 221 163 133 
306 773 383 181 131 97 
238 252 291 90 115 140 
179 873 382 161 123 94 
224 186 340 65 76 89 
230 940 429 185 137 111 
233 881 418 155 113 82 
138 471 427 116 66 71 
294 806 301 156 114 77 
185 744 461 127 134 150 
193 141 286 52 70 87 
321 771 376 130 128 130 
292 364 302 91 114 138 
128 732 369 119 127 156 
267 491 282 132 140 155 
277 299 312 94 118 142 
94 664 430 50 80 119 
309 473 371 148 148 156 
185 36 464 154 143 139 
206 141 460 86 45 66 
307 483 473 113 132 169 
164 714 350 85 101 119 
138 723 420 85 101 135 
159 670 349 42 47 68 
230 326 471 127 55 89 
186 37 465 140 124 114 
313 551 400 86 110 149 
177 989 332 149 110 77 
276 310 316 101 122 142 
337 148 504 184 80 10 
210 686 310 80 117 147 
245 267 353 90 103 118 
225 192 341 96 86 78 
114 774 381 156 163 177 
254 540 276 123 122 137 
349 623 391 163 118 98 
174 371 306 96 122 156 
167 519 480 105 129 171 
308 703 439 177 82 32 
258 233 473 136 134 137 
187 36 469 157 143 137 
255 835 316 250 188 151 
178 553 352 133 147 170 
240 216 327 104 111 122 
155 585 461 62 89 127 
223 971 418 122 92 76 
207 797 419 198 178 166 
188 34 470 167 154 149 
278 149 462 109 91 83 
53 695 403 136 137 144 
219 309 290 202 142 79 
313 510 427 99 110 151 
190 273 282 150 147 150 
202 400 321 94 124 175 
252 757 429 178 148 117 
398 332 500 111 147 180 
178 627 483 186 131 119 
132 700 368 104 118 178 
111 641 450 110 90 84 
269 200 447 100 44 35 
203 544 336 163 160 166 
284 397 474 129 149 176 
366 738 288 180 167 172 
188 38 468 135 112 90 
197 604 474 38 46 55 
159 947 352 113 93 72 
157 662 420 76 126 162 
243 602 266 104 128 159 
322 474 340 118 138 161 
317 519 470 103 127 162 
396 662 379 56 95 152 
190 37 470 132 113 99 
209 781 307 144 126 111 
339 284 472 80 114 143 
330 202 484 98 56 82 
421 679 296 143 148 159 
222 986 364 81 57 43 
167 220 290 131 106 104 
230 976 350 125 101 83 
213 741 298 144 37 37 
240 634 468 175 119 115 
417 661 311 127 142 161 
229 600 307 136 122 123 
200 164 419 42 34 36 
268 528 446 103 117 145 
322 347 449 128 104 98 
260 423 287 112 131 162 
91 653 477 156 112 86 
390 241 502 114 52 66 
330 772 291 134 116 108 
173 335 325 144 124 104 
225 213 468 88 42 71 
247 948 368 87 74 62 
374 358 506 135 152 172 
182 740 459 132 97 112 
260 570 457 96 118 159 
366 704 275 96 126 153 
428 174 489 114 102 91 
82 678 462 164 107 88 
382 227 510 98 55 58 
278 568 452 107 126 153 
313 543 341 138 151 170 
197 930 324 59 48 41 
305 496 470 65 96 154 
154 827 366 149 135 125 
119 627 446 88 86 87 
178 886 359 128 96 70 
297 168 465 123 63 18 
265 273 475 81 91 104 
189 41 466 137 114 90 
173 635 347 64 77 90 
310 339 448 108 120 135 
228 854 366 181 135 105 
218 895 433 185 136 113 
82 681 368 76 111 141 
294 722 435 89 101 130 
150 673 415 92 108 154 
296 371 469 65 103 139 
374 652 397 28 64 135 
190 41 467 135 111 86 
307 255 459 105 97 105 
256 499 305 96 111 131 
180 763 321 130 72 77 
223 795 417 101 105 112 
199 884 437 113 52 52 
298 343 463 75 78 97 
212 133 296 89 83 80 
305 589 358 104 100 100 
245 457 315 176 174 181 
297 143 468 136 94 62 
237 180 296 107 103 102 
180 877 421 149 116 86 
316 679 270 94 121 174 
167 407 455 65 92 127 
228 157 327 81 82 90 
315 397 434 78 90 108 
168 912 418 174 130 106 
321 351 448 103 105 112 
160 459 458 85 104 133 
97 785 421 167 186 210 
312 502 469 177 184 199 
237 407 455 61 80 127 
305 584 430 77 107 152 
172 451 469 120 137 161 
185 990 382 101 67 39 
201 141 450 129 36 22 
252 286 402 87 90 96 
149 692 351 72 100 132 
191 44 467 131 110 88 
404 309 504 177 177 185 
215 340 449 154 111 52 
234 326 473 114 99 116 
369 645 297 37 68 89 
275 460 466 147 156 175 
171 636 347 65 77 89 
388 665 386 72 83 136 
190 657 458 122 128 189 
211 721 296 106 110 131 
349 363 507 185 181 185 
227 539 455 137 145 158 
271 483 275 110 130 161 
280 366 397 118 120 125 
242 427 451 79 93 134 
168 456 337 126 136 178 
350 352 509 188 181 182 
274 148 461 109 92 95 
309 783 359 189 130 98 
191 49 458 123 105 89 
200 397 319 90 121 175 
324 695 271 167 177 196 
163 579 377 126 141 162 
177 1008 367 136 113 90 
245 950 382 66 54 43 
163 210 369 132 92 65 
292 355 438 91 90 93 
354 310 485 114 132 151 
190 49 461 128 108 89 
318 351 453 100 73 78 
225 177 376 89 47 44 
190 48 463 133 112 92 
193 867 418 117 92 64 
170 526 480 151 158 171 
165 368 422 107 108 117 
191 50 460 127 107 90 
79 700 450 120 131 147 
236 226 357 73 59 68 
254 901 413 140 114 89 
341 765 292 162 149 142 
202 975 327 118 89 50 
355 224 502 140 29 44 
274 11 398 100 84 72 
408 259 501 77 80 101 
323 161 487 106 101 99 
364 652 403 108 131 168 
325 781 297 185 152 121 
164 331 328 94 146 191 
229 927 429 134 109 84 
269 601 460 144 156 173 
191 53 463 125 102 83 
311 419 432 67 76 88 
199 743 308 134 47 57 
378 642 368 127 100 71 
58 652 435 99 89 79 
107 705 365 156 169 199 
146 822 407 173 154 139 
183 389 312 120 149 194 
203 329 423 83 101 120 
245 242 471 106 60 67 
368 273 517 160 76 8 
180 157 335 98 90 86 
233 954 340 80 61 51 
182 458 340 107 121 159 
268 672 275 173 172 179 
189 754 460 101 111 153 
318 808 309 201 150 110 
149 364 382 159 135 109 
158 317 399 136 136 142 
347 722 276 163 26 25 
250 909 391 144 108 84 
314 474 351 100 126 151 
176 533 348 84 109 137 
248 959 365 112 85 63 
332 665 418 100 119 139 
139 794 357 103 110 125 
292 804 299 162 125 89 
340 253 484 104 88 73 
293 810 301 166 119 79 
187 78 439 118 97 74 
265 332 364 91 106 123 
386 738 299 182 179 184 
207 234 429 116 112 114 
290 548 456 83 91 143 
160 289 342 114 89 90 
181 284 303 90 103 121 
140 447 385 123 103 83 
231 525 451 95 116 142 
124 777 372 165 50 45 
155 634 477 184 124 110 
230 207 387 49 34 53 
319 530 341 129 153 181 
198 274 415 110 112 118 
98 641 403 71 108 140 
266 691 459 118 132 149 
140 731 356 103 123 159 
208 416 450 139 138 144 
189 635 371 74 79 85 
362 242 502 37 60 84 
203 223 277 84 122 153 
275 357 384 122 97 63 
327 808 320 227 163 125 
305 776 376 170 121 95 
215 226 465 148 118 115 
319 560 362 106 122 142 
340 447 470 61 102 144 
190 735 465 97 131 162 
263 354 281 97 120 144 
289 176 459 76 58 86 
245 113 466 125 111 100 
205 656 315 149 147 153 
279 263 478 108 69 81 
134 820 394 187 132 94 
208 1011 365 129 104 80 
179 274 402 59 91 118 
179 440 336 105 125 179 
51 717 437 147 159 210 
316 533 456 137 152 172 
190 79 433 105 82 54 
156 464 354 68 97 142 
211 785 429 159 131 103 
163 249 318 100 89 103 
324 399 455 88 96 107 
354 181 521 142 38 20 
218 288 455 154 149 150 
218 806 408 202 142 119 
272 831 333 227 172 140 
244 132 408 129 72 7 
106 662 459 148 100 82 
283 330 474 171 140 108 
147 547 455 119 130 147 
221 504 330 123 130 143 
161 941 410 99 80 67 
188 79 436 115 92 66 
195 194 259 196 90 4 
189 78 436 110 88 62 
99 647 394 63 109 143 
317 773 289 166 138 115 
149 406 361 154 147 147 
310 304 452 80 100 120 
255 296 347 77 97 118 
167 189 380 111 96 90 
235 895 377 144 109 82 
163 222 381 109 51 68 
181 855 375 173 126 97 
361 153 526 146 73 8 
318 442 454 104 97 90 
230 707 470 144 167 192 
201 500 471 174 171 176 
332 803 325 206 152 125 
160 365 342 146 145 152 
187 79 444 118 98 78 
157 293 375 134 132 135 
376 647 391 65 108 141 
303 544 328 138 155 178 
279 831 330 227 169 141 
303 465 465 63 90 136 
190 73 441 106 87 67 
145 586 448 32 76 115 
312 710 436 198 78 19 
107 639 448 105 91 85 
190 73 442 110 91 70 
292 505 296 107 129 154 
296 401 347 69 100 143 
224 349 297 97 117 148 
172 346 422 108 104 118 
339 751 373 185 164 150 
307 455 355 102 126 151 
319 495 441 112 131 178 
214 332 447 138 99 42 
132 653 381 68 108 144 
152 753 346 104 71 76 
233 213 349 89 43 54 
169 964 347 140 108 77 
266 826 350 211 150 125 
319 483 352 144 150 163 
247 715 455 89 105 127 
129 819 405 76 73 73 
181 568 356 140 146 158 
223 379 441 63 99 130 
232 937 336 76 58 49 
229 874 404 130 96 64 
87 769 419 142 157 200 
281 484 465 163 170 183 
300 806 351 196 148 113 
302 392 304 57 88 114 
237 224 348 124 119 119 
277 301 312 108 129 152 
161 761 440 140 33 40 
269 321 422 85 96 109 
228 516 314 68 102 146 
307 134 481 152 87 32 
277 301 307 99 119 139 
354 679 414 129 157 185 
280 819 345 200 141 109 
275 338 291 87 107 128 
215 680 461 90 112 153 
338 156 501 147 88 42 
166 934 417 165 126 99 
137 491 429 109 125 146 
258 469 307 108 125 166 
99 648 415 51 82 116 
194 213 276 121 26 43 
334 628 392 118 79 64 
180 535 478 107 124 154 
213 935 326 65 53 43 
262 301 480 103 123 145 
294 159 471 118 67 83 
211 959 434 196 142 118 
164 470 466 145 155 170 
242 223 411 112 43 24 
164 602 461 44 74 104 
394 686 287 127 139 155 
263 399 280 121 136 169 
190 770 447 98 95 98 
341 366 477 161 146 137 
140 751 432 110 130 151 
233 850 355 179 134 109 
148 476 447 71 95 134 
154 365 398 161 137 113 
158 275 374 77 106 130 
243 284 477 114 128 145 
303 411 460 45 67 94 
188 79 446 117 97 77 
140 569 435 131 139 152 
286 137 473 114 97 83 
233 374 298 131 146 167 
187 87 427 116 89 50 
239 548 454 98 110 126 
71 657 398 86 103 121 
229 342 468 163 100 119 
157 258 374 106 70 80 
289 376 473 63 105 150 
232 706 470 152 173 197 
229 627 302 135 135 140 
235 579 463 176 172 176 
220 923 325 68 54 46 
222 179 283 136 92 54 
299 363 316 109 126 145 
343 727 392 76 73 118 
205 370 433 49 83 113 
268 491 453 110 127 153 
171 240 393 128 79 73 
232 581 464 165 162 166 
186 86 431 125 95 53 
168 576 476 75 77 100 
133 663 345 102 133 175 
74 640 451 92 79 67 
331 187 486 118 76 65 
65 654 412 96 110 128 
171 181 360 100 95 92 
299 548 311 151 159 173 
167 549 358 215 196 182 
179 875 405 122 98 72 
185 479 470 52 80 134 
215 864 332 172 127 90 
440 176 487 106 97 93 
385 651 386 138 147 163 
319 751 396 132 115 103 
309 555 455 75 108 161 
186 218 413 62 71 82 
153 757 341 126 120 122 
256 300 346 134 110 91 
149 825 374 166 137 112 
126 729 371 128 135 152 
56 665 409 58 84 110 
249 253 414 119 116 117 
176 318 413 116 127 143 
193 631 481 197 139 130 
296 456 295 137 158 187 
99 666 461 154 101 83 
190 82 430 105 81 48 
264 483 297 115 131 152 
158 905 375 103 80 52 
410 204 514 89 82 97 
390 691 285 122 137 159 
230 95 469 106 88 69 
407 665 346 65 61 58 
175 328 315 149 109 59 
237 160 403 97 38 31 
202 506 471 138 150 169 
99 788 420 178 190 209 
173 720 329 117 121 131 
326 292 477 112 134 158 
174 152 275 146 91 41 
275 562 450 78 97 124 
186 259 288 101 77 74 
354 329 485 184 154 123 
304 700 440 191 126 24 
325 261 471 126 62 87 
414 221 511 157 86 73 
139 704 358 99 113 131 
320 312 458 128 121 119 
301 736 286 108 87 64 
370 150 521 125 106 93 
268 783 409 208 148 119 
209 158 461 98 33 34 
312 264 470 120 120 127 
394 278 508 75 115 145 
163 928 349 79 62 50 
55 675 466 163 116 95 
381 195 514 92 56 63 
243 673 271 139 59 91 
162 508 474 137 151 170 
270 231 448 93 35 44 
191 131 278 137 80 52 
346 463 467 95 129 166 
258 117 473 138 124 110 
310 413 333 90 120 151 
166 168 367 131 62 3 
257 714 453 193 154 110 
76 753 411 128 143 192 
194 516 337 148 153 165 
289 616 306 79 76 76 
169 540 482 84 112 148 
47 686 458 164 119 96 
177 841 346 185 137 106 
244 816 387 203 137 115 
159 542 363 106 127 155 
138 653 355 75 104 134 
160 477 345 182 181 187 
395 339 497 136 151 168 
172 464 471 107 125 149 
274 350 395 129 98 67 
156 305 375 130 129 133 
273 167 463 98 73 85 
350 335 485 191 165 138 
389 741 305 171 180 193 
365 400 487 203 145 72 
266 795 399 212 154 126 
273 332 340 145 91 110 
299 571 458 128 163 204 
176 169 275 115 100 84 
302 138 484 152 73 10 
263 320 400 97 107 120 
194 643 331 105 105 124 
397 642 330 144 149 159 
147 428 370 158 100 54 
89 640 413 75 92 109 
217 730 295 162 79 75 
422 685 335 182 185 199 
343 781 338 202 187 179 
240 306 294 98 117 136 
247 507 443 94 110 135 
229 131 330 121 102 87 
150 465 374 97 120 147 
185 90 429 131 100 58 
234 560 308 174 170 175 
353 355 496 177 148 117 
276 209 448 121 53 38 
390 265 506 116 72 97 
58 663 466 140 104 78 
182 641 464 172 123 118 
397 642 307 112 124 139 
333 638 403 83 87 95 
139 434 398 160 71 1 
368 178 525 142 46 26 
143 442 420 153 71 0 
155 648 343 75 109 144 
178 392 448 91 102 125 
219 407 440 58 82 122 
219 459 456 129 129 136 
161 318 404 128 127 131 
175 638 468 170 119 111 
221 328 460 152 115 66 
393 226 506 133 60 50 
264 28 382 128 114 116 
169 648 447 110 115 155 
168 388 327 74 117 151 
266 826 348 209 147 120 
258 312 388 96 96 100 
394 721 349 172 97 110 
234 181 317 126 95 72 
207 863 423 114 88 59 
186 637 353 66 77 88 
313 495 321 128 143 169 
249 141 420 130 71 2 
245 579 463 160 155 158 
141 652 393 101 127 154 
308 408 433 70 74 84 
280 514 461 68 99 150 
234 809 303 151 112 80 
149 639 471 163 110 94 
207 956 328 118 91 64 
219 834 381 166 109 90 
233 245 291 102 90 85 
280 310 309 113 129 149 
111 674 351 148 154 170 
275 489 275 118 144 180 
254 441 456 102 122 148 
338 767 354 141 109 67 
273 215 475 114 29 59 
347 610 385 117 102 89 
50 677 463 167 122 101 
164 392 429 164 137 108 
283 378 368 99 118 139 
342 731 278 138 12 34 
326 795 303 185 168 157 
343 792 326 180 157 145 
240 624 267 134 149 167 
270 821 352 225 165 138 
365 769 312 158 147 138 
188 91 425 122 89 49 
206 151 458 94 45 38 
179 264 298 68 97 134 
238 640 462 186 175 173 
376 358 506 152 163 180 
389 304 505 131 121 126 
389 725 352 137 183 222 
185 951 335 108 80 49 
202 738 306 133 26 42 
157 324 400 108 123 140 
256 16 403 102 93 87 
285 740 430 158 138 122 
275 738 433 114 101 95 
407 296 498 186 186 193 
324 197 477 137 78 52 
259 173 437 126 37 12 
169 212 280 82 94 117 
339 645 307 78 97 117 
286 661 454 137 86 34 
155 486 458 88 107 141 
189 95 426 138 90 73 
296 530 300 96 117 146 
172 359 313 97 123 149 
190 95 425 134 91 71 
302 592 357 94 95 99 
169 576 477 80 88 111 
188 95 428 142 93 78 
226 129 348 60 67 83 
233 452 443 89 106 146 
196 166 410 39 36 45 
156 262 371 86 75 89 
331 432 475 114 72 53 
332 148 504 143 83 47 
173 387 452 147 139 137 
279 307 441 97 103 113 
57 703 397 129 137 160 
187 81 435 119 94 63 
63 692 461 159 115 105 
214 820 398 187 130 111 
379 226 523 103 30 49 
187 82 432 113 87 54 
158 174 310 114 102 92 
330 484 477 123 143 171 
301 803 301 186 163 146 
139 739 358 106 128 165 
268 509 275 98 126 156 
308 428 427 64 80 96 
158 456 340 96 125 158 
310 436 301 166 166 172 
138 555 428 95 115 150 
160 457 458 124 130 141 
313 660 272 101 114 131 
89 667 370 31 62 108 
146 432 372 144 118 96 
275 486 461 110 130 157 
296 354 318 81 112 139 
173 336 418 133 128 127 
176 415 459 94 113 142 
239 665 462 95 98 105 
210 314 425 117 120 128 
320 469 456 34 58 107 
245 706 462 116 150 182 
150 583 415 164 155 152 
346 348 487 183 162 145 
179 755 321 141 32 45 
139 643 470 167 114 97 
331 244 480 94 89 102 
218 371 438 67 102 131 
254 924 403 128 106 86 
322 812 326 215 155 120 
116 627 474 108 89 70 
184 887 341 93 74 57 
250 333 482 139 38 83 
67 740 412 211 204 206 
159 953 354 113 91 70 
181 985 399 85 68 58 
379 748 300 202 32 65 
206 159 429 80 27 28 
297 420 370 125 133 146 
185 86 432 128 99 60 
247 731 292 153 10 26 
267 337 381 106 65 81 
263 254 474 119 132 149 
165 194 272 163 78 3 
313 581 365 129 132 141 
344 767 296 170 140 115 
186 84 432 119 92 56 
186 84 433 120 93 59 
354 323 483 141 80 70 
345 161 516 103 45 40 
301 438 364 126 142 162 
164 943 417 122 96 79 
91 733 443 87 107 166 
159 246 325 144 81 97 
284 262 472 83 75 68 
172 676 346 146 149 167 
323 158 497 56 80 109 
204 865 397 133 104 76 
308 369 453 42 66 87 
247 942 370 72 58 48 
356 204 512 135 44 39 
180 308 302 136 117 97 
216 394 438 90 103 122 
165 359 433 149 122 92 
157 664 358 49 73 125 
218 146 297 60 71 83 
193 133 376 87 76 66 
239 196 310 99 32 40 
229 585 464 113 139 167 
401 648 328 153 159 173 
127 696 369 176 177 198 
223 136 350 66 92 115 
384 219 523 104 45 37 
203 165 440 76 47 70 
94 676 431 69 92 121 
141 522 393 154 154 162 
156 909 370 71 59 48 
165 218 384 113 77 72 
229 910 337 76 61 52 
317 579 390 168 162 164 
328 716 275 163 172 184 
256 514 442 109 121 141 
316 414 445 65 69 75 
134 759 362 120 109 127 
183 683 335 114 117 124 
296 311 444 60 100 138 
366 410 494 144 108 71 
216 141 298 67 76 86 
94 643 445 106 92 83 
264 551 449 97 111 140 
187 80 443 120 100 79 
164 469 466 158 164 176 
347 278 488 86 116 144 
165 169 298 80 53 33 
250 251 325 84 93 113 
337 373 498 116 124 136 
246 911 374 171 100 77 
163 427 333 88 110 152 
281 181 460 49 68 85 
35 668 429 102 86 71 
313 551 402 142 152 171 
322 491 346 90 118 158 
162 358 416 152 129 106 
261 251 310 122 132 146 
307 739 284 158 133 123 
200 689 454 158 151 152 
174 586 373 178 163 153 
406 667 331 91 78 68 
262 159 438 116 96 87 
195 994 325 115 80 54 
183 679 338 113 113 119 
230 267 285 87 56 50 
160 235 381 60 74 96 
181 975 416 93 75 63 
303 564 445 52 71 111 
185 85 441 128 102 79 
230 685 466 130 146 165 
247 200 474 42 67 108 
364 662 289 47 63 86 
217 868 400 138 106 74 
256 513 442 127 135 150 
169 430 327 178 175 190 
366 369 499 171 90 62 
249 490 313 98 118 149 
162 907 388 144 77 67 
188 240 406 121 108 101 
196 918 323 59 50 43 
238 278 474 127 132 143 
186 85 443 127 100 79 
232 458 319 124 138 175 
68 737 401 135 138 184 
270 335 419 115 113 116 
333 762 369 129 104 88 
268 605 305 69 79 90 
152 594 417 91 101 116 
163 555 479 102 130 178 
207 950 440 196 151 128 
314 440 473 61 86 125 
395 333 506 96 136 171 
208 138 283 50 77 112 
340 366 499 152 150 154 
174 966 343 92 67 40 
316 505 467 138 151 172 
97 761 393 106 105 157 
187 86 445 130 106 86 
360 403 495 182 100 46 
179 695 436 71 86 137 
330 655 304 141 144 153 
329 653 308 140 142 151 
274 262 447 125 95 64 
243 436 306 176 176 186 
374 713 376 129 149 168 
199 632 481 179 120 110 
227 638 297 110 122 137 
363 753 341 149 132 122 
219 677 291 117 114 118 
248 578 268 159 159 166 
155 308 361 78 74 91 
179 230 277 205 107 61 
232 254 471 81 101 121 
270 19 400 142 97 84 
72 683 378 133 135 144 
363 221 513 118 46 52 
319 269 478 90 61 72 
33 662 436 113 93 71 
297 620 320 68 91 113 
345 787 331 187 177 173 
366 633 376 139 106 77 
221 588 308 90 119 144 
354 718 381 198 158 122 
231 632 278 141 142 148 
245 267 351 105 115 127 
285 667 284 158 173 207 
209 590 322 129 138 153 
165 207 343 75 46 49 
321 457 483 139 160 187 
427 174 481 161 87 46 
150 358 366 130 25 59 
214 904 438 188 129 116 
184 89 436 142 107 86 
211 968 428 170 129 104 
205 633 314 79 118 150 
236 770 432 224 203 188 
293 351 327 72 111 143 
314 468 429 50 71 90 
237 312 293 103 120 140 
390 653 336 93 80 69 
161 365 417 140 101 85 
171 208 270 136 143 156 
267 646 278 137 135 139 
47 709 418 144 149 183 
245 228 414 114 47 20 
264 664 458 70 59 65 
155 957 377 79 56 48 
171 330 413 151 130 111 
257 695 460 115 111 111 
236 596 300 128 120 128 
309 475 363 108 127 148 
291 402 286 87 111 136 
223 358 450 109 118 134 
232 179 396 36 52 74 
320 552 358 154 155 164 
185 92 435 146 106 96 
89 684 442 79 88 118 
144 551 401 110 128 163 
122 641 421 100 121 155 
126 677 417 145 150 163 
397 227 521 109 31 52 
231 854 358 179 134 107 
184 882 428 156 123 97 
74 736 390 141 154 186 
188 375 430 65 78 95 
302 413 295 89 109 131 
161 523 360 148 146 149 
203 522 335 105 122 145 
158 313 347 85 69 77 
313 728 429 114 92 81 
317 546 348 141 150 167 
177 949 338 83 63 45 
333 235 482 100 98 103 
197 299 282 134 54 69 
83 685 368 72 115 150 
190 401 321 77 120 179 
279 315 475 103 127 153 
354 157 508 132 110 87 
195 776 313 104 98 96 
166 382 340 94 105 124 
186 338 427 122 122 127 
225 656 282 114 130 155 
295 359 467 84 96 126 
227 623 478 171 116 114 
301 472 308 114 134 173 
419 679 325 77 68 61 
229 481 448 135 135 143 
186 95 436 146 101 92 
200 738 468 144 129 139 
198 419 453 78 100 128 
304 630 303 80 99 118 
340 265 485 127 123 128 
347 705 415 102 149 188 
70 654 469 126 97 67 
413 688 347 93 122 196 
223 998 351 137 109 84 
220 510 324 117 127 143 
200 468 332 75 102 157 
260 785 410 209 151 123 
268 304 426 76 103 126 
110 625 467 103 88 73 
269 254 443 93 86 85 
185 90 440 143 110 94 
354 143 519 130 103 83 
250 287 369 105 109 117 
224 223 468 111 43 69 
230 942 334 82 63 48 
274 626 446 114 71 78 
417 239 495 114 81 94 
292 352 328 78 116 146 
236 526 451 130 143 163 
161 223 370 124 39 63 
186 91 440 144 107 95 
262 301 337 151 113 68 
186 90 442 132 94 79 
172 332 327 94 109 127 
255 814 382 206 141 117 
318 521 388 139 149 163 
339 240 500 109 78 94 
426 220 485 105 112 125 
385 272 508 79 113 141 
222 295 288 102 119 141 
262 310 342 152 117 69 
351 614 338 79 106 130 
155 513 464 140 143 153 
249 420 297 110 140 175 
291 595 333 85 95 108 
299 561 315 125 138 155 
181 348 295 152 120 127 
193 810 410 183 122 122 
243 219 324 79 83 87 
324 146 491 153 92 32 
302 626 332 77 93 112 
313 779 362 141 100 71 
347 238 504 108 33 31 
212 411 445 121 128 141 
160 639 388 53 71 92 
290 473 296 144 153 169 
306 453 357 91 116 142 
302 421 348 66 96 141 
143 617 462 93 91 92 
243 430 304 111 135 165 
300 461 299 102 121 172 
155 467 456 90 112 140 
197 392 317 54 91 169 
260 782 298 75 85 97 
191 653 460 125 129 171 
277 205 460 111 60 57 
189 88 447 135 110 92 
144 528 446 98 114 148 
389 730 295 177 192 214 
197 526 470 159 165 177 
303 423 403 38 83 120 
214 155 466 128 29 32 
353 280 495 141 144 153 
124 656 377 73 113 150 
235 457 319 132 146 175 
139 501 436 128 131 141 
332 662 281 136 138 144 
306 651 276 74 92 111 
192 275 281 158 157 164 
273 585 454 122 132 147 
298 413 466 69 84 113 
117 629 441 88 83 81 
311 708 437 185 65 52 
179 595 475 99 118 139 
93 654 439 109 80 77 
177 652 334 68 126 172 
271 589 276 95 103 118 
224 783 303 136 114 91 
170 723 445 139 157 178 
406 650 320 104 121 147 
228 201 340 74 56 55 
198 183 400 93 68 80 
336 721 404 125 132 160 
156 640 402 63 96 129 
213 330 443 89 53 18 
216 829 389 176 117 97 
248 234 416 96 10 42 
208 631 313 73 109 143 
255 144 465 64 91 113 
271 654 456 55 50 83 
226 887 428 161 127 98 
277 787 399 209 149 121 
211 144 426 71 44 37 
357 618 374 119 101 83 
389 346 496 205 174 141 
168 603 392 92 92 96 
150 551 377 116 132 156 
152 465 450 95 117 142 
159 230 318 112 89 110 
136 501 408 81 106 151 
320 462 435 130 135 145 
244 408 462 57 82 133 
333 755 375 161 127 90 
185 230 281 179 92 59 
210 774 305 176 156 140 
249 114 469 126 112 101 
191 94 447 130 108 87 
319 455 324 96 123 155 
316 620 345 62 75 87 
161 700 353 106 131 158 
268 285 430 122 120 122 
371 716 374 85 109 127 
189 96 427 140 93 77 
189 97 427 140 92 77 
193 301 283 148 18 37 
176 299 314 127 134 149 
205 183 430 34 34 36 
300 370 316 107 124 144 
190 97 427 140 92 78 
191 96 426 138 95 78 
336 799 327 96 147 187 
142 409 392 168 143 117 
79 640 465 106 86 64 
302 390 334 87 117 152 
