ply
format ascii 1.0
comment Created by CloudCompare v2.11.1 (Anoia)
comment Created 2/28/22 9:39 PM
obj_info Generated by CloudCompare!
element vertex 2012
property float x
property float y
property float z
property uchar red
property uchar green
property uchar blue
end_header
171 137 279 147 105 61 
296 624 308 67 85 102 
216 59 439 101 82 61 
212 576 312 100 122 145 
338 446 478 70 101 160 
297 233 451 103 99 99 
168 582 470 50 75 128 
165 267 325 135 107 85 
396 260 499 116 37 69 
312 643 305 106 119 136 
221 765 444 149 136 130 
287 245 450 48 79 117 
160 727 351 121 122 129 
174 824 339 112 108 109 
151 340 384 126 47 61 
243 708 463 141 167 195 
197 151 415 37 65 90 
217 182 286 108 104 107 
222 277 461 113 130 149 
169 357 421 126 120 118 
186 356 296 134 148 180 
48 657 460 111 90 66 
424 690 302 112 127 144 
243 124 463 156 76 5 
157 225 323 113 99 120 
343 753 279 148 116 74 
179 800 420 191 161 139 
224 858 372 175 132 103 
219 58 441 102 84 67 
275 332 344 139 51 83 
105 633 425 81 95 110 
180 785 435 160 119 98 
189 351 426 111 112 121 
334 614 335 89 113 137 
177 931 326 88 68 50 
215 575 469 77 123 160 
128 713 375 24 58 100 
243 529 307 115 133 157 
182 152 379 100 79 52 
164 333 410 138 122 107 
217 890 341 93 71 57 
177 343 309 148 99 92 
196 704 316 112 126 147 
193 244 418 97 47 30 
360 399 488 190 76 11 
267 799 388 212 150 122 
312 400 313 148 152 161 
328 414 488 106 120 151 
228 251 289 87 114 140 
316 259 455 143 84 84 
321 145 490 124 84 46 
295 400 373 85 113 140 
293 753 419 172 166 167 
195 715 461 126 138 155 
144 628 435 55 100 134 
266 701 288 144 166 190 
236 194 320 98 52 58 
414 234 485 122 102 118 
230 634 473 176 122 110 
375 659 280 79 102 123 
229 899 424 178 133 105 
233 213 383 63 39 29 
63 674 474 162 115 92 
337 330 459 108 101 102 
339 211 494 96 37 41 
221 58 444 109 92 75 
269 776 412 175 157 143 
221 59 444 111 93 75 
388 235 504 106 70 88 
221 58 446 111 93 77 
373 385 485 205 175 144 
289 394 281 68 97 123 
223 940 328 64 51 45 
408 196 487 113 85 86 
247 521 449 164 165 172 
57 680 471 165 119 95 
232 182 294 77 92 107 
142 497 441 97 113 146 
394 652 352 64 71 79 
310 574 387 162 160 165 
260 457 449 67 82 125 
220 62 443 111 91 72 
187 705 323 135 137 144 
370 732 353 172 112 104 
269 131 459 147 76 28 
198 705 458 129 141 158 
267 506 281 87 108 131 
284 191 454 49 51 66 
342 266 475 128 118 123 
312 436 291 147 154 169 
182 355 298 93 119 151 
298 790 356 208 144 114 
153 643 414 69 111 143 
164 645 440 63 76 96 
169 190 267 136 118 105 
312 271 463 142 143 151 
309 572 400 170 164 164 
340 179 494 101 37 73 
321 140 486 167 80 6 
424 693 307 157 164 178 
228 431 318 88 119 167 
43 667 431 50 80 102 
390 313 492 120 137 157 
195 170 390 91 71 63 
322 477 450 29 61 109 
236 400 303 146 160 182 
182 999 380 160 127 90 
221 508 456 117 130 154 
247 946 392 107 87 74 
335 482 475 121 147 188 
249 268 404 121 118 120 
209 886 435 128 73 62 
363 622 335 51 54 101 
363 697 269 65 96 132 
247 661 458 69 75 92 
305 594 421 128 141 161 
68 647 438 74 76 80 
190 131 368 95 79 63 
414 678 333 76 106 159 
166 286 400 67 97 123 
355 290 499 124 136 154 
190 749 460 184 112 113 
279 352 412 70 84 97 
213 290 424 77 64 79 
301 588 439 59 106 163 
145 399 381 175 152 131 
294 623 304 69 91 111 
389 718 350 194 163 174 
333 375 454 159 52 82 
178 409 449 85 85 123 
181 971 422 107 87 75 
259 148 465 65 90 111 
156 233 329 132 54 81 
162 962 403 107 87 71 
112 681 354 81 104 127 
207 793 421 213 187 165 
311 413 297 114 130 149 
205 996 329 127 87 63 
200 974 327 121 92 52 
231 724 466 106 147 181 
166 528 355 161 155 155 
327 355 444 124 81 23 
276 663 456 100 109 119 
199 796 420 212 181 153 
266 656 277 96 123 152 
231 132 469 148 69 20 
191 629 376 77 78 82 
339 405 482 167 131 91 
194 544 481 165 160 161 
226 14 390 99 99 105 
318 427 332 115 134 155 
312 554 426 97 118 147 
96 672 460 147 98 80 
45 655 447 84 75 67 
272 682 283 130 153 191 
191 130 353 93 77 59 
182 823 333 159 127 93 
229 11 384 123 115 113 
178 476 468 73 83 112 
235 823 382 200 127 106 
228 11 387 120 113 112 
403 716 332 162 183 208 
380 241 508 86 42 39 
230 10 384 121 113 112 
230 10 385 120 113 111 
278 518 452 142 152 169 
212 986 404 106 89 72 
333 386 468 137 91 94 
126 763 441 131 144 162 
223 414 315 126 149 184 
357 145 515 134 111 94 
68 737 423 167 176 195 
351 278 478 79 117 147 
266 347 283 98 117 138 
350 616 356 86 88 93 
339 747 274 204 136 95 
243 351 288 69 111 168 
159 831 378 168 157 154 
276 568 447 81 96 116 
168 163 327 78 66 60 
195 483 334 172 167 171 
293 122 478 139 99 71 
271 333 407 118 117 119 
190 133 283 114 51 38 
167 645 353 34 45 56 
231 11 390 111 104 103 
322 480 438 91 120 161 
344 321 473 127 128 136 
358 330 512 81 130 168 
147 560 450 80 110 148 
286 369 395 103 108 115 
49 661 465 123 98 70 
210 319 287 208 159 104 
251 435 448 84 104 143 
177 437 331 94 132 175 
162 615 460 47 49 53 
246 532 304 96 114 135 
283 763 285 133 119 110 
227 14 392 89 87 89 
71 684 388 146 151 163 
352 233 488 53 57 72 
211 176 282 137 79 59 
261 834 319 249 194 161 
305 534 321 111 134 163 
236 221 322 90 97 108 
306 562 437 67 81 134 
280 239 470 89 101 118 
158 981 345 137 108 83 
345 613 338 78 97 116 
191 647 462 179 180 202 
223 355 445 142 138 141 
313 334 437 109 117 130 
196 910 438 186 138 122 
139 537 425 115 128 157 
125 655 378 56 110 149 
185 490 337 155 157 167 
176 617 396 58 71 84 
230 12 392 107 100 98 
92 698 450 91 101 128 
290 565 308 88 110 159 
243 570 281 117 134 153 
137 628 428 26 94 145 
275 746 426 156 132 110 
174 508 480 178 181 192 
241 943 353 80 62 51 
231 13 395 105 97 94 
161 224 357 124 51 45 
147 513 373 72 101 136 
184 769 321 127 118 116 
198 605 322 123 131 146 
237 971 371 86 69 60 
137 522 406 141 141 151 
241 293 472 129 72 87 
198 622 346 89 92 98 
285 305 469 172 170 176 
243 470 440 88 105 147 
194 786 430 79 72 74 
226 508 451 115 125 141 
169 259 297 126 93 134 
144 799 356 190 155 116 
330 389 463 178 155 132 
341 244 477 74 81 92 
167 462 462 92 115 144 
269 593 316 79 80 82 
328 279 460 84 116 146 
311 546 432 74 95 164 
235 10 385 111 103 101 
191 780 437 142 119 111 
389 672 277 91 111 133 
272 541 439 30 62 94 
242 549 453 176 167 164 
203 149 458 57 53 68 
405 670 348 110 134 165 
310 481 469 85 108 163 
233 10 389 109 102 100 
403 668 350 81 116 157 
235 201 295 120 40 66 
311 419 295 87 114 140 
155 285 357 115 77 88 
301 252 451 86 92 104 
263 597 300 89 94 103 
209 655 463 99 120 183 
234 10 389 107 100 98 
300 626 337 102 111 124 
167 151 367 118 105 93 
152 480 366 111 125 146 
195 417 328 66 103 178 
403 661 344 115 125 138 
331 267 476 118 120 127 
154 362 407 158 135 113 
260 204 476 106 61 58 
298 366 303 88 106 126 
278 129 463 142 76 8 
211 595 349 98 97 100 
384 231 508 93 70 85 
251 181 429 120 39 24 
239 413 305 113 139 176 
368 171 509 150 77 28 
223 354 447 142 139 142 
237 218 296 114 104 94 
309 422 288 109 123 139 
387 642 292 49 95 127 
203 582 473 136 123 122 
193 852 330 180 136 104 
360 695 390 171 178 192 
239 9 387 99 91 87 
237 9 388 102 95 92 
168 388 438 156 136 116 
360 351 499 217 182 146 
230 143 303 100 101 107 
233 628 279 147 147 154 
236 10 390 101 94 91 
273 576 281 86 128 163 
220 300 449 90 109 130 
261 280 472 110 124 141 
205 676 453 130 139 169 
361 420 484 159 141 127 
239 9 388 98 90 87 
330 625 390 127 92 72 
273 573 452 106 134 164 
358 730 272 157 50 54 
189 749 460 170 48 61 
238 10 391 96 88 85 
182 895 336 90 73 56 
179 724 451 137 153 173 
217 334 445 133 91 25 
312 609 373 91 84 79 
319 678 434 120 103 92 
252 442 447 78 100 141 
238 239 390 76 87 100 
294 406 281 80 106 130 
82 745 444 103 126 190 
198 476 332 155 156 166 
223 250 466 74 114 145 
283 362 352 60 95 123 
410 239 504 128 52 77 
215 514 319 48 70 131 
208 722 300 112 121 136 
186 843 334 166 126 94 
318 676 434 63 77 92 
333 377 492 123 122 127 
219 570 326 89 119 146 
145 501 448 93 111 140 
338 748 364 174 150 130 
316 696 263 165 175 191 
219 244 285 98 112 129 
233 12 394 100 93 90 
325 209 468 83 39 45 
213 493 331 117 125 141 
375 639 356 128 102 72 
262 770 290 136 116 97 
142 649 405 78 110 150 
341 785 299 156 139 125 
118 804 405 223 180 117 
204 137 281 52 87 117 
149 639 447 36 98 135 
198 181 395 70 59 79 
299 615 431 86 83 111 
338 639 401 81 98 117 
225 865 319 121 101 80 
192 354 296 83 103 160 
185 269 421 96 106 118 
274 348 477 111 125 146 
151 827 385 198 168 139 
363 379 493 212 177 139 
318 634 401 115 74 64 
324 667 427 81 74 68 
154 297 370 81 119 150 
163 987 337 129 100 72 
228 214 365 61 53 60 
371 714 273 104 125 161 
253 541 278 77 116 149 
322 473 322 123 143 165 
264 369 474 145 157 174 
333 455 460 71 95 139 
321 486 328 170 171 179 
237 10 392 96 89 85 
177 683 432 81 98 116 
273 466 457 123 134 156 
346 756 281 151 130 117 
309 311 454 110 42 67 
189 363 300 93 124 182 
327 172 477 110 65 36 
237 257 292 90 125 154 
184 940 329 72 55 41 
230 173 392 32 44 59 
288 679 283 152 158 174 
389 729 331 110 137 177 
144 580 437 92 110 135 
309 453 369 138 145 158 
218 577 335 88 103 119 
197 140 323 98 86 79 
346 735 368 165 134 107 
367 386 483 171 156 145 
222 850 375 172 128 98 
100 684 363 94 111 129 
182 598 376 52 83 107 
210 857 326 192 135 91 
116 645 397 44 59 80 
348 152 520 149 70 7 
209 597 326 85 118 148 
182 294 297 149 87 66 
101 782 430 207 218 237 
289 333 325 132 137 147 
189 672 325 136 137 145 
180 615 389 49 63 75 
310 444 382 155 156 163 
319 733 410 78 64 65 
217 510 461 123 132 154 
290 567 448 97 110 137 
276 317 427 70 93 113 
236 15 399 90 82 78 
308 429 385 138 140 147 
171 946 428 180 141 115 
211 190 283 106 107 113 
154 594 447 54 97 130 
239 889 400 157 122 90 
276 612 445 129 128 137 
174 489 346 138 137 143 
248 812 297 186 129 89 
258 279 303 88 97 114 
270 185 465 93 63 78 
279 559 280 166 175 193 
320 466 477 126 150 181 
238 14 400 88 81 76 
162 482 460 71 96 127 
141 468 388 101 116 141 
309 627 422 179 125 117 
239 14 401 87 80 75 
150 572 405 125 139 156 
226 160 383 77 22 31 
192 990 392 107 78 54 
208 885 330 119 85 57 
195 355 298 122 141 190 
224 18 391 108 100 97 
267 422 463 145 151 163 
223 761 292 136 123 115 
294 770 395 222 164 130 
164 434 334 144 152 167 
169 468 466 167 170 181 
294 772 388 219 165 130 
298 774 281 172 145 119 
296 622 358 69 76 85 
214 227 462 87 97 110 
300 581 342 71 80 90 
219 893 344 87 67 55 
165 621 438 40 49 57 
254 637 273 102 115 132 
194 349 294 111 134 183 
245 262 384 89 81 75 
160 502 464 148 147 153 
373 625 306 76 115 146 
179 194 264 206 80 13 
348 192 505 35 55 112 
257 167 436 90 48 37 
120 629 434 76 90 104 
258 384 470 101 126 155 
164 550 360 213 192 177 
253 269 410 120 119 123 
221 159 362 113 58 55 
199 784 310 160 129 95 
394 725 289 181 196 216 
124 651 467 139 98 81 
295 256 445 85 97 121 
160 805 424 145 139 139 
224 22 393 108 76 61 
278 502 456 112 131 153 
186 152 273 128 119 112 
225 23 393 122 86 77 
322 303 459 135 111 84 
332 223 485 131 23 32 
261 242 430 85 27 41 
215 451 325 79 106 148 
207 1004 337 144 116 84 
227 21 395 112 93 78 
218 481 460 107 119 142 
231 527 451 127 140 158 
280 786 288 160 145 135 
228 832 375 181 119 98 
307 546 459 80 111 160 
304 456 293 133 152 178 
264 248 471 147 147 154 
333 768 284 178 149 125 
294 583 337 72 85 100 
229 16 395 95 87 82 
353 686 406 104 131 157 
332 792 298 180 171 167 
252 479 308 124 130 143 
141 736 362 120 128 150 
136 475 413 58 89 138 
337 614 355 102 94 89 
316 524 367 101 120 149 
243 412 302 181 182 191 
134 685 419 112 126 169 
230 17 396 98 89 84 
173 753 450 137 33 45 
260 125 447 220 105 18 
263 339 480 158 96 115 
399 182 520 128 60 59 
383 269 508 77 108 134 
291 734 282 132 79 83 
396 168 518 145 72 5 
330 725 267 91 83 109 
158 192 308 154 65 3 
179 248 294 140 48 76 
287 643 437 75 62 65 
286 477 461 161 163 174 
416 689 325 126 142 189 
55 692 465 184 132 110 
229 131 364 92 99 108 
327 347 440 113 103 96 
238 219 321 82 92 105 
219 742 291 137 113 91 
277 350 408 70 82 94 
233 721 287 136 65 79 
314 627 416 169 114 102 
248 463 441 158 159 167 
53 655 439 101 92 85 
261 586 268 173 170 176 
153 586 408 160 154 156 
218 868 423 156 121 93 
267 454 454 97 110 146 
174 405 315 112 136 177 
166 1002 346 143 117 88 
221 722 469 121 151 181 
108 626 469 93 80 70 
288 199 463 104 83 82 
186 266 411 106 94 90 
189 426 331 102 127 186 
89 711 371 43 84 173 
257 688 276 197 191 208 
318 548 350 116 130 149 
225 417 439 88 103 127 
291 194 461 98 98 105 
185 637 330 81 128 165 
287 616 437 84 71 78 
201 434 326 68 103 138 
408 268 503 128 31 64 
163 208 289 119 80 95 
137 465 393 96 114 150 
282 280 442 91 85 85 
197 862 420 110 85 58 
281 212 448 140 25 24 
212 605 307 152 152 158 
253 137 465 43 69 94 
197 508 474 112 132 161 
276 506 453 148 155 168 
268 813 364 213 152 128 
424 699 305 187 194 209 
123 765 381 133 110 120 
401 664 354 52 97 143 
178 977 330 115 90 60 
196 841 386 170 127 100 
243 185 415 62 37 22 
255 298 361 112 56 61 
136 739 431 127 136 149 
183 745 457 141 71 77 
202 210 451 141 36 14 
141 421 381 161 75 4 
409 659 305 176 178 188 
265 403 466 92 118 159 
225 148 378 85 35 38 
427 701 286 171 187 220 
311 562 414 61 98 149 
140 421 403 175 151 128 
161 270 339 46 80 108 
237 212 319 108 113 122 
322 214 463 83 52 57 
207 617 487 182 120 115 
295 572 327 79 103 131 
58 715 452 165 178 219 
192 390 438 50 74 93 
318 142 483 151 95 76 
293 126 472 174 80 10 
300 409 380 103 118 135 
177 747 324 146 35 39 
138 764 364 144 30 50 
153 458 368 88 110 138 
314 516 440 68 92 166 
314 510 422 102 116 139 
224 777 296 152 118 83 
161 482 348 123 140 174 
307 472 297 81 107 134 
195 147 288 61 74 87 
284 688 440 142 81 50 
254 910 400 142 109 82 
150 777 347 127 109 89 
339 187 481 132 98 87 
182 187 260 156 134 115 
301 695 271 171 172 183 
230 309 464 136 50 98 
162 220 377 127 49 72 
251 164 472 131 69 65 
193 248 418 94 66 57 
159 265 384 102 80 92 
167 1001 351 136 104 81 
190 239 283 85 115 141 
218 623 308 159 158 165 
188 141 278 45 65 98 
106 652 386 82 104 125 
237 175 305 130 117 108 
193 377 309 85 117 179 
142 641 413 99 130 159 
316 473 405 66 91 141 
299 390 422 77 83 92 
174 815 404 139 134 137 
165 910 352 108 86 73 
170 921 424 151 122 95 
260 889 412 156 125 98 
163 670 341 148 155 173 
199 865 397 118 92 64 
133 699 372 81 77 127 
349 304 483 76 116 149 
321 295 462 76 106 132 
336 730 269 151 36 40 
320 445 459 101 91 84 
224 748 458 179 96 116 
155 963 373 76 61 55 
325 261 462 118 61 78 
243 798 402 207 143 123 
323 474 436 112 138 172 
279 321 333 137 71 66 
361 689 270 78 106 131 
233 412 308 174 174 183 
170 462 341 79 103 160 
225 136 333 105 95 89 
318 640 407 59 48 42 
233 17 398 98 89 84 
301 521 297 71 102 142 
279 678 286 118 135 174 
175 882 383 160 123 95 
185 482 469 48 79 121 
224 68 453 96 80 65 
153 722 358 77 105 156 
297 635 276 126 129 134 
225 178 375 79 37 32 
244 930 396 104 81 59 
162 285 338 134 26 70 
280 728 286 122 31 33 
291 683 273 166 164 173 
171 572 477 63 83 129 
275 754 286 121 107 94 
125 675 421 151 152 161 
301 776 371 191 138 107 
335 651 296 83 103 122 
391 243 508 90 79 94 
277 186 449 37 63 101 
149 817 414 193 169 148 
226 186 375 84 33 39 
295 606 433 136 96 90 
208 382 313 91 118 181 
163 963 404 114 93 77 
184 994 381 142 116 90 
234 183 399 26 33 50 
108 630 458 107 98 92 
224 486 454 85 102 135 
324 270 460 106 53 73 
262 590 458 119 132 151 
217 166 288 125 52 62 
230 663 281 104 135 168 
165 898 405 153 112 84 
337 276 467 85 113 138 
191 558 480 108 136 173 
249 228 418 35 45 59 
137 661 353 67 96 125 
312 562 348 114 120 131 
307 426 390 110 125 144 
235 23 397 136 119 111 
313 538 400 169 164 167 
379 294 505 138 140 151 
190 948 330 92 71 47 
293 214 454 107 36 55 
348 320 484 66 100 128 
147 932 368 71 57 48 
228 204 386 78 43 52 
220 869 418 146 115 84 
195 530 473 110 123 150 
252 935 401 118 93 76 
300 170 463 115 53 68 
343 189 487 82 85 95 
238 22 399 122 108 102 
313 181 471 127 48 65 
341 769 335 155 120 90 
342 379 488 164 49 49 
175 345 321 164 125 82 
290 274 466 73 81 93 
303 436 355 149 155 168 
272 295 302 110 121 135 
249 834 312 254 201 165 
347 324 470 151 45 67 
217 861 386 167 123 94 
400 242 517 62 50 72 
201 818 401 161 116 98 
191 630 348 78 86 96 
233 223 327 85 100 116 
222 277 281 126 141 160 
298 271 458 64 84 102 
237 31 390 109 81 65 
173 548 352 179 172 172 
309 484 467 123 144 173 
39 692 441 119 153 193 
207 978 422 110 91 73 
376 178 512 155 45 47 
351 621 310 101 123 146 
355 409 487 147 121 98 
168 640 412 44 74 105 
65 728 412 138 145 188 
158 267 340 53 95 127 
191 690 444 61 84 137 
172 574 477 98 104 115 
297 406 460 72 95 135 
317 704 430 197 86 19 
365 622 307 88 120 149 
334 452 462 89 114 152 
331 729 395 164 136 121 
187 226 398 91 79 81 
205 274 279 121 139 169 
246 397 295 159 167 183 
205 770 304 161 146 138 
234 25 395 131 107 97 
349 696 411 99 146 181 
200 174 394 90 81 85 
386 713 359 124 163 199 
361 624 366 133 109 82 
386 741 298 204 62 78 
294 801 350 205 149 112 
121 745 379 72 106 156 
200 222 419 97 45 59 
288 413 280 123 141 169 
136 804 432 173 77 100 
404 178 505 137 72 4 
109 796 423 117 51 133 
231 200 291 116 109 115 
260 503 299 75 101 128 
227 278 286 138 148 165 
322 535 362 163 163 170 
205 483 334 88 109 147 
207 945 439 190 147 122 
411 671 324 60 67 78 
274 596 454 115 142 171 
163 561 475 165 165 173 
298 416 355 163 163 170 
167 954 418 160 125 101 
173 318 329 111 118 136 
176 531 346 120 126 142 
263 120 462 133 91 28 
237 847 343 201 150 122 
288 632 435 134 108 93 
319 784 346 152 108 82 
114 740 444 61 89 142 
311 722 425 132 104 103 
237 26 395 147 129 122 
319 615 349 83 77 74 
151 650 368 54 78 101 
217 864 332 164 121 85 
154 274 362 117 48 74 
49 679 419 116 128 146 
411 714 307 105 126 205 
336 362 476 125 127 134 
273 484 288 88 107 129 
309 383 314 76 108 138 
46 697 428 118 129 178 
260 305 354 106 96 98 
169 339 338 107 109 117 
279 354 391 92 67 27 
236 26 396 149 129 120 
244 557 289 90 114 138 
299 246 449 71 95 120 
177 496 472 85 95 119 
411 202 485 78 71 87 
236 845 350 183 134 110 
228 939 332 75 58 45 
280 404 281 101 121 150 
192 967 328 86 73 61 
195 192 275 94 53 41 
147 765 438 163 50 55 
313 553 382 108 124 153 
205 944 325 73 53 34 
330 647 303 66 91 114 
311 551 386 81 105 149 
233 151 398 122 44 21 
337 241 474 100 89 110 
187 266 407 71 103 129 
270 165 448 128 88 76 
191 179 390 109 71 66 
179 683 340 119 121 128 
316 335 447 105 49 68 
80 750 433 135 132 194 
137 642 466 134 96 79 
124 780 380 69 65 106 
325 664 273 137 136 138 
214 284 440 141 137 139 
199 292 418 64 93 117 
120 773 385 147 157 173 
293 747 279 113 116 123 
120 660 369 57 106 145 
163 647 351 18 43 63 
304 595 357 87 88 91 
239 720 462 77 126 164 
223 198 340 80 68 59 
241 248 469 98 59 69 
319 415 451 88 63 80 
333 711 407 183 77 88 
338 672 273 114 123 136 
234 916 417 190 143 114 
132 618 474 92 81 71 
251 411 297 100 128 167 
179 307 422 88 108 128 
260 681 275 180 180 188 
138 806 366 148 126 113 
222 864 336 151 114 84 
364 314 517 147 154 167 
114 706 432 112 123 137 
223 790 298 130 126 127 
426 171 476 136 104 86 
238 18 401 97 87 81 
141 517 389 144 147 158 
372 191 510 100 45 50 
315 775 363 131 94 67 
316 603 386 71 71 75 
144 776 353 158 108 75 
274 208 458 117 63 62 
197 519 474 151 162 180 
301 408 284 110 123 138 
226 685 463 138 157 180 
288 784 382 209 153 119 
138 760 440 135 147 164 
357 153 525 149 71 7 
339 440 467 104 94 108 
175 636 402 43 58 73 
197 961 433 222 185 163 
362 624 339 69 97 132 
105 661 458 139 94 78 
97 652 390 31 73 121 
255 609 274 111 119 132 
304 436 279 124 139 166 
177 605 471 41 47 53 
212 861 391 152 116 85 
150 665 351 99 109 143 
207 994 388 85 66 50 
238 353 293 93 134 175 
194 314 284 151 61 89 
371 662 396 92 126 156 
222 810 304 149 108 76 
191 148 287 44 60 73 
310 445 383 136 142 155 
235 223 295 134 144 159 
264 317 398 126 124 125 
195 753 311 95 83 80 
274 227 461 109 83 81 
240 9 388 96 88 85 
114 671 430 73 98 138 
197 818 402 148 106 84 
317 464 445 50 79 115 
177 354 305 99 124 151 
222 190 338 59 74 89 
317 635 317 84 105 127 
251 285 377 101 105 113 
336 361 483 140 137 139 
171 393 323 69 106 142 
260 118 455 174 157 139 
280 356 395 106 103 104 
207 131 403 119 58 8 
241 953 388 97 81 67 
238 931 355 68 55 50 
184 851 337 179 135 104 
381 347 498 124 137 156 
223 660 290 103 125 148 
281 314 320 142 104 54 
305 432 281 169 170 177 
256 535 449 86 109 133 
328 142 498 150 70 3 
174 780 328 134 114 97 
400 726 297 191 204 224 
166 179 372 116 91 91 
308 178 466 113 61 68 
282 565 298 172 175 185 
230 892 421 167 124 94 
383 350 497 116 144 174 
319 272 465 133 135 141 
232 333 467 150 77 105 
82 739 447 110 127 175 
186 230 427 97 86 79 
247 414 452 87 106 143 
301 479 462 115 133 157 
354 642 288 39 77 105 
172 148 293 72 60 59 
225 519 313 63 96 131 
264 808 293 170 122 80 
330 649 303 66 91 114 
175 1008 365 157 131 104 
399 661 358 52 96 145 
289 474 459 132 144 166 
196 211 405 90 71 82 
190 354 426 98 102 112 
197 593 473 96 68 68 
385 647 335 110 91 72 
375 754 306 174 30 58 
269 291 316 130 137 149 
267 320 347 129 68 85 
156 364 346 126 138 161 
315 454 300 179 183 196 
291 142 472 92 57 65 
247 696 281 171 184 204 
329 419 472 140 82 35 
349 185 508 132 37 30 
195 704 317 124 136 156 
159 430 447 120 102 81 
272 577 287 105 121 144 
229 225 467 130 53 79 
198 986 411 110 92 75 
283 298 469 163 163 170 
304 516 300 98 121 169 
181 657 447 90 119 177 
238 240 352 122 120 122 
256 722 449 173 47 54 
333 682 262 150 144 144 
159 374 351 119 114 115 
292 619 336 74 84 97 
367 169 522 144 78 60 
270 653 451 102 103 111 
240 11 396 89 81 77 
134 777 369 116 129 151 
310 395 425 69 74 81 
335 496 466 139 158 187 
349 662 410 85 121 167 
295 749 420 188 168 153 
262 399 288 143 156 176 
319 428 315 70 101 147 
216 594 341 118 124 134 
301 365 309 105 121 140 
329 287 459 75 109 138 
71 695 386 142 148 165 
171 162 330 92 81 74 
329 664 412 71 76 95 
249 662 459 80 115 143 
205 1007 370 114 86 62 
193 599 366 51 82 106 
209 159 462 97 40 39 
211 343 438 103 113 130 
230 149 324 91 84 82 
169 932 428 170 131 107 
164 623 490 181 132 121 
216 525 318 72 96 141 
313 464 350 143 152 168 
242 470 312 107 125 148 
157 464 348 153 156 166 
164 207 284 108 97 102 
137 750 365 141 147 161 
189 672 444 112 120 152 
361 146 515 138 114 96 
346 630 380 103 72 56 
417 711 298 98 132 227 
246 667 460 106 107 117 
325 416 466 142 91 36 
323 615 412 173 119 111 
233 147 308 107 109 116 
121 718 376 150 152 178 
267 714 445 190 88 26 
192 690 320 89 117 146 
320 713 423 208 82 27 
262 267 306 94 119 142 
308 269 460 138 140 148 
330 633 385 30 34 47 
182 327 433 143 142 147 
272 508 275 117 140 166 
306 442 364 141 147 160 
190 174 266 135 108 81 
300 150 473 132 115 102 
83 693 460 102 122 160 
322 215 465 80 53 49 
216 453 458 69 88 115 
339 371 478 167 134 100 
264 684 456 73 87 105 
302 347 456 63 73 85 
200 611 319 120 123 139 
229 975 395 98 79 65 
138 777 361 106 27 40 
203 198 433 89 38 35 
145 387 381 139 86 103 
105 713 444 41 59 108 
273 491 450 118 132 156 
98 730 448 145 149 176 
227 875 358 164 122 93 
202 477 332 157 157 166 
242 754 291 145 107 57 
262 139 438 109 99 91 
240 446 318 113 132 167 
105 772 440 142 171 201 
288 656 450 72 52 40 
235 683 463 86 101 119 
177 661 438 120 135 165 
342 478 462 58 102 154 
310 156 476 93 80 75 
225 567 306 160 161 169 
205 690 313 120 70 74 
171 317 439 158 157 164 
250 8 386 93 82 75 
312 393 426 66 72 80 
166 698 354 92 116 149 
342 414 492 173 131 127 
197 693 450 146 146 154 
334 223 489 131 32 34 
161 920 347 105 89 74 
231 773 433 192 166 145 
165 616 450 44 51 58 
370 644 287 95 102 112 
131 775 441 174 55 70 
151 732 430 123 133 148 
286 158 455 150 64 5 
141 480 391 115 125 141 
312 525 441 149 165 192 
244 261 304 102 131 159 
305 411 418 60 76 91 
332 649 300 77 99 119 
251 8 389 89 80 73 
193 731 463 132 157 184 
297 798 293 150 143 142 
239 964 354 112 80 67 
167 183 379 110 96 102 
343 447 478 113 133 164 
184 655 453 103 142 193 
383 344 490 159 148 141 
201 482 471 169 169 175 
322 802 301 152 163 178 
162 223 379 121 45 68 
233 969 351 112 86 70 
301 335 456 69 74 88 
293 395 352 54 90 141 
266 725 291 126 51 44 
322 345 438 125 113 103 
297 684 430 100 61 21 
156 303 389 136 134 138 
118 633 441 67 84 104 
174 714 439 46 68 94 
323 401 453 80 96 112 
191 452 332 146 148 156 
87 646 479 125 97 69 
367 188 506 118 73 73 
230 274 288 124 131 144 
166 151 295 74 60 50 
299 587 442 87 124 166 
201 165 447 85 39 30 
221 856 328 157 123 95 
322 602 390 98 90 86 
167 462 340 100 120 180 
117 653 477 177 122 96 
233 264 469 137 131 129 
413 232 500 139 83 81 
253 9 391 87 77 70 
292 799 355 209 149 115 
323 761 373 176 162 152 
394 168 504 158 47 4 
128 762 440 107 129 153 
276 265 443 146 116 75 
199 142 318 82 79 80 
221 284 457 162 156 158 
172 506 346 138 139 146 
261 265 318 76 111 139 
231 978 388 85 70 55 
176 643 354 59 71 83 
372 701 273 107 122 146 
311 552 340 102 120 141 
261 513 293 94 112 132 
162 292 399 69 100 127 
151 344 385 132 49 43 
278 329 473 152 110 63 
281 216 460 93 33 47 
320 280 455 89 110 130 
229 182 380 79 30 30 
175 171 356 93 72 50 
236 423 310 137 152 175 
372 743 336 149 58 65 
401 245 499 63 85 105 
205 1003 379 171 136 104 
226 670 283 109 136 163 
194 144 322 97 86 78 
286 685 441 155 102 33 
248 905 409 148 114 87 
251 9 395 85 76 69 
248 10 396 87 79 73 
321 188 471 132 33 48 
40 691 436 100 121 177 
216 764 445 158 166 180 
366 231 505 49 39 52 
306 487 465 89 111 152 
70 678 393 117 126 156 
299 642 424 127 79 73 
391 678 277 119 129 148 
221 144 345 91 96 104 
213 998 368 143 114 85 
368 680 383 98 128 156 
260 887 412 155 124 99 
149 437 430 153 74 4 
166 352 340 92 111 135 
198 593 357 117 106 100 
111 651 386 98 120 142 
179 317 313 156 117 71 
172 806 336 141 122 107 
173 886 383 157 119 93 
221 960 338 97 72 50 
252 9 392 86 77 70 
252 9 393 86 76 69 
292 610 352 57 80 100 
202 987 410 124 103 84 
354 143 520 119 102 88 
153 257 349 113 90 104 
177 643 357 58 70 82 
168 184 342 113 54 7 
229 412 438 66 88 131 
254 9 393 85 75 67 
208 149 281 59 53 57 
291 709 280 128 138 152 
188 655 335 71 104 132 
231 292 468 126 32 58 
146 750 436 113 133 154 
105 691 438 86 108 150 
138 548 422 102 126 159 
253 9 396 85 74 67 
240 828 307 238 170 132 
216 523 322 79 103 135 
250 835 345 207 151 124 
319 348 442 86 64 67 
289 644 277 182 182 192 
129 638 438 103 123 150 
334 733 269 164 27 22 
77 728 451 176 175 187 
201 860 392 154 120 90 
296 562 314 167 164 169 
242 564 288 92 108 127 
105 666 373 88 114 139 
200 621 348 87 87 89 
363 255 497 99 57 67 
181 594 473 45 76 119 
143 511 385 125 132 147 
243 212 468 85 58 91 
330 791 297 141 131 127 
205 591 318 110 135 161 
281 702 288 144 153 164 
256 442 450 50 76 130 
316 502 414 140 149 161 
164 428 339 91 114 147 
351 619 381 154 117 98 
314 813 333 208 154 123 
179 369 304 93 117 156 
307 535 326 153 163 182 
189 301 421 61 86 107 
214 291 426 121 116 118 
271 714 441 199 104 37 
395 266 513 98 67 92 
262 426 296 65 99 162 
358 290 483 154 155 162 
320 402 431 104 63 11 
244 13 400 90 82 76 
214 866 410 122 88 56 
247 276 472 104 119 138 
186 660 448 132 152 190 
139 626 486 136 105 81 
207 479 468 69 91 132 
165 612 452 51 61 72 
169 715 341 128 128 134 
250 836 314 251 186 146 
351 742 345 89 61 58 
222 167 372 108 45 42 
406 253 493 130 95 85 
117 800 400 161 32 58 
192 589 360 144 133 127 
348 172 492 145 56 0 
333 642 301 92 105 120 
167 303 430 90 70 68 
355 323 508 80 68 92 
300 502 459 46 82 149 
244 956 359 134 110 84 
287 192 461 85 66 87 
239 197 305 95 60 61 
312 441 406 167 162 164 
248 12 400 88 80 74 
248 13 400 89 81 76 
167 200 347 91 52 54 
161 746 340 124 39 33 
329 407 489 99 115 149 
322 508 341 162 167 178 
377 228 510 80 51 69 
155 571 465 54 62 98 
210 882 330 133 97 69 
197 200 398 108 65 67 
184 482 336 137 141 152 
218 995 363 126 105 86 
332 795 301 188 172 164 
299 685 431 87 64 40 
168 832 382 127 107 102 
324 521 466 138 159 196 
221 191 349 44 61 75 
349 273 486 99 125 151 
294 192 461 105 91 99 
179 779 325 132 108 88 
266 673 455 82 71 72 
277 583 318 96 95 97 
95 637 421 53 78 98 
314 521 419 170 168 175 
282 418 282 121 137 165 
253 11 400 85 74 67 
230 134 371 98 101 107 
302 264 453 71 78 87 
239 543 308 162 161 167 
285 389 468 106 127 154 
252 12 401 86 78 71 
256 530 282 107 113 122 
229 868 316 119 102 87 
212 446 325 110 126 149 
336 196 485 40 47 79 
252 13 402 88 80 74 
253 13 402 89 81 74 
319 454 455 84 80 79 
256 242 309 128 134 145 
240 167 412 80 46 54 
140 759 363 134 140 147 
319 438 455 128 114 102 
260 436 455 56 81 140 
380 643 331 84 77 72 
303 369 327 84 113 147 
221 189 287 77 106 131 
195 744 312 158 127 88 
195 731 315 116 124 135 
165 547 358 162 160 166 
153 482 364 112 125 143 
190 173 266 139 117 98 
172 742 442 130 134 143 
235 433 316 131 147 172 
291 445 460 96 123 160 
255 15 403 97 88 82 
337 472 457 141 159 186 
241 29 391 110 79 67 
61 661 415 82 98 116 
106 686 438 74 99 158 
349 327 474 156 88 73 
254 571 271 101 63 54 
269 813 365 214 152 127 
295 181 460 126 66 78 
232 228 346 121 119 119 
98 653 431 99 120 146 
245 954 372 110 90 74 
397 731 303 197 224 254 
395 659 318 74 71 74 
210 675 312 81 123 158 
358 352 498 214 179 140 
155 535 465 47 72 129 
263 723 441 189 72 33 
189 992 323 91 59 46 
205 195 456 133 36 25 
288 520 286 102 126 159 
208 263 435 64 97 125 
236 514 306 68 100 130 
194 143 384 82 74 69 
286 632 436 138 107 91 
223 774 295 138 115 92 
158 251 334 123 91 113 
221 313 290 145 91 18 
328 484 472 158 170 187 
153 316 367 148 144 146 
330 622 395 138 96 79 
260 310 382 99 97 98 
326 748 382 190 157 122 
187 250 411 94 55 66 
246 28 391 156 139 128 
412 675 336 92 118 154 
354 194 507 81 34 45 
224 197 367 46 50 62 
402 250 510 45 78 112 
347 151 519 151 70 8 
186 362 439 125 106 85 
263 234 472 142 140 145 
262 173 440 103 54 49 
163 534 358 131 137 149 
186 629 382 50 54 59 
257 248 319 89 96 107 
320 395 430 107 66 25 
224 871 406 130 96 65 
276 308 472 139 115 91 
282 274 472 84 125 158 
290 399 464 126 142 163 
172 266 398 109 96 99 
370 634 346 115 96 77 
120 775 384 149 157 172 
155 397 420 161 136 107 
214 573 468 72 112 145 
147 770 350 141 48 54 
159 230 362 98 41 57 
308 425 409 32 75 111 
272 726 289 154 73 33 
268 557 451 98 114 149 
241 26 398 111 81 86 
399 276 507 127 77 93 
216 514 316 56 84 135 
276 832 322 223 169 139 
151 221 337 59 85 107 
231 611 303 89 112 135 
269 381 283 76 109 147 
209 271 422 77 103 125 
220 326 445 125 85 27 
243 27 397 126 105 101 
384 350 495 122 150 182 
309 495 306 135 148 166 
314 232 456 71 98 125 
240 290 295 136 134 137 
185 136 367 88 76 63 
147 664 418 96 109 151 
201 149 455 33 47 67 
297 302 459 123 124 130 
284 365 394 112 113 118 
163 815 407 176 139 101 
186 240 288 95 102 113 
370 208 507 107 49 32 
198 944 440 191 152 128 
212 245 280 127 142 161 
119 694 364 160 163 206 
243 29 392 136 112 107 
244 832 360 197 137 110 
230 184 292 72 93 114 
238 312 470 133 29 70 
262 320 288 109 122 137 
197 841 326 161 123 89 
406 257 492 143 97 79 
316 754 392 201 186 177 
219 930 324 95 71 48 
225 265 466 145 144 149 
170 894 376 119 95 70 
422 706 301 205 218 239 
390 170 508 171 65 24 
344 457 464 95 120 149 
233 218 380 65 40 56 
361 624 304 19 71 102 
218 909 430 179 130 108 
247 468 312 114 127 148 
171 372 448 132 116 100 
287 362 289 73 99 124 
346 283 472 75 117 152 
225 640 470 141 89 86 
254 296 475 146 133 124 
223 126 473 152 70 5 
355 442 473 109 94 110 
129 815 408 112 96 83 
405 704 283 129 155 188 
158 299 328 90 113 134 
266 275 312 154 156 163 
276 291 470 122 137 157 
261 311 394 122 121 125 
214 867 407 123 89 55 
292 506 289 114 142 179 
253 625 461 187 182 184 
158 422 434 145 68 8 
156 311 389 134 135 141 
316 180 474 111 50 64 
158 286 387 70 99 126 
302 334 453 65 76 89 
262 775 415 107 132 155 
216 543 327 95 108 127 
147 406 365 177 161 150 
217 157 372 74 63 73 
233 147 309 109 109 112 
237 213 467 118 54 57 
249 347 285 90 136 174 
167 896 411 157 114 87 
240 250 379 66 87 108 
339 379 480 136 18 59 
150 666 351 71 84 100 
314 153 476 115 102 90 
310 280 445 127 132 141 
66 657 413 90 102 116 
288 789 289 135 121 112 
190 431 456 57 79 105 
260 674 457 145 160 179 
222 322 290 162 125 75 
175 596 469 83 110 144 
315 379 428 135 122 111 
211 638 474 197 132 128 
276 121 461 149 97 58 
322 140 490 147 70 2 
266 810 294 183 127 86 
285 148 454 117 104 92 
351 720 267 152 161 180 
292 619 320 66 87 109 
239 278 299 79 71 83 
200 194 444 69 52 72 
402 172 513 149 69 3 
136 466 406 117 70 61 
179 642 364 77 82 90 
100 756 386 164 171 190 
120 793 388 121 10 47 
378 265 510 75 111 139 
256 645 455 171 177 190 
236 197 384 72 52 59 
328 800 304 180 160 145 
200 739 466 176 45 56 
334 478 475 146 165 194 
255 610 269 139 144 155 
312 553 426 94 116 145 
361 425 478 98 81 62 
405 189 507 99 96 110 
423 694 309 177 178 191 
278 777 288 163 129 87 
184 673 334 114 117 124 
224 918 327 98 74 49 
218 936 326 94 68 40 
159 293 393 99 48 56 
216 156 467 113 35 40 
297 545 298 174 176 184 
179 624 394 47 54 62 
260 247 312 114 103 103 
175 183 263 144 119 102 
345 417 489 181 158 146 
146 489 447 67 97 131 
59 689 468 178 125 102 
148 563 397 126 143 165 
172 960 422 176 134 112 
39 683 432 141 154 173 
306 184 466 125 48 65 
149 566 456 75 115 147 
316 432 475 65 86 129 
349 620 343 85 85 88 
314 785 348 175 123 91 
304 634 303 92 105 121 
145 501 381 85 108 133 
414 689 329 131 155 196 
297 533 453 168 173 185 
298 683 268 182 177 188 
250 27 395 144 113 104 
229 138 371 93 49 64 
252 280 400 92 103 115 
93 661 386 42 52 93 
205 238 430 114 107 106 
135 617 473 88 78 70 
162 968 355 119 89 64 
187 132 358 95 79 62 
154 330 362 139 142 151 
192 695 319 118 133 152 
268 464 298 149 154 165 
279 237 452 108 55 46 
165 980 335 142 115 88 
285 511 285 111 140 170 
411 195 500 48 79 106 
235 323 287 136 140 157 
282 220 461 78 39 43 
221 589 306 80 126 163 
392 290 491 159 139 133 
232 616 289 118 127 141 
333 463 456 119 135 170 
98 665 437 81 103 131 
162 582 467 79 81 118 
176 914 334 77 59 42 
266 212 443 85 56 49 
205 226 278 114 108 109 
290 751 280 156 131 105 
224 909 331 87 68 53 
195 220 404 102 91 98 
147 560 451 77 115 146 
204 260 418 126 126 131 
255 373 287 116 139 163 
253 899 408 149 120 91 
346 765 288 216 200 188 
313 469 352 155 159 170 
315 514 366 87 109 134 
100 641 434 81 86 93 
210 332 292 174 20 70 
141 723 361 83 109 158 
352 645 403 97 116 143 
333 680 427 101 117 135 
389 723 343 165 196 227 
122 623 465 93 83 77 
179 272 403 57 86 113 
296 284 439 73 104 130 
194 388 314 68 99 173 
214 540 464 141 146 156 
235 974 375 93 74 67 
329 749 377 205 172 141 
119 666 421 56 81 130 
305 371 427 107 101 98 
172 375 323 84 106 141 
144 570 425 98 107 127 
239 641 273 85 126 166 
252 25 398 162 137 139 
93 644 406 85 117 145 
116 629 426 45 79 104 
296 797 293 117 124 134 
230 220 367 83 53 63 
219 151 371 77 60 67 
376 704 374 152 176 204 
206 408 321 73 104 170 
306 500 297 133 145 170 
354 742 275 137 53 94 
186 628 383 54 62 70 
62 679 404 154 154 160 
87 767 422 167 182 212 
170 313 429 92 111 131 
292 595 443 112 136 188 
145 383 391 135 79 63 
169 377 336 94 114 141 
210 259 425 118 117 122 
377 251 523 34 70 119 
309 589 361 110 105 104 
289 642 277 136 145 160 
399 198 523 96 41 51 
228 405 310 97 130 164 
336 741 272 166 57 46 
308 618 355 84 79 77 
305 625 334 113 121 134 
251 159 425 89 42 23 
268 778 411 202 149 121 
352 616 338 86 103 121 
365 282 516 164 78 14 
313 206 459 93 84 96 
157 230 349 113 19 52 
408 185 484 123 90 77 
255 28 393 137 120 116 
246 238 303 133 139 152 
307 824 325 225 161 134 
213 584 324 106 132 159 
206 700 462 118 140 164 
150 801 434 198 178 163 
200 150 278 54 43 53 
168 772 449 174 127 97 
352 447 481 165 177 196 
270 289 428 114 113 116 
272 615 286 85 115 147 
176 306 424 114 123 135 
261 304 348 107 96 102 
213 981 416 98 83 68 
223 896 351 84 65 51 
325 177 475 112 63 20 
303 408 408 62 83 102 
329 762 364 171 164 165 
298 765 402 160 113 73 
185 506 339 88 113 149 
202 959 434 198 147 123 
241 21 401 95 83 78 
240 20 402 101 91 84 
241 403 452 97 111 136 
198 641 317 84 118 148 
240 22 400 102 92 84 
176 333 325 136 95 34 
199 161 437 104 37 40 
191 989 398 147 119 90 
182 235 429 119 96 94 
242 21 401 89 79 73 
238 162 408 48 53 67 
99 701 363 85 121 170 
229 554 460 115 134 157 
164 438 457 90 109 133 
229 877 363 160 117 88 
242 23 400 108 97 88 
374 151 523 115 96 83 
165 238 389 66 82 102 
163 451 458 137 139 147 
177 497 473 99 109 126 
318 440 451 119 108 99 
250 747 438 155 125 125 
351 747 343 102 88 88 
219 173 347 100 56 61 
202 482 471 131 141 157 
193 193 411 99 32 50 
301 812 340 201 150 118 
194 166 416 45 35 37 
323 766 367 131 113 106 
199 455 465 125 134 149 
302 800 294 132 119 110 
247 17 402 104 95 89 
276 815 346 227 167 133 
344 195 487 75 89 108 
208 288 280 81 103 125 
165 782 336 146 122 99 
385 741 296 174 161 170 
259 277 324 117 125 137 
304 370 328 73 105 147 
209 929 439 136 104 80 
103 756 445 156 162 198 
51 660 434 79 84 90 
184 782 436 154 132 129 
284 745 283 88 94 103 
261 630 459 145 136 137 
246 20 402 100 90 84 
140 527 398 164 164 171 
172 145 279 173 87 7 
181 961 429 200 153 133 
239 369 295 123 144 172 
162 195 296 155 72 4 
247 23 401 103 84 81 
177 643 358 59 70 81 
170 1008 349 178 149 122 
322 454 324 83 117 155 
281 747 424 145 111 75 
324 749 274 92 93 99 
176 155 355 83 71 59 
146 820 372 162 137 114 
60 713 410 144 144 174 
234 831 309 220 155 118 
231 849 327 209 157 117 
235 604 466 121 107 107 
295 729 281 144 31 53 
408 191 504 82 101 122 
283 404 468 133 146 163 
161 904 393 152 113 83 
151 359 396 160 137 115 
148 379 397 166 141 118 
259 801 392 209 150 124 
37 668 437 124 101 79 
187 631 379 76 75 76 
182 1006 375 137 106 79 
347 242 493 115 77 96 
338 201 480 109 97 89 
185 680 440 95 106 145 
233 921 418 179 139 111 
268 688 281 176 184 208 
251 757 429 162 138 116 
152 534 460 116 132 152 
284 275 445 149 61 2 
197 763 450 174 150 133 
226 516 453 112 123 139 
250 17 402 106 96 89 
289 711 282 66 73 114 
401 659 347 126 136 150 
203 342 293 167 168 187 
277 630 444 157 113 103 
251 18 402 116 105 97 
172 888 420 159 115 89 
365 148 512 142 117 98 
321 486 327 164 167 177 
244 641 269 109 138 174 
248 21 402 121 112 107 
244 780 417 132 114 99 
187 1001 336 126 97 71 
276 606 311 75 89 105 
273 120 463 141 113 87 
217 540 317 98 122 148 
343 297 471 89 113 134 
224 305 291 171 135 103 
54 678 469 169 124 100 
243 240 325 130 129 134 
251 20 401 117 106 98 
230 199 386 73 43 61 
166 572 473 85 88 99 
198 349 427 77 80 85 
223 810 304 150 106 73 
144 489 385 107 115 141 
362 699 380 77 83 151 
172 642 373 59 66 76 
154 594 446 59 102 134 
239 911 366 111 65 40 
165 165 326 79 61 51 
94 674 460 149 97 83 
344 268 477 133 136 145 
157 624 491 177 131 118 
341 197 485 102 87 85 
360 218 511 89 47 67 
330 398 468 162 140 119 
60 664 473 149 108 85 
113 639 439 108 121 155 
324 477 471 119 141 184 
197 323 420 94 92 93 
251 182 475 67 35 53 
275 742 286 115 100 86 
400 717 338 167 197 229 
375 750 295 151 39 60 
254 18 403 108 97 89 
294 429 459 153 159 171 
369 653 390 99 122 159 
347 720 387 168 137 99 
165 476 347 65 94 158 
185 794 324 134 114 95 
151 575 402 128 146 169 
233 437 319 135 143 169 
223 161 467 80 35 43 
409 674 282 108 126 147 
226 378 441 62 100 133 
318 480 311 163 167 180 
237 622 474 178 125 119 
316 476 422 74 90 114 
234 600 299 96 116 139 
180 287 429 77 94 115 
215 199 284 54 80 106 
324 467 452 34 62 111 
233 844 357 186 139 117 
159 657 426 51 58 122 
261 26 358 136 120 109 
315 542 461 136 164 203 
194 813 406 138 141 153 
280 286 470 153 156 165 
267 9 387 118 98 85 
136 462 398 131 32 60 
290 301 437 105 111 121 
337 270 469 119 110 104 
181 720 451 95 121 146 
327 622 323 50 102 138 
231 960 344 128 103 77 
381 648 377 132 140 153 
71 740 432 100 127 200 
215 241 461 71 110 140 
249 25 400 142 117 116 
267 194 446 98 35 37 
363 669 402 122 155 193 
167 989 358 114 88 64 
258 234 428 99 34 15 
250 250 323 80 111 137 
248 250 410 88 80 78 
321 448 324 169 169 176 
167 297 402 67 90 109 
167 922 421 162 128 102 
344 335 484 151 144 141 
110 699 363 67 116 207 
196 993 326 127 91 63 
152 805 429 190 157 125 
327 162 489 26 64 114 
230 625 292 115 123 136 
194 307 283 132 135 144 
316 173 470 112 51 23 
374 754 314 194 158 132 
272 563 448 86 102 126 
224 31 445 118 91 74 
228 928 427 154 122 95 
162 271 337 64 78 101 
151 338 384 123 86 88 
274 340 411 120 118 119 
268 625 461 162 166 179 
223 924 327 113 88 68 
87 767 415 142 161 192 
285 785 288 181 163 151 
225 32 389 108 84 73 
225 33 389 108 85 71 
226 653 285 85 110 142 
210 102 474 113 93 73 
229 917 338 73 58 48 
169 981 383 95 68 49 
238 397 302 178 177 185 
376 752 300 120 69 122 
320 766 372 179 169 165 
329 364 437 125 87 85 
233 637 276 73 103 138 
174 951 337 95 72 41 
166 402 341 60 89 129 
304 303 455 94 33 45 
396 216 525 128 51 43 
291 829 327 226 161 132 
192 647 462 176 178 203 
265 184 443 69 47 81 
331 727 396 128 115 112 
373 334 500 185 123 96 
279 388 472 119 135 157 
276 438 288 79 112 150 
260 545 451 155 158 168 
197 661 316 151 150 156 
205 139 395 133 57 4 
311 446 388 97 120 146 
67 649 434 101 93 87 
202 496 335 91 107 137 
237 620 474 158 113 101 
123 634 406 55 112 159 
64 729 442 165 183 221 
309 432 388 142 145 154 
162 634 481 187 127 113 
417 241 495 115 119 127 
301 644 418 102 82 81 
188 348 431 106 113 126 
164 372 440 158 131 103 
160 244 326 128 87 100 
261 773 417 125 133 145 
215 510 316 54 84 135 
340 615 350 89 96 105 
229 33 389 109 84 68 
312 541 400 86 98 134 
197 423 328 97 124 178 
384 725 284 172 187 208 
228 35 388 104 83 66 
354 355 507 183 179 184 
252 373 288 127 146 167 
358 703 385 213 124 134 
159 402 428 162 135 106 
314 646 295 84 115 145 
251 190 475 51 41 58 
147 570 448 52 77 116 
225 876 355 171 127 97 
373 692 380 107 134 160 
254 610 266 160 163 174 
292 154 467 142 96 87 
318 387 437 46 62 76 
282 504 459 69 95 148 
224 616 477 68 64 69 
233 640 276 92 121 156 
183 554 351 163 164 173 
157 616 488 126 105 84 
72 692 384 113 132 162 
210 984 329 141 115 88 
229 39 388 100 80 61 
247 822 302 232 167 130 
204 700 460 133 150 171 
148 579 425 106 115 129 
235 805 400 210 145 124 
232 202 467 39 42 73 
251 538 290 113 118 127 
100 739 379 150 142 191 
181 235 288 161 62 73 
412 217 505 154 96 75 
179 539 346 165 166 174 
284 729 425 92 91 95 
230 975 395 95 75 64 
384 746 303 161 46 63 
126 623 478 111 92 75 
232 730 463 173 61 67 
153 269 364 70 62 88 
227 73 463 99 82 65 
247 835 348 201 143 120 
416 681 295 130 134 143 
315 434 298 130 142 160 
112 656 477 172 117 92 
271 584 304 145 145 152 
314 713 427 197 82 23 
208 624 309 152 143 147 
204 161 457 101 31 31 
171 490 478 165 171 184 
213 934 324 67 54 42 
90 646 429 95 107 122 
287 471 460 97 108 155 
152 236 348 130 40 65 
316 417 318 116 133 154 
334 242 487 90 111 134 
156 591 401 106 111 124 
245 660 272 172 169 177 
394 171 505 158 45 13 
201 173 399 41 67 90 
181 379 305 95 128 168 
298 703 273 167 37 74 
181 159 346 79 66 53 
123 638 431 77 104 152 
170 779 445 177 147 143 
185 464 336 144 143 150 
316 414 323 77 113 149 
233 465 319 87 109 130 
230 907 423 188 140 113 
341 438 480 93 118 165 
415 173 478 163 70 7 
286 370 356 88 110 147 
142 554 432 111 123 152 
208 540 467 88 101 116 
288 256 448 123 48 85 
188 766 317 143 128 115 
318 366 439 77 77 82 
125 762 441 139 150 166 
206 457 328 51 94 143 
253 605 463 75 134 178 
117 806 415 174 28 48 
113 757 382 104 143 177 
304 502 463 128 150 176 
283 132 459 190 92 21 
295 278 461 68 106 135 
143 466 435 117 102 90 
406 234 511 147 49 83 
213 990 330 145 116 85 
204 173 455 42 47 69 
296 544 294 162 167 178 
222 828 383 177 114 94 
229 46 387 88 72 54 
244 948 385 84 67 54 
176 278 433 141 137 139 
230 45 387 89 72 54 
315 641 409 69 54 47 
278 180 459 50 63 77 
205 844 386 175 125 98 
229 474 447 150 146 150 
276 635 444 112 104 119 
352 173 514 144 34 20 
187 834 384 178 131 107 
232 33 390 103 79 62 
216 101 476 120 97 73 
173 893 423 156 115 90 
343 245 487 91 62 86 
97 668 473 169 114 89 
295 372 464 74 118 154 
173 741 327 144 30 32 
283 279 471 76 119 152 
165 625 434 51 58 66 
191 410 448 39 66 96 
154 698 352 141 155 192 
307 575 430 86 109 169 
342 366 499 166 163 167 
184 186 259 171 144 124 
100 764 392 100 115 184 
316 206 465 84 74 86 
191 690 445 53 77 135 
250 495 307 101 121 143 
237 239 340 128 125 127 
295 229 450 118 81 60 
175 494 344 140 141 149 
159 755 339 125 36 45 
230 566 461 170 164 168 
125 757 377 126 144 164 
228 669 461 74 69 116 
129 759 439 132 145 164 
392 686 381 119 143 174 
197 486 333 98 119 147 
145 549 395 128 141 162 
325 426 430 108 101 96 
311 653 273 115 122 132 
95 671 471 167 112 90 
250 437 310 160 162 177 
380 726 346 153 68 75 
359 434 480 169 142 130 
205 220 431 107 22 55 
152 695 419 68 87 148 
315 472 418 88 112 147 
215 488 464 90 101 139 
224 868 371 172 127 95 
373 297 519 131 137 148 
103 770 396 172 181 197 
292 463 457 142 150 166 
170 798 334 153 134 117 
378 371 488 222 183 136 
260 290 412 75 98 119 
165 642 427 22 68 121 
141 545 410 114 127 154 
225 827 311 177 131 92 
227 795 414 138 141 149 
162 293 340 79 116 147 
232 619 288 118 127 141 
232 224 378 80 58 64 
209 750 460 163 96 111 
311 564 418 81 111 161 
388 217 510 109 42 29 
161 446 337 117 137 162 
234 841 355 190 141 117 
150 397 410 130 30 63 
168 396 453 146 128 109 
202 183 278 108 80 96 
134 788 438 118 26 65 
93 673 441 49 79 125 
172 485 477 156 163 177 
108 656 423 102 118 147 
226 735 465 96 152 195 
157 286 382 86 69 81 
177 171 277 113 97 81 
287 226 463 134 120 115 
264 224 474 148 144 145 
182 742 455 62 66 116 
285 372 380 64 95 123 
153 614 473 79 75 73 
326 412 434 128 62 0 
172 615 490 155 120 107 
265 357 477 156 159 169 
291 441 277 132 146 167 
204 919 323 85 64 42 
174 349 328 137 97 44 
308 559 434 72 84 147 
172 892 371 132 104 78 
337 371 496 89 103 122 
235 562 459 167 164 168 
234 43 387 91 72 52 
97 726 374 72 75 156 
152 441 436 130 114 97 
270 268 471 77 116 147 
178 304 423 116 122 133 
299 360 308 112 127 146 
226 343 461 155 62 101 
353 667 406 121 151 182 
235 41 388 91 71 52 
305 364 448 64 78 92 
169 888 412 164 122 93 
288 795 369 212 151 121 
248 223 317 100 98 101 
354 223 492 120 39 54 
318 568 368 92 117 142 
338 151 498 162 104 68 
150 700 353 138 155 194 
267 583 286 138 160 184 
142 466 387 76 88 125 
347 389 499 168 140 105 
226 207 466 83 41 35 
136 484 409 54 89 146 
316 351 437 116 112 112 
155 458 450 124 132 145 
257 785 407 206 152 123 
306 663 266 88 103 124 
312 546 426 133 145 163 
172 261 397 107 40 63 
170 143 279 155 72 6 
207 210 421 109 22 30 
206 795 420 200 176 157 
370 303 507 156 164 179 
163 789 438 85 91 101 
261 515 289 109 121 136 
239 268 471 150 148 152 
237 331 469 155 84 111 
169 629 421 33 48 62 
344 357 485 166 137 104 
186 434 456 46 70 92 
157 650 430 28 54 112 
307 547 440 132 147 170 
408 222 493 119 49 52 
166 405 454 146 130 125 
44 681 425 98 115 143 
178 969 335 106 82 50 
198 460 466 171 164 164 
210 169 462 40 38 42 
179 323 418 116 128 144 
402 283 504 161 164 173 
162 212 365 120 77 52 
288 132 471 147 75 7 
246 663 458 76 73 85 
171 409 320 101 125 150 
278 146 459 113 77 68 
234 902 418 168 120 90 
176 636 467 165 117 108 
310 412 295 134 142 155 
331 358 441 124 121 119 
287 348 468 166 165 171 
201 974 425 110 91 74 
335 226 490 97 39 67 
224 48 387 91 77 63 
274 174 449 29 59 111 
267 293 325 123 122 125 
172 881 413 155 116 87 
259 309 380 105 103 104 
396 655 338 103 85 67 
182 401 456 78 102 133 
167 964 411 135 107 90 
400 163 493 140 89 70 
226 49 387 88 74 60 
260 288 339 94 112 132 
319 185 467 109 55 49 
397 263 495 115 46 74 
226 51 387 87 74 61 
386 328 502 181 182 189 
233 97 460 96 82 67 
174 186 348 129 64 15 
102 691 360 101 123 147 
210 192 282 117 83 86 
