ply
format ascii 1.0
comment Created by CloudCompare v2.11.1 (Anoia)
comment Created 2/28/22 9:39 PM
obj_info Generated by CloudCompare!
element vertex 2013
property float x
property float y
property float z
property uchar red
property uchar green
property uchar blue
end_header
180 574 475 66 67 80 
342 252 452 99 82 78 
238 131 421 107 95 86 
178 244 431 127 112 101 
328 607 346 101 95 92 
359 317 503 87 145 187 
260 296 293 137 136 137 
333 258 450 80 59 71 
156 167 345 91 68 57 
189 318 294 148 59 93 
335 375 434 90 133 171 
223 142 349 57 80 100 
116 733 379 184 183 198 
204 179 291 77 106 132 
408 698 283 145 162 216 
177 223 294 88 78 92 
154 586 428 93 113 141 
288 245 456 109 35 32 
214 655 460 126 154 195 
252 577 289 140 141 147 
346 318 455 136 145 159 
80 641 468 91 79 68 
233 16 397 83 77 73 
232 17 398 89 81 75 
187 453 474 145 157 175 
306 173 454 90 49 66 
288 366 287 112 125 169 
294 435 447 103 119 145 
337 155 465 127 109 93 
349 142 501 118 98 78 
180 411 319 124 135 186 
312 767 264 164 144 131 
190 872 329 157 119 87 
243 917 383 120 92 68 
259 652 445 124 101 99 
329 370 463 139 26 59 
343 695 249 87 121 150 
392 718 288 177 194 226 
310 647 286 119 126 138 
70 669 486 163 116 94 
247 297 464 137 25 61 
93 697 390 98 110 155 
322 363 436 104 62 69 
212 377 434 83 104 125 
241 916 367 173 105 80 
154 321 396 141 130 123 
241 736 276 118 96 78 
150 349 401 163 137 111 
265 556 275 169 171 180 
235 932 398 108 82 60 
232 22 397 114 101 92 
91 754 410 103 129 183 
353 192 486 81 46 34 
168 894 357 82 64 49 
323 162 463 38 45 59 
162 894 402 153 115 86 
234 20 399 100 89 83 
141 795 363 144 116 89 
216 325 288 136 147 170 
302 784 336 186 127 92 
218 416 445 146 141 143 
81 642 473 95 80 66 
188 797 419 170 147 127 
291 467 287 94 116 141 
179 573 360 154 142 134 
309 808 320 203 148 117 
335 327 476 91 48 44 
320 459 466 69 99 145 
369 688 356 91 126 156 
172 916 425 156 120 103 
370 735 265 177 158 166 
377 285 510 109 135 161 
92 647 416 97 109 122 
236 23 397 139 122 115 
139 531 409 153 155 167 
216 99 474 115 93 70 
358 225 505 83 47 69 
107 772 399 159 170 187 
204 758 308 150 127 111 
51 690 445 138 146 178 
331 165 463 43 39 57 
285 279 428 95 93 96 
239 23 399 107 93 87 
235 351 455 113 129 150 
136 682 441 88 99 144 
235 651 274 187 182 190 
346 200 478 54 42 67 
173 844 371 184 135 105 
101 671 389 44 78 107 
312 295 421 102 118 136 
175 678 427 59 109 151 
261 821 346 219 163 137 
289 784 364 206 150 118 
215 947 431 185 139 112 
286 680 443 126 135 149 
236 30 391 108 81 64 
289 820 291 233 162 126 
236 31 391 106 79 62 
353 253 474 111 62 78 
256 805 380 210 147 124 
402 190 490 101 94 118 
196 618 339 69 62 69 
218 66 460 90 77 64 
136 750 445 124 139 158 
312 354 427 55 63 73 
204 442 327 111 128 169 
366 740 315 170 134 125 
127 658 480 169 112 92 
209 333 429 86 99 114 
104 655 399 38 68 120 
258 415 446 52 77 136 
170 162 368 90 81 74 
294 175 446 57 68 82 
234 532 298 147 150 160 
252 280 297 86 99 113 
166 265 394 103 47 68 
176 377 438 161 139 117 
146 937 384 93 76 59 
363 730 261 183 193 211 
356 756 272 178 35 59 
232 906 412 173 124 94 
186 485 480 176 179 191 
258 823 293 236 175 136 
143 731 436 82 92 136 
184 162 285 109 34 25 
234 26 394 121 91 81 
234 26 395 126 99 89 
314 392 410 67 65 70 
113 774 448 158 179 204 
331 162 469 31 43 68 
311 524 430 96 124 168 
372 283 489 117 102 119 
200 431 318 48 83 152 
366 718 256 141 141 180 
342 313 440 149 156 169 
267 125 453 133 69 6 
143 394 401 140 36 70 
274 617 285 80 135 179 
280 516 437 100 113 149 
192 128 298 98 89 85 
258 747 268 133 121 115 
285 367 288 92 118 157 
158 384 357 96 111 133 
226 584 296 102 120 142 
168 727 344 139 149 163 
193 772 320 98 94 92 
156 295 359 64 100 130 
370 334 491 166 170 182 
321 509 419 155 163 178 
311 553 422 43 74 139 
249 306 465 145 31 74 
196 567 485 98 125 162 
221 168 333 106 57 58 
216 526 463 87 103 147 
299 800 282 141 117 101 
210 413 449 124 131 144 
354 143 496 139 101 79 
304 393 383 65 100 129 
185 672 313 122 143 166 
394 676 272 55 64 74 
194 352 440 124 98 100 
284 134 454 167 101 71 
302 471 447 95 115 151 
236 25 396 146 127 118 
234 199 404 91 53 39 
397 652 281 96 125 153 
148 770 358 135 90 31 
188 332 441 143 144 151 
354 293 490 146 145 150 
222 91 451 82 70 58 
389 670 347 58 95 145 
340 331 466 181 153 125 
118 664 478 167 110 88 
333 687 411 191 170 145 
177 635 384 61 67 77 
363 735 326 188 151 118 
309 814 311 210 150 119 
171 598 390 130 125 126 
338 362 432 139 144 158 
324 464 326 68 106 154 
193 171 283 158 87 72 
242 322 286 164 166 183 
226 175 319 96 89 96 
210 82 477 116 94 70 
227 352 444 144 141 145 
172 962 337 78 61 50 
260 774 408 105 80 71 
235 241 299 119 130 145 
268 127 449 140 82 27 
349 178 486 133 38 23 
183 207 430 92 60 65 
181 353 320 137 143 154 
211 849 381 157 115 87 
156 428 433 150 67 3 
325 246 445 76 103 127 
222 154 377 107 34 28 
197 173 425 75 34 33 
153 237 342 144 88 87 
286 392 289 91 115 167 
236 18 400 93 83 77 
136 495 414 96 121 159 
323 653 275 94 111 130 
233 926 406 187 138 109 
163 438 348 84 104 150 
384 657 351 108 124 155 
261 690 453 147 176 206 
202 612 352 65 88 107 
142 698 432 125 129 161 
236 643 272 107 132 158 
356 162 500 152 44 28 
99 671 390 57 89 115 
109 779 443 180 202 230 
157 829 373 176 153 136 
333 636 389 70 87 104 
298 768 377 228 178 148 
239 19 402 93 84 77 
317 385 457 94 106 123 
121 700 452 129 136 149 
163 532 358 154 156 165 
231 434 307 115 122 133 
249 778 410 159 142 130 
169 371 452 138 109 101 
197 152 456 90 52 71 
280 826 320 218 158 128 
319 454 433 117 125 138 
204 660 309 157 158 168 
238 22 400 105 94 87 
146 434 378 78 91 116 
145 562 431 136 144 156 
239 161 418 83 32 18 
224 137 468 143 84 72 
296 388 451 99 120 146 
172 941 331 81 59 31 
382 733 280 172 200 232 
212 496 308 152 156 166 
367 216 520 97 32 38 
272 750 417 140 117 94 
347 193 468 89 96 106 
168 438 460 81 104 143 
242 9 384 90 81 74 
178 419 458 84 100 125 
243 9 384 90 81 73 
180 959 428 203 154 133 
162 979 332 146 118 91 
291 344 289 61 94 121 
268 638 447 187 181 184 
220 573 304 92 133 167 
331 172 458 119 44 14 
240 10 389 85 78 74 
288 176 446 92 55 76 
175 390 455 121 103 87 
341 302 466 69 110 141 
289 524 272 136 155 191 
322 420 334 58 97 144 
206 556 309 155 161 174 
321 521 356 105 128 153 
294 621 320 85 98 118 
242 10 388 85 77 72 
159 227 373 115 37 57 
397 662 277 166 168 182 
265 668 287 132 138 151 
199 73 477 112 93 74 
209 554 479 101 134 170 
201 608 356 63 89 111 
217 555 297 101 135 169 
223 929 427 165 134 107 
257 478 433 141 146 160 
377 659 363 72 103 131 
287 796 281 138 125 115 
316 618 312 66 104 135 
369 148 509 152 94 74 
280 797 362 216 156 127 
334 394 424 198 177 161 
305 348 304 71 103 130 
307 580 352 139 136 138 
164 802 429 123 120 132 
191 289 425 94 110 128 
164 278 318 96 66 90 
314 379 317 93 117 143 
159 526 461 111 129 150 
147 930 385 73 58 48 
244 9 389 85 77 72 
290 422 293 78 109 158 
191 1008 344 144 115 86 
389 653 311 91 78 65 
160 647 432 37 58 107 
176 612 475 68 67 68 
191 792 423 163 140 119 
120 642 443 86 105 147 
173 273 330 125 120 133 
161 187 284 123 110 95 
312 475 437 24 62 109 
138 460 411 138 122 106 
342 318 443 170 172 181 
351 286 473 146 146 152 
134 787 372 142 50 73 
326 298 427 132 128 128 
223 104 466 98 83 69 
225 202 290 147 148 152 
283 119 459 134 102 77 
168 541 473 137 143 156 
151 319 391 155 136 119 
259 795 280 110 85 58 
325 372 475 99 103 113 
365 168 512 103 36 50 
353 164 478 143 69 0 
139 437 403 167 70 4 
183 933 438 173 135 112 
211 683 304 77 120 155 
283 742 413 149 128 107 
113 672 452 39 64 101 
260 239 425 88 35 24 
346 716 372 140 27 84 
102 770 404 172 179 194 
381 249 516 51 74 108 
179 846 376 175 129 99 
213 980 337 112 93 75 
311 396 439 33 49 68 
258 415 445 55 80 139 
329 716 389 70 82 123 
320 390 470 97 107 121 
226 438 447 97 113 136 
174 719 334 126 140 159 
208 132 290 89 101 113 
304 442 288 150 160 186 
181 333 321 141 78 101 
238 126 474 150 80 5 
170 842 351 186 139 106 
185 325 304 115 132 153 
208 814 308 153 113 80 
329 771 273 173 135 101 
150 672 429 147 150 159 
321 514 350 101 122 149 
312 512 452 138 152 172 
371 747 281 146 80 81 
331 412 422 185 80 12 
295 615 337 73 73 78 
301 265 428 104 118 132 
172 723 438 117 132 151 
279 435 298 24 78 147 
187 419 465 83 112 149 
324 481 416 88 124 169 
163 391 354 85 119 154 
138 521 409 159 157 162 
334 256 450 59 83 101 
119 722 375 178 178 199 
187 607 483 91 81 74 
245 10 395 85 77 72 
168 637 483 184 124 109 
151 420 426 154 131 106 
247 10 392 85 77 72 
318 745 256 142 112 72 
195 942 324 85 66 47 
240 208 463 30 59 114 
164 430 441 123 93 68 
183 758 453 146 41 47 
211 868 426 175 133 110 
295 187 441 113 72 68 
304 260 428 106 56 61 
142 492 438 94 117 142 
225 635 474 183 117 111 
227 142 380 120 62 17 
297 658 437 150 91 28 
173 543 351 158 159 170 
352 712 360 194 134 115 
307 458 287 135 144 157 
160 283 351 126 23 65 
310 673 422 176 127 63 
242 935 383 81 63 53 
298 185 446 130 50 58 
317 182 453 106 27 49 
319 525 348 142 149 163 
55 678 436 110 127 152 
177 351 333 163 121 71 
198 623 350 96 96 100 
239 363 301 126 149 184 
270 305 344 129 46 76 
149 687 429 134 142 164 
248 9 384 92 82 73 
318 468 431 62 88 135 
323 497 346 101 130 160 
166 901 355 56 46 40 
210 400 443 82 100 122 
376 731 310 193 85 94 
96 649 491 134 103 76 
140 516 394 137 142 153 
250 9 384 96 84 75 
132 758 381 149 152 162 
197 249 423 77 82 90 
320 690 418 195 93 41 
309 600 401 133 137 147 
217 389 309 50 85 134 
255 669 285 104 126 151 
381 722 315 152 155 171 
226 863 307 106 90 73 
155 904 387 144 78 66 
267 286 416 107 105 107 
187 631 316 71 105 135 
299 392 447 64 80 105 
185 522 485 99 126 171 
316 549 365 94 114 140 
335 669 405 86 83 85 
193 563 486 118 149 184 
313 526 325 123 143 166 
202 844 385 173 125 97 
250 9 389 87 79 72 
251 9 388 90 81 74 
314 383 433 24 50 67 
269 119 452 118 86 55 
260 13 403 88 66 48 
198 764 450 175 137 132 
151 151 312 87 62 52 
324 421 328 68 105 149 
259 297 292 138 137 139 
217 926 323 103 78 52 
192 953 327 125 102 78 
198 752 457 196 124 123 
323 750 258 159 114 120 
173 489 339 124 132 147 
235 457 444 128 131 141 
164 236 322 108 97 108 
265 749 418 166 142 124 
349 284 501 116 103 90 
400 208 501 129 101 96 
383 717 323 139 139 161 
254 9 386 102 90 81 
269 802 370 214 154 130 
207 636 476 194 140 129 
221 364 304 111 138 183 
360 758 288 129 73 87 
267 297 409 67 75 84 
121 732 452 128 134 150 
253 9 389 91 82 75 
252 9 390 89 80 74 
351 156 472 126 104 91 
188 256 419 80 64 64 
157 378 359 106 114 128 
221 646 283 79 105 145 
264 504 283 78 105 134 
236 238 345 78 95 111 
329 160 462 87 82 83 
254 9 390 91 81 75 
357 242 504 109 41 56 
373 190 521 86 34 35 
92 738 459 121 141 186 
360 259 515 126 12 76 
172 668 426 58 114 154 
255 405 305 95 123 177 
222 285 286 147 141 141 
307 572 387 142 149 161 
390 215 517 154 73 68 
205 160 409 86 57 46 
261 512 284 133 141 155 
313 449 439 87 74 66 
218 706 285 143 155 172 
164 298 329 173 166 175 
139 736 372 121 139 173 
321 513 457 193 197 210 
340 394 486 172 154 142 
247 508 442 168 163 166 
201 235 284 114 130 148 
222 523 457 74 97 134 
248 10 396 86 78 72 
370 706 255 75 109 153 
323 441 409 98 112 128 
123 648 427 90 105 144 
151 643 472 148 103 89 
339 471 464 186 188 199 
195 466 333 80 113 159 
307 566 385 88 111 148 
154 192 323 168 68 0 
229 527 453 112 126 145 
227 847 350 181 139 116 
133 623 475 90 80 72 
142 625 449 69 78 89 
260 545 442 162 165 175 
178 318 411 122 122 128 
400 683 316 110 135 168 
251 10 398 87 78 71 
144 373 368 147 22 61 
294 412 448 145 149 159 
409 678 265 108 139 172 
240 771 424 208 177 149 
187 187 421 104 43 47 
367 664 383 114 142 171 
160 722 359 125 125 132 
287 499 279 72 98 126 
350 298 503 115 132 153 
395 252 506 113 76 73 
299 780 349 192 136 104 
148 418 424 152 127 100 
272 291 334 138 127 121 
317 442 400 78 102 127 
167 189 372 66 87 107 
264 118 451 126 95 64 
66 707 470 127 157 207 
213 874 329 142 105 75 
305 651 271 137 148 164 
190 693 435 33 60 116 
270 148 446 108 96 86 
252 10 396 87 77 71 
386 269 493 84 122 153 
204 88 476 133 108 83 
192 580 479 53 63 76 
252 10 398 87 77 71 
124 804 410 192 128 58 
252 11 399 87 77 70 
331 325 433 136 101 75 
191 863 423 132 105 81 
239 322 462 141 39 86 
196 839 385 175 130 104 
326 424 473 68 95 135 
123 767 388 146 75 72 
235 967 364 88 73 61 
353 275 478 143 145 153 
266 499 431 158 161 169 
314 509 306 118 139 172 
274 591 324 45 72 93 
265 633 284 172 168 170 
330 445 472 71 100 169 
221 754 452 199 143 113 
301 353 448 77 82 96 
225 846 356 184 140 115 
171 356 442 158 130 98 
193 651 306 159 159 167 
115 750 455 160 171 191 
189 196 285 70 79 103 
306 579 386 117 133 153 
178 643 354 88 92 98 
231 522 450 28 66 100 
175 921 322 92 74 57 
243 13 401 87 78 72 
196 213 439 87 32 50 
346 284 466 74 107 134 
242 15 402 88 79 74 
307 593 354 111 106 103 
179 360 324 149 149 157 
243 341 461 153 37 86 
200 862 326 166 118 75 
306 176 453 127 41 68 
160 388 355 64 100 136 
92 711 394 77 109 156 
245 13 401 89 81 76 
246 598 268 137 147 165 
287 729 414 111 98 117 
372 641 359 61 105 138 
178 883 336 103 81 60 
215 426 319 89 116 166 
256 603 454 68 105 135 
204 551 331 118 124 135 
288 539 293 212 207 212 
220 863 368 175 130 100 
380 708 338 153 186 220 
282 608 330 59 76 93 
146 733 437 57 83 143 
400 249 501 158 103 98 
205 564 315 116 137 162 
319 315 428 72 30 38 
219 689 457 129 148 171 
250 11 400 87 79 73 
257 276 403 77 88 99 
191 872 327 156 120 91 
259 213 464 131 15 59 
363 326 500 82 135 175 
247 241 313 134 132 136 
160 649 431 76 81 109 
169 621 449 42 47 53 
216 517 305 39 69 99 
175 636 386 58 65 73 
236 197 372 78 38 38 
218 858 313 132 110 89 
204 975 420 104 85 71 
228 935 336 72 54 42 
282 228 462 129 123 121 
233 746 276 107 116 127 
114 663 462 119 87 78 
283 609 314 65 81 98 
306 349 314 71 108 140 
281 309 296 114 122 132 
123 729 380 129 136 180 
255 573 282 96 117 138 
251 377 300 74 108 158 
165 438 450 132 27 73 
126 734 382 101 117 167 
350 760 273 168 104 118 
387 653 309 92 78 65 
354 743 318 167 153 145 
155 765 442 157 33 50 
242 137 424 108 96 86 
154 222 335 111 76 109 
202 610 301 170 170 179 
286 595 437 183 181 188 
267 813 352 220 159 134 
111 765 450 162 178 201 
253 13 402 89 80 73 
169 611 407 74 84 96 
181 493 337 99 119 156 
252 14 403 92 84 78 
154 784 349 130 111 96 
339 343 433 167 95 65 
183 295 305 136 36 64 
193 561 343 105 117 134 
326 354 452 143 117 95 
158 376 417 151 130 108 
224 417 441 142 140 145 
315 390 452 61 89 115 
206 311 284 211 156 93 
182 264 402 103 79 80 
161 261 331 136 98 75 
233 198 463 37 46 77 
346 177 482 122 37 40 
310 519 307 80 106 172 
331 760 332 147 121 93 
355 293 492 153 147 146 
389 647 271 147 154 165 
151 713 363 133 156 189 
209 459 321 110 118 129 
193 321 290 164 106 122 
279 635 448 190 186 192 
305 169 450 133 57 3 
325 433 320 74 113 149 
315 402 461 80 97 123 
187 163 285 114 34 25 
184 364 449 119 106 97 
219 942 328 77 55 39 
339 281 449 69 100 126 
313 256 433 102 12 51 
91 642 437 85 97 112 
149 342 361 142 149 162 
243 30 389 109 80 61 
142 645 386 64 111 150 
160 180 288 116 104 93 
295 443 443 69 90 119 
356 264 506 138 75 14 
315 557 404 81 116 153 
325 610 337 93 82 74 
343 329 450 154 70 75 
230 103 452 79 67 56 
348 367 492 135 138 146 
172 822 339 96 99 106 
168 831 345 178 136 103 
341 332 443 198 155 121 
307 652 422 67 59 94 
390 191 505 50 71 106 
396 690 330 130 162 198 
206 555 306 116 131 150 
278 251 432 122 51 69 
210 520 322 86 102 119 
260 748 422 90 87 96 
197 668 308 85 130 165 
247 434 435 112 123 143 
274 558 302 101 121 147 
181 678 319 107 126 150 
149 264 374 56 64 90 
137 462 396 120 129 155 
320 643 285 75 96 118 
190 987 404 117 96 77 
391 268 506 135 31 73 
160 739 350 144 26 38 
203 855 326 152 106 67 
293 709 253 131 112 104 
138 637 407 67 107 143 
313 601 371 52 62 71 
174 388 443 157 138 120 
160 677 345 86 99 121 
290 149 451 111 96 87 
395 666 335 57 97 156 
317 653 410 66 62 60 
243 27 394 143 118 114 
162 312 401 135 133 137 
191 873 329 155 119 91 
264 254 460 140 144 154 
202 197 404 109 65 69 
355 634 275 51 81 106 
181 205 289 109 24 50 
331 425 458 111 97 88 
166 294 329 158 155 163 
273 292 419 96 97 102 
217 655 290 84 109 146 
261 161 442 136 66 43 
148 349 395 140 29 68 
163 218 322 142 103 80 
410 687 285 136 144 183 
241 27 396 142 118 116 
308 297 436 91 61 39 
222 674 278 88 99 127 
359 717 255 151 163 181 
178 810 332 139 121 108 
165 194 279 182 77 1 
324 432 471 61 91 139 
216 508 467 179 175 178 
219 164 295 103 100 102 
219 493 298 111 127 149 
156 546 456 145 146 153 
92 652 490 139 106 76 
301 785 275 211 176 141 
205 333 291 148 129 160 
212 539 476 80 102 124 
173 499 340 110 122 144 
173 635 324 84 136 177 
240 393 308 142 149 167 
104 646 436 88 108 128 
175 317 436 119 129 142 
323 460 445 53 78 127 
323 658 268 123 133 148 
263 676 451 112 131 151 
198 659 452 100 118 180 
237 545 296 75 106 130 
265 791 388 214 154 125 
224 846 320 228 159 116 
389 642 293 95 120 153 
195 196 429 65 29 34 
348 306 480 90 107 127 
216 243 460 80 124 156 
297 618 325 72 72 74 
121 657 380 65 94 121 
313 513 375 117 125 145 
235 887 382 146 111 81 
326 445 327 95 125 154 
155 648 400 72 106 139 
354 317 485 142 122 136 
169 638 481 184 121 108 
283 607 336 57 81 102 
159 673 342 145 152 177 
354 204 487 84 34 42 
245 26 398 133 120 112 
284 121 464 140 100 59 
173 263 317 106 110 122 
117 654 435 96 111 137 
149 814 426 135 122 120 
329 334 425 99 106 120 
289 803 337 204 146 112 
165 944 424 172 134 108 
162 226 379 126 40 65 
158 587 457 45 83 118 
293 421 449 104 116 149 
306 499 280 133 149 178 
201 183 455 71 48 49 
255 601 287 73 109 142 
314 386 301 109 124 142 
146 513 443 128 136 150 
212 517 470 95 102 155 
203 280 282 177 172 174 
284 207 451 81 65 67 
141 792 443 190 158 115 
312 241 434 106 99 96 
140 666 347 137 157 179 
159 456 346 118 132 150 
185 281 432 104 125 148 
173 322 449 158 159 168 
234 909 395 155 108 77 
111 773 448 144 167 194 
226 543 458 138 144 156 
297 225 435 109 97 86 
216 563 474 177 171 174 
249 31 386 109 80 61 
249 31 387 104 77 59 
221 535 295 108 131 158 
250 239 411 83 27 47 
295 403 449 51 79 129 
237 232 322 125 124 127 
204 604 352 56 88 113 
221 768 438 169 138 112 
194 244 405 125 41 71 
150 784 443 143 38 52 
90 710 396 68 110 159 
315 392 452 68 96 119 
248 29 391 159 141 132 
55 654 470 102 83 62 
239 365 452 86 107 140 
166 153 342 108 63 6 
114 667 477 163 107 87 
197 198 430 90 20 32 
321 651 404 58 84 133 
232 196 396 28 46 62 
350 268 494 94 97 100 
214 350 298 57 127 184 
224 642 279 78 106 141 
131 626 439 57 78 102 
118 630 447 77 91 105 
157 659 341 116 123 137 
225 162 360 82 62 74 
129 692 363 200 197 213 
259 623 455 163 154 154 
165 289 324 175 162 166 
334 162 467 39 44 68 
139 434 402 166 80 0 
156 285 329 141 24 66 
213 332 291 183 186 197 
204 439 325 108 124 170 
255 31 384 141 126 119 
180 313 411 123 123 128 
236 779 281 164 136 108 
254 31 386 142 128 121 
351 159 474 136 73 19 
316 720 407 145 122 119 
378 199 514 91 39 50 
167 420 331 109 119 133 
267 445 443 51 78 141 
153 241 367 102 48 47 
342 265 446 113 59 77 
252 29 391 157 129 133 
292 120 469 127 106 87 
238 585 275 97 115 134 
148 944 356 96 75 61 
344 183 475 96 27 64 
253 30 388 158 141 134 
198 134 294 74 83 95 
209 748 460 97 48 67 
155 617 475 77 72 70 
150 955 358 127 101 79 
269 825 295 252 189 159 
180 620 389 52 66 81 
347 309 479 77 102 121 
143 462 431 126 114 106 
345 609 310 79 108 133 
287 680 442 138 129 127 
299 540 307 130 153 181 
179 863 341 144 114 83 
287 314 330 139 80 100 
173 588 467 74 98 134 
165 827 347 106 92 83 
319 629 294 59 92 119 
323 601 358 115 104 98 
306 347 436 55 42 56 
189 410 453 76 81 119 
293 137 462 119 126 137 
214 288 438 100 111 126 
310 548 383 79 101 130 
181 282 309 101 112 126 
270 319 371 119 91 57 
329 163 464 41 45 63 
66 699 475 79 114 182 
67 717 436 133 149 190 
179 326 324 143 81 94 
187 223 422 48 71 90 
287 197 451 98 88 88 
250 25 399 119 90 94 
218 77 452 90 75 60 
190 516 338 102 114 130 
243 254 375 73 94 113 
100 714 376 64 97 151 
236 383 442 95 118 140 
188 286 411 128 120 121 
365 620 307 144 147 155 
177 588 372 117 78 72 
122 667 364 103 115 142 
383 657 293 60 58 58 
176 357 438 134 89 51 
166 837 358 194 143 112 
249 28 392 163 141 133 
179 351 329 137 78 56 
311 518 364 97 118 147 
232 184 398 85 43 53 
256 117 454 133 104 84 
250 28 393 149 122 123 
295 618 426 151 102 92 
158 729 360 125 125 130 
247 794 398 207 147 122 
311 431 353 63 96 129 
213 952 330 106 76 54 
280 305 298 115 121 132 
308 169 451 120 60 10 
256 641 449 161 151 148 
131 643 428 66 87 134 
160 423 360 93 114 143 
283 569 438 79 100 121 
317 436 343 111 131 159 
302 381 287 68 104 135 
279 19 386 150 102 85 
222 799 408 126 133 145 
280 247 434 53 57 90 
315 489 286 81 118 151 
368 205 504 100 31 46 
315 516 389 68 97 139 
227 747 457 178 126 138 
306 166 459 57 65 86 
330 395 437 158 132 106 
203 990 395 115 93 72 
94 641 453 82 78 78 
193 387 454 99 110 138 
350 377 492 191 80 23 
171 701 338 112 123 149 
193 896 434 141 104 82 
365 341 482 122 145 171 
312 522 377 132 140 154 
230 230 463 136 119 117 
334 432 457 112 59 60 
195 192 442 93 35 36 
159 161 304 117 99 85 
254 26 396 185 168 161 
247 690 282 156 163 177 
257 711 450 78 132 172 
255 26 396 186 166 160 
201 398 316 53 91 157 
283 334 343 117 71 95 
252 28 393 165 145 154 
234 961 373 109 90 76 
368 623 286 90 117 141 
119 712 371 188 188 207 
244 231 403 87 44 23 
254 28 393 166 152 149 
375 274 513 166 162 166 
189 487 474 83 97 126 
240 17 402 92 82 76 
335 375 428 198 172 148 
255 584 293 109 107 113 
191 185 418 92 40 47 
301 430 440 70 80 93 
328 609 322 93 100 111 
236 629 470 94 72 73 
265 10 384 137 116 105 
279 572 443 101 130 159 
228 673 459 49 75 112 
170 406 333 94 118 145 
236 679 460 170 172 182 
243 792 281 158 148 144 
177 375 326 54 94 135 
243 19 402 98 89 82 
187 986 403 123 101 83 
201 862 414 113 87 56 
263 251 460 151 149 154 
204 990 323 153 120 85 
241 21 402 93 84 77 
205 138 465 108 109 114 
175 641 349 68 80 93 
368 747 292 173 102 98 
73 688 412 86 96 153 
149 637 491 175 124 102 
149 302 377 68 103 134 
303 551 321 124 138 158 
78 645 456 83 76 70 
307 613 349 92 88 87 
398 714 269 116 143 221 
274 807 283 164 117 73 
242 22 401 98 88 80 
140 497 394 104 123 148 
143 637 447 85 103 141 
198 832 321 172 130 97 
361 152 508 158 66 6 
306 208 437 83 54 56 
364 705 254 106 121 148 
280 283 425 95 92 95 
401 202 496 114 112 118 
172 725 439 137 148 163 
364 633 343 130 102 73 
170 885 388 118 94 68 
227 881 359 147 110 81 
288 439 453 111 127 157 
249 703 462 145 165 189 
277 561 441 107 121 154 
157 453 445 129 118 113 
310 464 457 73 109 153 
318 636 389 69 56 51 
221 873 394 144 108 77 
284 797 354 219 158 128 
282 791 368 214 155 125 
319 483 429 136 150 172 
339 347 450 175 140 98 
239 386 306 189 190 200 
316 438 287 158 164 176 
245 23 401 120 103 96 
231 955 401 121 95 74 
370 741 303 212 178 140 
242 120 442 143 105 82 
321 631 379 102 72 63 
187 862 329 141 103 69 
248 137 429 112 100 90 
176 325 331 166 128 79 
341 136 495 121 100 81 
247 22 401 92 80 81 
397 193 484 103 67 74 
191 305 290 155 72 108 
139 707 366 139 143 159 
220 92 449 79 68 57 
79 707 470 134 144 184 
78 690 482 163 120 107 
83 737 413 137 145 173 
234 191 463 104 44 65 
203 218 285 150 145 145 
192 216 285 146 140 138 
211 286 424 73 88 112 
276 422 298 81 112 157 
256 571 275 70 114 152 
174 630 323 75 120 158 
322 459 445 59 81 129 
245 25 401 145 122 120 
358 246 506 122 38 45 
404 692 257 178 180 194 
163 169 297 96 60 40 
304 819 307 218 155 124 
245 263 358 67 80 92 
326 373 478 113 119 131 
319 202 447 78 69 78 
234 414 312 95 115 138 
298 569 326 130 125 126 
220 555 301 126 134 149 
174 393 440 167 142 116 
205 778 432 63 66 98 
338 346 453 166 134 98 
208 215 459 82 34 45 
257 276 464 98 122 147 
347 280 470 106 62 76 
235 256 463 70 105 131 
349 186 471 65 99 128 
201 225 453 76 104 124 
251 16 403 100 90 84 
194 661 444 144 153 173 
105 742 457 129 139 181 
200 166 456 104 43 61 
94 688 383 52 86 135 
316 752 379 107 109 121 
256 249 417 84 37 46 
183 562 351 133 147 166 
171 621 408 65 71 79 
248 21 402 125 114 108 
139 483 428 87 114 149 
287 183 443 76 57 57 
248 22 401 114 105 104 
152 723 432 98 124 158 
322 609 347 95 86 79 
249 23 401 106 83 89 
329 350 465 121 122 126 
386 704 337 205 219 240 
287 165 452 107 78 92 
314 183 452 129 15 57 
316 545 411 126 141 160 
230 453 299 114 121 131 
372 326 500 120 48 73 
236 208 293 176 112 37 
205 757 306 117 87 69 
173 983 385 108 75 60 
210 910 429 183 134 114 
253 416 442 67 95 147 
219 704 284 140 156 176 
160 450 360 114 126 145 
299 129 469 149 74 9 
322 156 464 73 85 104 
238 704 279 119 81 88 
314 489 284 112 131 164 
132 764 449 132 152 173 
203 674 309 77 124 161 
187 658 443 150 163 184 
187 917 430 131 100 88 
178 392 315 55 91 141 
337 324 480 80 111 138 
221 359 434 64 82 117 
301 777 268 205 178 151 
312 543 390 125 136 152 
212 312 424 120 120 126 
157 583 456 59 78 119 
255 19 402 109 99 93 
352 275 475 135 134 138 
400 198 497 53 98 130 
150 419 370 85 105 136 
307 395 287 141 155 175 
328 729 376 114 108 109 
343 614 299 89 117 143 
280 337 384 99 101 106 
313 225 438 86 82 89 
176 312 331 154 114 65 
224 865 342 177 136 103 
262 473 295 147 147 153 
253 22 400 141 124 117 
253 22 401 130 116 108 
79 712 469 168 172 188 
286 300 319 166 135 100 
376 629 283 114 135 158 
226 492 456 118 130 152 
197 486 471 68 92 121 
255 20 402 107 97 90 
108 782 436 168 185 207 
216 344 295 94 123 179 
177 379 323 69 111 145 
224 109 435 81 67 56 
232 664 276 97 120 142 
168 906 342 77 63 53 
187 320 299 142 89 108 
266 536 270 136 143 155 
289 154 453 102 81 93 
395 160 505 118 104 94 
263 352 463 184 173 171 
162 895 380 89 63 39 
325 453 319 68 104 151 
375 278 489 88 114 136 
349 221 477 119 31 26 
255 576 453 162 161 168 
298 496 279 56 97 133 
239 480 443 153 148 149 
129 809 426 222 184 139 
261 295 294 137 135 138 
149 276 372 108 95 99 
324 431 317 89 119 151 
159 917 408 167 124 99 
226 33 389 104 80 65 
189 677 436 109 120 151 
88 680 486 178 121 100 
314 414 341 124 136 156 
95 745 455 209 206 210 
317 615 406 185 123 118 
192 572 349 112 119 131 
135 740 443 74 94 130 
191 144 286 55 47 51 
214 771 294 150 133 119 
229 295 456 112 119 130 
391 700 330 166 184 208 
141 645 380 73 116 151 
338 640 272 82 105 127 
189 293 418 142 142 149 
295 366 286 92 119 149 
189 333 441 148 148 155 
222 291 285 131 136 146 
316 783 276 147 119 89 
165 156 295 132 73 10 
223 555 302 129 95 94 
220 933 326 57 40 30 
238 163 415 113 39 20 
57 662 443 63 77 92 
315 464 387 107 125 148 
173 554 476 165 160 162 
77 731 455 179 175 200 
172 200 281 197 92 67 
270 755 264 152 116 82 
131 712 441 119 134 153 
219 298 284 136 134 138 
229 173 464 111 56 49 
116 795 418 191 74 100 
312 472 437 40 65 120 
112 643 400 70 83 101 
228 35 389 101 80 63 
174 929 433 143 109 92 
384 728 300 186 186 189 
302 259 437 75 76 81 
395 661 280 135 138 166 
143 463 387 123 135 155 
154 166 309 146 66 20 
167 294 329 150 151 160 
311 276 428 138 137 141 
298 340 414 91 93 99 
254 262 463 150 147 150 
309 359 315 68 108 138 
263 822 291 243 176 142 
408 702 278 166 177 221 
277 778 268 175 140 96 
251 722 278 123 25 34 
151 959 363 98 76 59 
193 509 474 77 96 124 
176 138 341 83 65 47 
291 307 314 163 135 103 
280 18 389 131 97 72 
309 325 415 133 125 122 
212 540 476 89 111 133 
225 794 289 115 128 144 
230 36 388 95 76 57 
148 920 386 87 62 51 
161 897 375 93 64 39 
315 164 458 47 47 58 
189 977 420 95 78 67 
260 262 416 104 104 108 
93 696 472 126 123 167 
325 255 443 60 92 118 
208 289 422 66 91 114 
385 234 516 59 45 68 
292 368 456 60 106 140 
108 674 459 70 87 112 
321 735 385 158 142 131 
161 471 343 153 157 171 
366 705 254 78 114 152 
234 572 291 108 125 144 
302 397 360 101 119 143 
161 444 345 89 110 133 
376 297 487 169 172 182 
390 167 529 154 72 7 
393 652 269 144 151 163 
340 723 372 77 69 68 
233 813 292 174 125 86 
282 762 262 131 116 103 
304 328 434 75 65 66 
301 726 414 74 77 87 
160 716 362 97 107 122 
194 276 423 93 91 99 
151 428 370 82 103 141 
147 552 392 104 125 162 
224 439 449 104 120 143 
307 815 312 211 151 121 
302 269 437 63 73 84 
238 362 452 85 100 134 
179 363 325 128 137 152 
255 617 283 65 103 133 
319 610 325 80 80 82 
206 166 291 153 86 70 
286 243 435 28 68 98 
194 618 337 82 72 77 
228 40 387 93 75 56 
265 249 460 163 158 160 
248 343 462 102 117 150 
219 251 461 107 92 99 
194 675 440 96 99 144 
229 916 346 74 60 54 
260 637 283 170 169 178 
229 43 387 87 70 53 
361 756 291 152 128 140 
292 623 292 83 103 123 
308 561 372 154 154 161 
193 212 398 81 80 88 
318 393 311 136 144 157 
223 849 361 181 135 104 
231 42 387 87 70 52 
359 325 485 132 105 100 
279 435 451 149 153 162 
365 247 504 108 34 54 
81 684 400 157 160 172 
242 234 301 145 159 177 
144 473 383 136 144 160 
225 187 324 53 73 91 
183 964 331 77 66 55 
296 246 444 69 88 108 
379 662 363 57 101 132 
145 392 409 134 26 57 
293 610 424 104 102 109 
338 354 446 174 142 106 
168 713 430 88 105 129 
239 898 378 104 77 54 
76 733 429 161 168 191 
210 700 305 139 152 170 
256 274 395 98 104 113 
169 959 420 177 136 114 
316 461 347 136 150 168 
167 581 378 180 167 160 
301 319 441 62 83 101 
160 266 315 146 102 102 
267 180 460 101 43 54 
238 469 443 75 88 130 
233 32 390 100 76 59 
326 449 334 125 138 161 
209 527 312 90 120 151 
159 736 438 134 149 167 
368 734 264 182 190 202 
270 134 454 105 94 91 
358 346 477 150 43 67 
244 932 390 125 98 74 
238 454 295 129 132 138 
192 395 452 74 88 125 
278 633 282 85 77 83 
224 910 342 65 52 44 
312 628 405 151 102 92 
333 221 449 83 84 86 
231 939 341 84 69 64 
202 132 389 76 68 59 
218 130 297 123 94 71 
305 811 321 202 152 123 
87 734 405 144 158 183 
366 296 490 134 150 176 
212 466 465 118 127 142 
290 777 377 215 157 125 
284 321 293 113 118 128 
281 338 397 117 115 117 
120 659 486 173 114 91 
166 816 405 204 180 161 
243 147 426 129 59 3 
235 939 348 85 68 58 
217 629 300 109 125 144 
240 230 397 105 46 20 
338 274 440 92 120 145 
246 836 326 224 165 139 
158 715 364 81 109 145 
235 38 388 91 72 53 
374 213 524 105 52 33 
150 568 409 127 138 154 
202 663 309 154 152 161 
327 633 371 90 93 100 
148 233 344 135 51 84 
201 241 450 131 128 132 
72 716 420 175 173 179 
303 655 261 69 92 113 
211 548 296 127 144 165 
159 154 330 76 43 14 
265 306 367 90 104 120 
161 442 357 45 83 127 
239 137 473 113 88 104 
177 381 453 125 111 99 
239 33 388 94 71 51 
159 165 304 111 75 54 
270 537 268 179 178 185 
293 403 289 132 153 188 
151 551 378 129 138 158 
145 695 355 129 152 188 
381 176 512 107 55 78 
345 740 260 188 10 58 
49 689 465 88 108 163 
397 259 492 150 28 77 
144 405 415 142 75 73 
246 283 292 84 85 95 
236 39 388 89 69 50 
148 533 438 117 129 154 
237 39 388 87 68 49 
245 337 293 170 174 189 
128 789 383 163 129 82 
268 281 331 95 114 133 
157 822 401 204 179 160 
256 558 445 163 161 166 
329 295 438 108 117 130 
94 761 411 74 119 187 
98 764 406 160 164 194 
335 611 334 88 94 102 
251 305 465 135 15 50 
70 680 419 155 155 162 
351 279 462 86 109 131 
159 154 333 88 58 41 
221 944 428 185 139 112 
82 645 454 80 76 75 
225 784 421 220 171 116 
139 505 402 126 132 147 
258 274 407 82 91 102 
154 481 368 105 119 141 
328 717 389 102 142 176 
143 391 398 137 28 63 
195 378 306 100 126 190 
148 347 366 89 113 136 
256 18 403 100 91 85 
194 134 297 71 79 90 
356 256 485 67 91 112 
293 651 438 43 53 101 
167 629 437 44 63 98 
265 304 381 103 109 119 
309 552 384 147 147 154 
230 173 395 87 43 34 
392 667 287 72 67 65 
274 602 296 79 90 102 
392 152 522 109 98 90 
328 418 476 90 115 142 
194 354 443 136 121 115 
376 738 273 192 147 154 
240 489 297 87 106 130 
273 143 453 104 68 63 
242 679 278 151 106 103 
330 409 419 150 77 10 
181 673 431 35 54 122 
321 735 387 165 144 127 
294 507 445 125 133 158 
160 731 436 155 165 180 
204 162 410 65 56 50 
250 810 377 210 146 124 
225 599 293 100 112 128 
300 330 450 65 86 105 
150 674 428 150 152 161 
336 342 488 80 88 97 
252 256 463 153 146 147 
225 273 460 138 145 157 
313 278 428 128 132 140 
155 437 367 87 104 141 
192 157 436 116 36 27 
105 760 392 131 139 175 
206 471 319 84 105 129 
221 306 434 96 109 125 
183 726 447 129 149 171 
140 522 399 82 104 144 
218 432 452 105 119 138 
200 504 473 91 112 146 
317 514 395 75 105 141 
161 484 348 105 120 154 
187 274 425 131 137 148 
178 850 374 175 127 97 
236 46 386 86 68 51 
307 603 392 104 107 115 
264 508 283 108 125 145 
263 691 451 146 169 195 
192 396 314 65 99 167 
238 44 387 89 72 54 
185 236 433 128 51 9 
91 713 466 124 138 180 
292 619 314 73 89 107 
239 44 387 89 71 53 
167 698 354 126 131 147 
238 46 386 86 69 51 
67 707 426 142 144 175 
158 918 341 94 77 66 
201 124 467 150 61 10 
359 219 507 96 37 67 
319 683 247 171 166 169 
394 189 512 49 74 105 
225 48 387 83 69 54 
249 661 454 66 66 69 
196 691 311 130 64 73 
294 381 452 54 83 134 
184 608 481 86 78 74 
83 711 469 136 152 185 
141 441 419 164 68 4 
211 580 472 143 136 136 
225 511 292 100 129 163 
208 604 303 102 129 157 
315 382 321 67 103 140 
359 725 258 149 164 184 
170 484 347 141 142 152 
226 51 386 78 66 53 
161 646 438 32 56 99 
195 156 389 114 50 8 
310 536 450 58 101 142 
94 642 448 48 66 81 
219 129 314 139 116 92 
259 693 283 119 130 145 
209 981 408 85 64 55 
149 809 433 138 128 133 
313 528 383 141 144 155 
175 639 347 53 71 88 
281 423 296 93 116 155 
311 582 407 100 132 174 
272 582 320 68 78 88 
368 228 492 110 58 85 
159 413 360 76 104 145 
215 526 301 74 95 126 
272 317 392 88 100 114 
175 394 323 76 103 128 
165 529 468 92 113 147 
163 648 332 84 86 108 
226 55 387 78 65 51 
322 650 279 135 133 136 
205 707 454 126 141 160 
290 621 284 141 144 151 
224 100 447 79 68 58 
316 430 465 67 91 130 
141 411 402 176 149 121 
242 510 443 111 125 144 
252 830 341 221 160 133 
148 823 385 208 169 123 
259 515 284 149 151 160 
269 440 300 68 95 117 
164 555 467 152 152 159 
214 887 429 157 122 93 
172 850 354 181 141 108 
178 306 432 117 127 140 
168 974 329 134 108 79 
232 194 380 71 40 45 
187 965 426 170 129 112 
242 747 447 144 50 63 
326 155 462 53 63 92 
241 616 467 62 65 74 
211 734 464 171 55 75 
338 231 450 93 84 91 
345 285 485 153 153 159 
157 336 345 103 85 107 
237 546 295 74 113 145 
261 754 417 160 138 121 
142 390 372 180 150 119 
391 221 498 155 20 49 
251 831 337 215 158 131 
280 708 433 206 135 73 
226 578 466 68 112 147 
271 437 300 100 125 151 
354 708 364 186 46 53 
368 160 502 175 58 22 
300 381 394 109 112 120 
93 728 394 74 106 160 
300 634 304 84 104 124 
354 637 376 94 113 133 
252 264 397 114 112 113 
186 562 483 69 99 153 
209 232 286 159 156 160 
312 637 294 50 91 126 
180 316 322 141 87 96 
298 614 329 81 81 82 
142 674 357 59 92 141 
206 954 327 125 94 59 
409 695 282 196 202 218 
304 404 367 117 129 145 
75 703 475 158 175 202 
190 812 321 88 98 111 
179 959 428 205 157 135 
316 425 342 113 133 160 
292 560 313 133 149 170 
290 265 432 101 115 131 
155 724 433 118 133 157 
107 647 435 108 120 135 
187 310 435 77 104 128 
299 588 428 101 130 193 
259 258 315 81 109 132 
349 412 474 145 124 105 
342 332 447 163 30 67 
149 956 379 76 61 54 
148 176 348 99 88 82 
365 679 255 98 115 134 
267 303 404 69 91 110 
288 317 330 136 72 91 
274 123 454 148 90 43 
258 259 416 114 112 113 
250 678 457 127 141 158 
335 403 466 145 108 80 
226 60 386 80 66 52 
249 550 286 74 108 136 
233 191 370 76 35 31 
294 423 292 149 153 162 
205 883 433 121 49 50 
126 628 436 53 74 96 
219 84 451 81 69 56 
168 1005 360 153 130 112 
155 350 406 151 129 108 
182 145 383 82 75 69 
196 628 360 66 76 86 
390 243 495 74 78 104 
329 422 417 119 108 100 
361 693 354 122 66 86 
392 716 308 175 195 222 
313 572 358 108 123 142 
355 232 476 37 57 89 
170 322 340 154 114 67 
142 694 359 140 145 160 
235 195 302 112 49 69 
197 585 318 126 141 160 
166 422 451 133 120 110 
395 715 266 170 188 227 
311 386 336 64 97 139 
305 430 446 52 66 88 
161 895 382 83 62 42 
192 200 419 99 42 45 
350 158 497 89 66 58 
131 643 389 49 108 149 
310 791 279 158 146 142 
332 754 337 185 154 124 
347 671 256 38 71 114 
228 62 386 78 64 50 
199 604 326 90 44 58 
146 684 357 103 127 159 
215 901 429 161 120 94 
195 149 298 71 74 84 
244 806 388 207 144 120 
371 308 484 100 130 162 
189 1009 357 116 90 64 
336 640 274 96 114 132 
176 370 330 78 104 140 
290 528 443 80 111 161 
158 964 349 118 89 60 
298 724 413 72 66 84 
341 614 334 71 80 90 
97 664 398 84 110 133 
287 322 336 131 64 92 
289 771 264 157 138 124 
183 289 298 133 30 49 
217 617 302 119 138 161 
367 702 254 63 105 145 
234 48 386 84 68 49 
153 910 354 96 71 50 
145 478 383 105 124 152 
327 600 374 106 93 82 
184 787 430 89 86 100 
184 867 330 125 88 54 
313 785 329 172 121 96 
269 548 276 186 190 203 
207 94 475 123 100 76 
348 279 459 82 121 154 
294 626 288 67 97 120 
160 449 360 112 123 141 
352 383 473 212 148 57 
172 1006 365 152 126 98 
204 310 423 113 112 116 
237 464 294 143 145 153 
338 636 384 75 85 97 
116 765 451 181 190 208 
345 205 473 104 32 38 
322 655 407 73 64 56 
244 231 311 83 102 122 
150 932 355 73 59 52 
191 309 291 159 89 111 
114 644 397 93 105 120 
337 394 484 158 127 115 
225 199 346 35 52 68 
168 646 329 75 137 183 
390 281 498 165 168 178 
236 50 386 85 68 50 
236 51 386 84 67 50 
267 416 451 76 101 152 
320 622 301 79 103 125 
169 224 389 106 50 69 
235 597 465 89 92 100 
239 48 386 87 70 51 
170 880 379 151 117 88 
234 136 409 113 98 83 
305 647 287 77 106 147 
79 656 423 56 81 102 
329 476 445 92 117 160 
222 911 334 77 61 51 
375 718 331 147 178 205 
253 400 305 163 173 194 
216 287 444 114 125 140 
182 377 452 125 111 100 
170 694 427 88 99 148 
206 647 461 170 169 197 
233 186 401 80 41 50 
239 53 385 87 70 52 
172 628 428 37 50 63 
203 553 333 119 124 136 
314 165 457 44 33 49 
218 64 466 93 78 63 
251 742 440 176 111 74 
332 353 479 142 135 134 
368 689 355 82 118 148 
321 211 443 83 84 96 
208 921 430 118 87 72 
165 892 412 158 115 90 
287 284 427 86 104 124 
238 223 397 101 37 17 
211 530 306 117 132 153 
306 576 384 58 90 132 
82 699 478 158 176 213 
175 149 359 87 74 62 
253 272 381 114 114 117 
301 812 292 206 145 111 
387 188 526 97 41 45 
169 687 349 124 131 146 
214 726 465 110 146 178 
175 620 397 58 67 77 
234 259 296 83 101 120 
235 58 386 83 67 50 
158 439 362 133 136 148 
206 483 324 128 137 153 
208 171 293 122 112 106 
222 348 439 143 142 149 
175 828 338 171 130 99 
265 439 300 22 75 110 
289 195 448 94 91 99 
386 729 292 177 197 222 
359 193 497 87 42 60 
169 809 338 122 112 106 
171 717 338 142 151 166 
275 288 327 110 115 125 
222 599 301 96 123 161 
102 678 468 109 91 93 
219 756 288 107 94 82 
263 271 462 113 130 148 
331 290 440 80 104 127 
69 696 419 97 101 129 
235 63 386 82 67 52 
236 56 386 86 70 52 
278 759 410 206 187 175 
194 927 437 155 127 99 
229 665 459 127 140 166 
280 808 339 221 162 126 
367 335 483 120 142 170 
264 300 465 138 126 118 
46 670 455 144 108 89 
323 455 409 89 109 129 
172 215 389 125 72 73 
92 715 395 85 118 158 
235 898 386 134 99 74 
311 665 422 120 94 61 
388 680 358 107 131 158 
348 613 298 92 122 147 
131 652 429 84 94 137 
246 566 453 164 159 163 
171 613 481 78 75 73 
207 729 303 133 36 36 
323 638 394 70 75 82 
307 405 388 99 117 138 
302 589 425 49 81 130 
364 322 501 80 137 180 
325 796 300 142 146 154 
254 716 452 98 144 183 
223 764 441 126 133 148 
160 439 361 132 137 147 
52 668 443 88 97 109 
205 891 435 165 123 100 
212 424 317 170 179 199 
156 437 437 141 80 17 
242 331 462 152 43 92 
338 352 432 154 114 123 
334 751 263 175 128 109 
236 908 388 149 107 77 
209 381 311 142 154 176 
245 262 356 69 75 84 
353 202 476 135 77 65 
227 210 372 47 37 51 
148 820 375 152 121 90 
257 350 294 107 136 175 
304 819 308 217 154 125 
143 543 430 74 103 151 
292 524 275 129 149 187 
161 644 402 52 83 111 
273 256 428 112 89 85 
389 685 352 137 172 208 
270 333 285 141 152 188 
358 696 254 111 125 147 
142 526 426 120 129 150 
205 485 331 150 152 160 
310 694 419 172 121 40 
325 468 309 147 156 170 
228 131 471 158 74 12 
297 410 445 110 117 128 
251 493 294 82 109 136 
317 483 374 150 153 163 
254 269 395 113 111 112 
143 384 368 187 157 124 
204 224 284 159 162 173 
344 321 461 144 24 66 
347 239 458 63 75 90 
301 686 417 102 54 33 
147 378 409 162 138 114 
395 267 499 163 12 72 
282 588 444 86 123 161 
269 191 469 41 60 85 
214 188 461 97 43 65 
276 210 465 74 42 54 
240 838 314 236 179 144 
253 279 366 119 118 120 
191 946 437 196 154 132 
221 85 468 105 86 66 
168 638 409 41 66 90 
293 158 451 119 71 40 
325 331 432 93 52 62 
242 38 387 91 72 52 
188 821 326 150 116 80 
194 378 436 77 97 123 
172 614 449 42 54 65 
183 1006 352 164 129 89 
335 452 454 87 119 149 
301 587 343 112 108 109 
167 970 330 125 100 71 
371 626 309 48 88 121 
323 750 365 172 147 131 
144 378 386 110 131 151 
298 330 451 90 98 109 
234 293 287 151 148 151 
178 475 467 122 141 164 
300 823 308 229 163 132 
309 417 374 119 131 147 
227 141 375 98 72 56 
383 195 525 97 50 67 
254 277 379 111 113 118 
252 536 442 142 147 158 
236 241 362 66 74 83 
195 131 377 93 77 60 
214 630 305 160 162 172 
187 329 440 147 145 149 
317 468 369 92 111 147 
246 35 385 103 80 59 
142 493 390 158 157 164 
210 407 312 116 135 161 
223 706 278 166 105 103 
250 505 293 118 135 154 
350 655 392 45 86 123 
138 496 421 57 85 141 
174 537 478 143 150 163 
211 643 468 190 131 127 
291 151 455 113 82 71 
234 804 288 149 119 93 
152 633 420 46 97 146 
275 247 463 118 133 153 
272 827 319 214 158 128 
316 625 403 175 124 111 
162 258 309 126 95 119 
86 641 459 90 80 72 
230 501 449 160 162 170 
173 980 324 116 90 64 
237 133 474 116 114 118 
307 572 424 41 88 131 
158 993 342 139 106 92 
275 816 331 202 146 112 
191 244 415 102 45 53 
153 323 371 134 138 148 
190 134 452 128 84 81 
248 822 365 201 138 116 
343 451 468 163 172 187 
150 487 375 94 113 140 
177 138 345 82 66 47 
302 397 350 69 105 134 
93 639 459 100 89 79 
238 939 358 77 64 55 
352 369 478 186 51 24 
311 530 328 100 127 158 
354 622 324 47 69 87 
361 745 267 193 93 110 
209 279 426 57 98 128 
315 539 403 100 118 162 
232 456 446 114 122 137 
242 42 387 91 73 52 
156 807 431 147 122 109 
161 326 343 80 129 168 
231 217 334 99 32 57 
191 721 318 135 144 162 
144 539 397 113 129 158 
151 824 382 219 180 137 
140 811 430 72 59 99 
394 156 508 122 103 92 
304 360 443 55 68 81 
120 677 457 79 104 147 
313 548 420 90 113 167 
345 148 488 143 87 48 
229 153 396 84 48 59 
297 671 433 155 100 63 
136 794 368 67 65 67 
394 189 514 53 72 100 
257 703 282 122 16 29 
293 455 446 130 137 152 
347 277 465 78 97 118 
243 46 385 94 75 55 
80 741 426 116 141 189 
283 813 332 195 141 106 
338 320 482 107 122 140 
173 986 372 117 92 68 
103 674 483 175 116 97 
158 288 342 91 113 130 
284 398 291 121 143 183 
163 738 349 131 96 103 
161 181 348 113 56 6 
220 811 397 197 133 113 
240 825 298 235 174 136 
204 469 328 75 95 130 
266 272 461 116 131 148 
254 444 436 96 115 150 
152 818 361 185 152 120 
131 740 447 80 100 133 
283 689 263 123 130 141 
178 283 319 92 103 120 
307 682 419 156 113 56 
131 625 483 107 89 72 
202 195 400 96 70 78 
334 363 469 147 117 85 
244 45 385 96 77 56 
172 918 426 119 84 72 
162 595 451 60 101 131 
160 217 367 119 60 54 
342 672 401 93 120 145 
333 661 264 113 115 121 
194 154 447 134 31 21 
224 199 363 51 44 49 
247 179 469 109 43 59 
396 660 309 72 70 70 
263 524 280 145 149 159 
188 129 446 154 62 5 
337 353 438 184 146 102 
191 132 289 60 86 109 
308 415 399 53 71 88 
366 290 495 111 94 100 
396 670 271 105 120 164 
160 623 449 72 70 71 
326 767 270 191 148 107 
183 555 348 134 148 168 
216 582 471 115 56 68 
246 224 304 118 117 121 
69 690 419 111 128 157 
181 880 331 127 99 74 
134 814 417 89 110 131 
309 416 344 141 147 161 
288 483 283 93 119 146 
143 678 434 114 129 158 
213 781 297 140 102 92 
328 449 421 90 116 174 
391 278 496 138 127 132 
224 973 395 101 80 66 
318 303 421 92 117 141 
295 179 448 133 35 68 
188 390 444 91 102 128 
130 796 381 147 126 106 
158 546 459 65 88 125 
238 217 397 100 40 23 
196 881 325 118 83 61 
167 148 337 96 76 57 
334 313 437 112 100 89 
162 723 352 118 126 139 
359 193 498 78 40 51 
302 550 320 135 146 166 
325 439 410 95 113 131 
144 804 363 175 158 145 
114 749 385 101 99 104 
239 746 275 169 148 129 
365 629 278 108 127 147 
220 111 470 103 93 84 
195 450 326 65 91 136 
224 173 295 136 124 117 
318 350 415 110 112 118 
253 153 476 97 95 102 
286 241 459 81 90 102 
311 609 414 146 98 86 
185 301 433 85 115 141 
325 388 477 128 48 72 
315 511 427 84 108 170 
354 262 498 111 121 134 
280 222 461 110 91 89 
168 961 416 160 123 105 
221 273 456 82 108 140 
158 829 381 172 163 160 
314 607 403 62 63 66 
264 562 290 118 140 164 
167 421 449 135 121 111 
254 831 326 220 163 134 
169 259 396 110 12 44 
252 771 273 147 126 107 
224 873 366 167 124 93 
227 593 466 99 124 150 
297 424 443 100 106 116 
249 40 384 104 84 63 
272 786 389 214 153 128 
268 466 296 125 137 153 
162 955 414 143 111 92 
188 467 477 104 128 164 
260 252 421 98 89 87 
307 564 381 165 161 164 
138 435 395 161 68 2 
248 587 267 155 162 177 
235 831 362 197 132 107 
214 980 401 109 88 73 
310 163 454 125 80 45 
240 248 376 72 90 108 
223 677 455 77 100 152 
241 50 385 89 71 52 
339 248 449 110 94 80 
260 790 393 208 148 120 
237 129 420 113 95 82 
215 660 300 105 127 151 
347 310 459 120 135 153 
148 255 370 95 92 101 
260 286 402 64 64 67 
148 550 435 149 152 162 
299 381 286 64 103 144 
200 216 453 119 9 49 
222 133 343 67 83 99 
299 140 464 123 133 147 
172 884 353 116 91 68 
405 708 267 162 174 237 
180 168 386 112 57 20 
244 759 435 136 110 120 
90 642 453 78 75 74 
161 899 374 105 68 41 
158 566 461 76 114 146 
68 716 461 180 186 208 
182 179 275 142 126 111 
173 611 452 58 76 94 
173 288 443 80 122 157 
146 948 373 83 63 61 
299 376 286 87 111 150 
142 506 436 81 108 148 
82 742 444 231 223 223 
352 316 483 141 99 115 
232 819 380 205 136 116 
190 948 326 106 86 65 
186 365 304 75 108 138 
162 640 482 184 126 109 
345 237 457 69 82 103 
141 504 431 91 111 149 
200 630 303 151 146 153 
210 975 340 103 80 64 
161 260 339 136 107 106 
204 649 460 153 157 192 
285 272 459 93 135 169 
245 50 384 97 77 56 
196 222 417 84 79 81 
117 775 394 161 97 122 
190 546 340 182 175 175 
343 398 472 185 106 37 
341 458 455 98 120 145 
311 739 402 176 149 125 
244 53 384 95 76 56 
195 271 422 96 98 104 
272 390 457 52 90 155 
361 358 479 207 171 130 
162 131 294 123 80 33 
203 585 322 138 146 161 
230 438 442 148 146 152 
353 367 476 177 64 46 
240 58 385 88 71 52 
250 697 461 152 167 185 
330 242 442 119 101 83 
249 438 436 101 119 147 
215 362 432 84 99 123 
226 206 350 22 61 88 
325 463 314 98 124 155 
199 194 453 79 42 68 
200 785 312 116 95 74 
261 587 316 91 97 105 
330 315 427 87 108 128 
299 648 425 59 55 65 
95 698 382 39 78 138 
230 105 449 81 71 61 
154 582 408 121 131 150 
152 566 445 69 90 130 
159 190 294 148 67 0 
238 567 456 157 150 151 
324 445 309 166 163 168 
274 185 453 51 61 75 
317 256 434 109 65 52 
344 182 473 82 59 87 
210 359 302 27 66 168 
258 287 297 138 137 140 
197 423 318 59 91 133 
267 668 285 140 140 147 
115 679 461 113 123 155 
247 726 455 143 107 115 
177 579 472 58 80 129 
190 261 406 70 99 123 
199 714 454 112 129 148 
184 133 366 95 80 63 
304 423 443 40 58 77 
180 515 481 173 176 188 
183 914 318 69 54 42 
183 418 462 105 127 155 
237 373 303 136 151 185 
166 947 337 93 69 47 
316 764 359 182 173 172 
333 377 441 154 101 71 
194 6 453 70 65 65 
251 567 451 176 170 171 
202 610 486 137 112 95 
221 560 470 179 170 169 
322 235 438 88 101 117 
49 687 455 116 146 184 
326 450 337 102 128 155 
144 677 433 107 122 155 
166 572 374 165 158 160 
208 596 337 147 146 152 
152 576 408 124 144 166 
86 742 450 180 180 211 
362 183 502 103 42 34 
181 364 313 83 107 133 
225 198 367 71 40 50 
305 203 443 80 71 81 
