ply
format ascii 1.0
comment Created by CloudCompare v2.11.1 (Anoia)
comment Created 2/28/22 9:39 PM
obj_info Generated by CloudCompare!
element vertex 2015
property float x
property float y
property float z
property uchar red
property uchar green
property uchar blue
end_header
275 482 431 46 79 130 
274 747 249 76 94 116 
146 719 367 54 89 169 
371 638 263 56 97 128 
234 214 316 124 120 119 
318 525 392 126 137 162 
232 157 412 94 75 69 
189 447 470 87 118 157 
207 452 463 81 97 125 
310 237 426 88 87 88 
212 887 428 158 123 96 
149 298 344 136 135 138 
305 623 413 174 125 117 
210 241 289 129 123 124 
288 613 312 69 80 92 
255 537 283 126 134 147 
341 616 318 100 100 102 
247 267 294 83 111 139 
341 609 357 165 118 104 
361 175 481 114 59 56 
205 51 474 96 79 60 
172 285 337 91 106 137 
320 490 314 122 142 164 
367 622 282 90 106 123 
252 546 442 185 172 166 
176 460 462 75 97 125 
214 988 339 140 113 87 
190 627 487 182 126 112 
223 900 349 77 59 47 
169 716 435 80 106 145 
122 741 459 120 134 165 
205 53 474 96 78 60 
160 742 354 148 20 37 
149 550 392 136 149 171 
211 385 308 103 122 142 
310 174 444 109 51 64 
293 824 305 229 164 134 
206 52 473 95 78 60 
150 147 331 69 57 45 
294 392 447 95 108 140 
323 369 450 152 27 78 
237 578 272 122 127 136 
244 395 439 96 98 136 
344 650 379 77 93 123 
387 174 491 122 77 61 
266 442 437 37 66 127 
360 175 502 95 36 31 
175 216 389 122 63 69 
259 614 288 85 112 140 
218 862 374 178 135 103 
153 661 436 108 112 145 
185 580 357 156 145 139 
233 214 339 76 51 56 
310 401 446 60 82 105 
324 148 454 57 82 105 
299 260 419 95 77 67 
325 352 411 140 127 115 
308 453 447 75 96 143 
150 721 368 87 122 181 
170 641 475 148 100 90 
191 234 421 70 68 76 
185 865 409 109 85 58 
204 819 395 165 115 95 
232 701 272 141 156 174 
310 542 334 119 135 155 
314 571 392 119 138 160 
282 636 440 175 174 182 
203 56 477 105 87 68 
183 210 435 88 42 44 
352 260 482 85 70 68 
280 323 406 72 85 99 
193 896 315 97 72 45 
247 823 360 203 140 120 
83 711 415 79 104 172 
196 799 313 98 105 116 
234 384 307 95 111 130 
152 705 361 85 113 183 
150 308 354 135 141 151 
200 62 478 118 97 74 
147 754 364 133 27 41 
300 386 440 68 84 101 
176 600 461 87 109 133 
234 788 409 166 145 140 
210 714 302 124 125 139 
124 770 454 161 175 196 
108 698 389 55 78 107 
144 631 468 91 88 91 
155 259 323 89 88 93 
152 305 356 94 70 81 
182 555 479 137 144 158 
156 990 336 149 125 103 
374 730 258 194 205 224 
293 331 335 102 123 144 
268 477 430 85 113 154 
329 171 454 87 25 32 
206 945 434 187 140 111 
192 984 409 109 92 76 
370 224 507 166 58 36 
141 737 448 63 89 132 
178 239 396 54 70 90 
332 732 360 122 108 102 
229 729 270 164 32 40 
99 691 400 108 123 145 
207 59 475 101 82 62 
356 750 295 141 144 150 
203 196 404 105 75 78 
343 278 451 77 107 133 
233 211 329 92 43 51 
331 135 469 148 68 5 
240 912 365 163 104 77 
190 770 449 172 138 125 
234 920 394 118 85 65 
240 932 392 123 100 79 
232 208 319 90 62 67 
211 979 402 89 67 53 
317 339 423 68 67 68 
334 442 466 81 117 176 
340 352 432 171 126 110 
321 516 413 120 139 183 
84 647 444 75 93 111 
154 709 441 95 120 155 
231 907 407 168 120 91 
239 413 298 91 107 124 
257 240 305 117 113 114 
143 218 360 56 79 100 
182 314 446 152 151 157 
384 650 306 76 72 70 
301 408 436 54 73 91 
155 204 359 74 39 42 
129 700 369 129 143 198 
228 195 382 22 54 81 
149 353 385 152 111 92 
219 128 338 104 107 115 
318 604 384 71 69 68 
282 566 307 113 123 139 
158 257 344 129 105 100 
291 787 269 181 164 153 
102 690 480 86 100 137 
138 654 484 171 114 91 
271 555 438 140 157 180 
323 473 328 174 173 179 
296 339 291 60 94 122 
267 11 372 165 143 132 
113 655 400 29 63 100 
309 675 412 149 102 31 
260 196 432 94 36 46 
209 540 300 82 105 128 
336 330 458 173 144 112 
313 422 455 65 77 119 
199 597 352 74 59 75 
139 421 393 164 69 0 
215 137 467 118 126 134 
320 526 403 141 152 169 
231 641 462 170 113 105 
147 356 394 146 30 73 
102 696 475 115 136 158 
181 483 333 142 147 167 
211 504 308 127 132 144 
210 592 301 155 163 182 
333 332 419 109 115 125 
219 888 346 105 76 58 
218 142 313 103 92 85 
206 943 322 82 57 34 
387 260 502 134 15 62 
259 756 256 138 114 90 
333 692 398 134 101 102 
328 754 335 203 167 126 
194 594 294 107 129 153 
196 1002 334 140 109 74 
238 940 369 95 78 64 
301 374 441 39 72 98 
257 573 305 116 113 116 
356 690 354 180 97 90 
316 554 403 114 135 158 
288 431 448 157 160 172 
168 941 427 174 134 108 
245 261 460 155 150 152 
125 659 470 146 98 81 
251 268 294 87 115 142 
321 358 455 125 125 130 
325 627 358 52 42 51 
303 766 369 177 136 121 
338 471 445 106 132 159 
225 141 397 128 73 0 
167 150 340 75 63 58 
253 239 297 156 154 158 
134 680 357 112 142 204 
199 640 303 108 128 157 
203 989 391 78 51 44 
229 894 410 167 120 88 
263 196 432 94 31 29 
160 195 299 155 73 0 
210 39 449 107 86 67 
318 541 404 98 123 157 
287 653 260 104 121 145 
175 349 416 123 8 52 
381 167 530 163 78 9 
351 618 342 125 102 79 
222 832 303 212 149 114 
261 252 417 87 53 57 
165 838 361 195 143 113 
148 478 441 101 116 134 
202 407 447 40 66 103 
327 599 351 117 107 99 
323 761 337 198 184 178 
320 500 391 165 167 177 
139 462 411 134 94 60 
399 680 245 96 124 158 
252 277 291 91 113 135 
184 607 463 81 101 126 
317 518 386 67 99 127 
345 252 470 122 121 126 
178 622 316 68 119 160 
275 291 414 96 97 100 
234 214 393 67 43 49 
331 491 444 156 172 195 
264 194 467 53 70 104 
205 131 412 112 85 59 
323 468 399 88 110 137 
278 530 273 142 159 184 
345 614 310 93 96 102 
270 418 302 117 126 140 
293 484 281 107 121 138 
168 507 343 148 149 155 
208 33 459 107 85 66 
344 145 482 150 75 0 
342 657 390 122 143 187 
290 659 256 114 129 154 
105 688 478 105 116 152 
141 489 395 96 108 145 
204 165 412 61 54 52 
274 508 426 153 151 155 
208 34 459 110 88 69 
346 398 459 168 81 41 
186 778 440 82 62 78 
159 304 396 127 126 131 
312 375 403 98 93 91 
332 130 476 130 91 51 
261 247 419 79 44 44 
170 599 453 57 84 130 
208 37 456 103 83 62 
305 775 263 198 172 152 
215 525 301 55 84 114 
292 486 441 122 140 171 
224 159 376 106 21 31 
208 37 458 103 83 63 
164 433 341 114 128 146 
309 406 370 111 127 146 
270 182 439 14 61 105 
243 294 284 165 160 161 
224 170 298 102 97 96 
334 741 336 187 166 150 
176 664 323 161 159 166 
295 277 447 67 103 131 
306 142 457 78 102 124 
309 534 424 56 85 143 
331 605 336 115 107 102 
133 644 494 170 121 96 
278 317 461 170 127 70 
283 748 248 78 61 95 
186 230 426 52 60 73 
231 788 411 169 142 129 
185 614 307 148 147 152 
209 43 450 101 84 66 
371 274 507 135 142 155 
253 581 301 100 101 105 
322 370 463 110 103 108 
194 388 312 89 115 165 
244 244 392 88 40 45 
200 568 338 120 124 135 
171 183 374 59 48 69 
193 151 453 141 36 19 
130 747 456 108 124 164 
307 544 373 77 107 146 
299 781 335 191 134 101 
236 609 474 163 111 105 
214 679 288 135 149 170 
316 508 329 112 128 158 
145 622 475 94 87 83 
341 348 486 178 173 176 
205 540 311 109 137 166 
287 604 438 88 123 165 
327 601 369 115 101 91 
141 219 348 73 90 117 
246 239 316 118 122 130 
276 597 441 132 134 143 
272 475 431 92 113 151 
291 549 300 169 175 190 
335 461 446 79 113 150 
218 864 330 155 116 81 
123 741 385 40 70 118 
352 164 466 136 63 0 
311 481 448 108 128 162 
226 176 376 37 39 46 
338 291 481 134 135 141 
298 187 442 115 53 55 
319 219 433 67 87 106 
337 639 263 35 75 104 
166 597 447 60 100 132 
314 720 243 153 46 52 
218 830 374 176 117 96 
276 200 454 99 62 57 
315 249 437 108 98 102 
308 212 435 46 61 74 
276 693 439 132 124 120 
207 255 451 151 148 153 
249 770 416 182 151 121 
347 652 382 92 117 142 
360 166 502 98 44 45 
155 244 379 39 34 39 
193 927 437 158 128 100 
327 475 409 76 110 150 
313 549 429 75 109 163 
232 335 452 155 113 56 
175 349 444 156 130 101 
95 685 486 171 115 97 
58 685 449 118 135 165 
89 694 403 112 129 162 
222 256 460 160 155 157 
233 955 388 121 101 87 
273 305 348 93 69 66 
335 768 301 191 158 128 
205 811 305 152 111 80 
378 224 504 158 67 50 
181 360 450 144 133 128 
197 190 417 92 43 51 
161 450 344 100 122 146 
201 821 312 161 123 87 
284 749 406 163 130 95 
274 234 429 127 63 85 
339 715 367 173 149 128 
179 653 437 75 88 117 
159 642 472 137 96 83 
308 553 379 101 117 139 
382 654 290 85 74 65 
321 418 431 127 48 6 
343 269 443 114 118 127 
213 280 442 143 138 140 
208 41 458 96 78 60 
201 611 486 142 115 98 
239 771 271 148 127 108 
385 666 336 70 73 122 
275 151 444 115 100 90 
240 926 367 193 134 99 
155 174 308 110 98 87 
254 541 440 174 164 161 
236 214 293 137 75 31 
115 784 409 176 88 112 
285 230 448 124 89 82 
327 201 447 81 36 32 
164 455 449 121 91 86 
305 154 443 124 109 99 
120 789 442 190 37 64 
208 43 460 93 77 60 
195 163 418 45 51 59 
168 183 361 121 64 6 
172 847 347 177 135 103 
374 736 273 183 34 96 
135 623 480 92 80 70 
149 432 374 80 102 141 
313 421 376 89 117 143 
214 425 453 88 108 128 
320 533 407 117 136 168 
121 643 461 106 87 81 
287 393 292 142 156 188 
218 953 423 195 144 118 
252 706 457 143 168 196 
318 521 398 122 135 154 
192 945 436 194 153 128 
388 156 492 147 89 67 
293 338 452 146 105 45 
210 47 457 94 78 62 
191 741 450 101 126 150 
164 252 387 58 75 96 
211 564 477 107 127 154 
300 305 427 83 85 90 
299 326 407 72 87 104 
230 474 454 167 159 159 
313 511 371 76 102 144 
208 44 460 93 77 59 
166 756 348 128 22 41 
392 705 278 147 168 220 
202 461 327 78 110 159 
285 326 342 132 59 86 
243 245 383 74 90 106 
165 376 420 144 121 96 
205 413 449 118 121 129 
277 659 269 123 139 162 
168 743 346 96 100 124 
312 379 433 32 50 63 
265 256 299 89 114 140 
355 690 369 92 114 135 
170 611 409 69 84 99 
155 742 360 122 131 144 
299 775 261 201 175 152 
316 424 458 57 78 120 
352 634 365 69 99 125 
227 145 408 123 64 1 
376 652 345 52 81 122 
322 396 317 81 112 146 
385 653 316 65 103 147 
177 239 437 129 122 119 
310 464 448 102 125 158 
330 683 244 56 72 102 
126 686 361 174 177 195 
215 193 290 124 51 66 
270 716 435 169 65 72 
315 171 448 75 25 37 
153 451 371 82 104 142 
187 561 478 76 104 141 
206 588 477 83 135 174 
186 596 465 75 104 136 
343 207 451 103 31 38 
370 706 242 125 148 175 
229 474 455 158 156 161 
295 387 447 98 119 145 
152 314 362 145 147 155 
267 519 427 106 116 138 
153 421 367 95 109 139 
181 650 311 163 162 168 
160 223 321 109 95 101 
191 734 449 122 138 157 
137 795 444 131 37 44 
274 186 439 16 52 92 
223 826 374 180 117 98 
323 192 440 110 63 64 
323 380 449 151 82 83 
77 677 427 151 152 161 
205 247 451 149 146 150 
233 317 456 140 63 69 
211 48 453 98 81 64 
228 195 360 70 28 31 
268 187 437 42 67 99 
166 969 408 106 86 71 
204 835 315 183 136 103 
255 416 439 56 85 144 
211 49 455 96 80 63 
211 50 452 93 77 61 
184 190 288 62 81 115 
211 50 455 95 79 62 
320 463 423 109 129 166 
210 530 295 82 106 139 
239 146 424 120 87 57 
189 985 321 133 102 67 
179 800 331 151 135 125 
302 373 341 92 119 149 
204 176 292 116 111 109 
238 314 458 133 62 98 
241 703 273 125 131 141 
232 250 293 141 141 147 
381 290 490 163 166 177 
333 770 303 198 151 90 
131 649 437 89 104 137 
207 864 397 120 92 60 
212 50 453 95 79 63 
303 461 440 60 89 141 
195 973 324 128 98 60 
216 667 447 146 152 177 
158 816 418 182 159 139 
187 285 299 134 140 154 
309 404 387 39 78 105 
229 875 351 146 111 85 
200 135 387 74 63 52 
254 265 295 99 130 160 
347 182 468 79 42 62 
245 437 434 135 137 147 
263 326 286 155 160 179 
324 425 314 89 117 146 
201 204 407 113 69 70 
261 209 429 108 44 37 
320 154 452 30 68 95 
217 583 471 121 119 122 
124 634 442 67 96 121 
212 53 453 92 77 62 
209 858 387 152 116 85 
126 633 420 52 84 110 
212 52 455 92 77 62 
254 691 273 111 124 139 
262 593 299 74 88 103 
348 733 317 112 111 130 
193 175 429 58 35 44 
148 526 436 65 93 138 
189 341 307 131 136 153 
236 917 360 106 60 42 
234 342 295 44 103 164 
230 839 309 240 172 131 
340 350 485 192 184 185 
163 299 397 132 129 131 
378 644 311 80 67 55 
165 305 399 134 132 134 
171 634 339 95 103 113 
211 48 456 96 80 63 
193 874 430 148 116 92 
376 714 247 175 183 208 
164 551 461 118 124 136 
245 305 284 153 155 164 
182 348 436 135 31 66 
246 544 286 69 100 130 
209 779 429 125 114 114 
259 288 290 144 143 146 
308 744 247 139 79 71 
247 384 445 144 148 158 
288 430 299 142 155 179 
217 917 425 146 112 93 
87 655 420 122 127 136 
234 668 456 106 121 152 
171 877 393 120 97 72 
263 474 287 90 109 129 
216 483 298 88 107 141 
199 336 437 138 136 140 
219 148 465 145 27 42 
382 174 510 80 68 87 
153 645 368 78 109 140 
196 216 420 80 76 78 
166 219 381 125 44 70 
52 676 470 169 117 100 
243 579 456 79 125 162 
211 664 291 105 129 157 
328 330 469 137 125 119 
195 319 297 157 105 115 
204 549 326 128 132 141 
369 198 508 73 30 37 
198 965 424 180 137 114 
284 567 434 93 109 153 
250 742 259 50 67 98 
321 440 442 80 84 89 
329 450 415 69 95 168 
197 384 455 100 116 142 
206 635 302 123 144 173 
178 489 465 77 98 130 
139 745 450 138 149 164 
141 922 367 81 67 56 
115 660 494 170 121 97 
342 671 391 105 126 146 
266 253 420 92 59 63 
212 51 457 91 76 60 
320 463 294 151 158 172 
319 353 428 65 67 72 
247 182 428 114 45 31 
217 642 465 187 128 122 
370 294 502 146 158 175 
130 630 429 70 98 123 
184 816 403 151 157 168 
168 391 349 71 106 137 
405 689 244 123 147 188 
265 29 376 139 113 97 
213 54 456 92 77 63 
97 760 437 124 136 196 
172 898 335 78 64 55 
155 499 453 96 112 141 
303 753 248 145 122 100 
381 647 313 141 148 161 
172 847 367 183 134 103 
328 625 360 102 74 61 
373 723 296 137 59 94 
175 877 338 83 62 47 
379 645 308 84 72 62 
106 699 385 52 95 135 
63 673 441 72 97 121 
381 252 509 101 56 65 
182 753 327 131 98 65 
137 193 342 160 70 0 
164 266 321 128 77 97 
196 764 451 190 132 112 
184 618 308 108 100 103 
310 564 365 130 140 156 
300 784 268 136 98 66 
71 687 432 157 158 167 
256 676 278 119 122 130 
327 444 334 76 110 154 
271 147 449 92 62 43 
227 354 435 117 127 141 
213 54 462 88 74 59 
207 484 324 154 153 159 
227 971 386 84 67 54 
179 548 348 104 125 156 
237 236 364 94 76 72 
151 390 370 116 116 120 
159 642 463 65 104 135 
196 276 424 82 87 98 
386 215 500 141 42 48 
375 209 522 154 50 53 
103 729 465 150 156 176 
282 497 432 95 114 155 
182 580 360 163 150 141 
143 542 427 104 120 167 
242 566 278 68 93 117 
213 59 449 93 79 65 
397 701 275 147 168 203 
390 677 324 106 139 188 
287 328 339 130 57 86 
292 614 316 74 74 78 
270 477 286 99 117 136 
326 434 332 95 125 158 
226 129 384 116 105 95 
208 520 320 81 97 115 
190 754 453 146 51 52 
329 783 277 168 127 75 
156 509 357 101 115 154 
371 640 310 105 88 71 
138 758 452 145 155 171 
170 614 413 56 68 87 
213 58 452 91 77 65 
267 500 280 90 116 145 
305 577 377 107 128 152 
146 323 354 144 151 164 
320 379 462 65 73 103 
313 423 350 146 150 159 
339 287 461 69 106 135 
396 197 489 138 118 106 
342 141 479 146 69 0 
276 586 314 60 76 90 
270 815 327 221 161 130 
204 196 458 135 32 24 
171 575 468 54 45 97 
349 360 464 207 159 96 
366 182 496 49 61 100 
294 506 273 126 147 176 
313 668 413 162 127 86 
310 308 417 56 62 67 
300 637 411 161 112 106 
149 558 407 108 121 150 
341 336 490 96 112 130 
239 358 302 37 76 165 
213 62 448 95 80 66 
349 228 472 119 38 32 
187 276 406 67 101 128 
110 682 377 75 101 127 
263 260 417 97 95 99 
122 743 385 70 86 138 
248 326 460 124 104 128 
271 12 403 106 84 61 
277 23 391 148 106 76 
199 775 436 162 129 112 
276 516 269 86 115 150 
321 381 439 142 112 76 
154 393 421 126 27 60 
108 637 429 81 110 137 
175 258 319 78 74 91 
324 420 315 67 108 150 
319 352 436 131 83 57 
352 201 459 124 80 50 
322 224 432 102 83 85 
319 313 425 72 63 63 
206 617 301 165 165 172 
223 512 462 168 167 174 
347 268 491 147 70 7 
291 403 293 127 146 180 
373 644 342 54 100 133 
119 636 417 56 77 97 
240 246 362 79 96 112 
279 284 319 104 119 136 
214 62 455 92 79 66 
190 879 430 156 103 98 
235 673 276 124 117 119 
144 947 371 83 65 60 
51 672 465 155 112 91 
213 56 456 92 78 65 
155 268 323 116 66 66 
206 777 306 126 108 91 
318 511 385 74 104 141 
151 554 383 163 164 172 
172 169 289 126 104 85 
331 316 429 96 87 100 
292 585 327 110 108 110 
232 904 401 156 108 79 
234 955 378 95 78 65 
197 871 328 164 120 85 
307 542 369 111 127 152 
109 724 380 102 125 185 
237 188 412 84 41 32 
81 690 413 172 173 183 
250 398 442 110 119 148 
203 911 319 61 50 40 
264 371 302 91 113 156 
192 774 441 113 131 157 
164 378 421 141 117 92 
318 276 433 89 98 110 
288 318 331 112 125 142 
288 350 455 116 119 133 
249 573 280 86 105 124 
222 753 451 183 89 99 
173 296 335 93 113 135 
214 57 462 88 74 59 
206 153 396 132 55 6 
354 260 486 89 91 102 
214 58 461 89 75 62 
195 609 486 110 95 82 
223 466 285 138 139 146 
238 631 466 165 117 107 
243 867 289 106 100 94 
264 737 251 153 134 117 
196 196 433 75 29 31 
181 765 329 98 102 110 
162 898 409 155 113 85 
310 486 447 79 98 152 
289 202 428 54 48 65 
249 191 462 50 42 55 
153 280 340 111 56 73 
175 763 448 134 46 55 
310 253 420 96 78 87 
377 261 488 74 115 146 
227 334 448 146 113 72 
320 745 366 211 169 118 
139 813 394 161 119 108 
238 679 277 114 122 136 
238 220 308 120 123 130 
209 990 359 116 89 66 
333 745 318 58 60 63 
240 252 294 119 135 154 
192 865 425 150 118 97 
103 641 491 115 92 67 
161 705 436 97 131 162 
181 237 433 122 62 66 
272 785 385 212 151 124 
148 225 347 122 102 127 
215 63 459 89 75 61 
253 164 472 151 74 79 
295 824 300 231 164 134 
145 362 375 129 135 146 
350 630 348 28 59 86 
289 644 265 85 115 146 
306 539 437 75 105 151 
358 245 489 108 37 58 
183 974 420 84 67 56 
148 172 326 59 52 37 
228 196 343 38 37 44 
370 182 507 54 57 94 
174 605 452 79 98 141 
244 805 384 208 144 122 
187 648 458 138 148 178 
245 835 316 225 170 137 
219 834 371 170 120 97 
230 953 399 107 80 65 
201 161 391 114 57 33 
216 62 463 89 75 61 
240 924 368 175 107 81 
338 383 421 195 171 149 
352 197 458 124 95 56 
311 348 318 90 116 141 
357 329 474 118 134 155 
228 779 423 191 165 142 
243 568 268 88 124 156 
153 411 366 74 103 141 
302 621 307 85 105 126 
196 240 414 128 83 86 
179 212 293 80 113 140 
268 290 341 100 105 113 
109 743 394 72 109 158 
385 687 334 156 183 214 
209 638 469 180 127 122 
152 770 447 135 153 174 
195 566 308 153 159 172 
290 697 246 127 132 143 
181 283 317 119 126 136 
55 688 462 124 151 187 
333 477 457 135 156 193 
174 808 412 148 113 90 
276 227 430 107 79 84 
197 422 463 58 80 128 
264 697 449 151 172 197 
96 637 468 93 85 78 
291 316 327 136 75 89 
215 682 286 119 137 159 
275 342 289 111 132 179 
283 589 319 71 80 89 
168 323 407 102 115 130 
256 391 304 62 86 111 
181 157 291 110 34 36 
300 318 307 151 118 85 
323 459 316 100 130 161 
231 910 356 90 62 46 
184 768 451 207 169 119 
387 673 260 65 71 78 
128 806 420 192 89 99 
201 739 316 139 48 41 
190 418 321 51 85 125 
271 293 339 125 61 71 
313 430 372 139 145 158 
276 289 325 133 128 129 
165 643 366 61 83 105 
200 527 325 100 112 127 
211 52 466 90 75 59 
271 610 288 92 82 90 
75 722 438 109 133 185 
226 839 309 241 171 129 
162 833 361 183 146 113 
179 771 331 128 112 102 
340 216 448 119 26 22 
163 178 352 113 53 11 
264 10 384 134 113 102 
213 704 455 138 152 171 
177 643 361 65 75 86 
241 540 448 119 131 146 
316 541 434 102 137 173 
185 603 374 60 84 108 
208 974 338 100 77 61 
226 185 335 50 46 51 
322 457 396 44 60 87 
314 542 360 127 138 159 
98 705 473 129 135 170 
244 603 273 120 132 149 
102 709 398 78 81 142 
214 310 288 164 95 4 
310 537 376 152 153 160 
338 440 467 152 162 183 
156 727 440 108 134 161 
288 634 423 124 101 99 
319 495 350 149 162 180 
302 288 420 66 60 72 
164 708 354 107 116 130 
305 493 279 145 155 178 
248 252 391 75 58 52 
327 464 416 126 142 175 
318 763 258 179 158 148 
153 209 339 172 109 108 
182 537 341 150 156 169 
311 485 285 185 182 186 
213 55 464 89 74 57 
195 331 300 160 101 116 
173 340 453 187 161 134 
157 731 362 116 122 131 
213 438 458 73 98 121 
397 671 250 71 99 125 
288 245 430 37 65 95 
94 645 425 86 108 128 
282 436 301 106 118 135 
224 910 421 195 141 115 
358 215 468 69 36 54 
363 163 507 114 118 124 
234 889 367 128 100 77 
211 56 469 91 75 59 
349 619 312 65 88 114 
210 56 470 93 77 60 
165 608 425 65 82 112 
146 948 385 84 69 59 
220 130 340 76 83 91 
126 646 392 96 112 130 
182 897 430 173 133 110 
204 588 326 147 152 163 
248 576 295 101 107 116 
169 585 380 171 160 156 
354 215 496 104 36 66 
161 251 385 33 50 75 
324 477 401 155 159 170 
289 295 314 157 122 84 
351 170 465 95 93 98 
215 883 336 108 82 61 
309 445 448 57 81 127 
342 239 448 57 90 115 
189 847 326 172 130 99 
304 138 457 118 121 128 
254 274 358 111 111 114 
196 412 459 66 84 132 
172 527 471 148 154 165 
256 605 287 81 115 145 
336 246 436 60 88 114 
273 163 449 79 75 76 
299 260 420 112 107 103 
250 350 299 67 104 179 
143 535 413 102 112 156 
305 555 436 106 134 176 
143 727 448 109 119 147 
241 155 469 97 77 97 
322 476 305 113 136 167 
204 552 289 162 166 177 
325 439 324 71 111 152 
225 888 356 126 92 70 
327 261 425 87 80 93 
212 57 469 90 75 58 
329 387 408 139 126 116 
232 341 453 151 86 30 
297 400 290 109 135 181 
213 58 468 90 75 59 
168 196 372 62 92 116 
144 916 378 108 81 61 
337 300 460 65 105 135 
377 639 263 116 128 142 
349 275 469 146 148 156 
345 642 371 75 111 150 
236 944 354 86 70 57 
174 638 389 49 57 67 
370 637 335 95 113 133 
204 334 426 94 102 113 
207 979 408 86 65 53 
255 459 287 131 145 176 
289 695 248 99 110 125 
255 663 450 69 69 74 
261 701 267 128 132 141 
166 129 300 89 68 78 
159 211 333 128 78 65 
363 748 269 142 41 62 
399 685 243 149 170 195 
161 735 354 138 55 74 
228 197 341 42 52 65 
122 640 404 95 105 117 
310 387 426 74 70 70 
288 814 282 213 143 107 
228 204 355 30 41 57 
370 246 512 67 92 121 
181 703 434 65 53 99 
221 182 292 132 106 73 
160 642 462 67 110 143 
227 889 375 154 119 86 
213 60 470 93 78 62 
307 342 425 61 50 54 
161 197 293 174 77 9 
375 167 527 153 71 9 
169 601 399 100 111 127 
227 928 340 74 58 52 
299 225 424 110 70 40 
222 479 463 162 160 166 
390 680 321 138 166 199 
214 62 468 93 78 62 
172 867 353 160 126 95 
310 597 392 153 149 151 
281 310 337 139 36 73 
227 712 462 137 161 189 
243 777 414 201 179 163 
370 209 510 143 14 49 
190 200 288 123 59 78 
209 56 472 93 77 59 
318 331 409 100 112 126 
262 301 287 109 125 143 
221 891 353 110 83 64 
345 759 294 109 110 118 
295 681 424 160 119 85 
176 334 335 155 105 68 
224 927 334 71 56 46 
324 339 452 129 106 83 
208 59 474 99 82 63 
316 801 291 224 195 170 
318 367 451 123 114 113 
292 181 438 120 59 54 
318 666 411 154 135 117 
154 820 362 190 169 153 
344 301 449 160 161 170 
148 948 391 97 81 67 
237 409 432 72 92 134 
224 657 457 117 140 200 
154 508 366 116 124 151 
299 317 316 136 92 100 
150 566 429 132 138 150 
195 462 472 87 104 139 
179 984 394 98 71 58 
213 577 476 107 114 126 
164 420 357 84 105 131 
197 480 470 44 70 115 
346 358 486 131 140 154 
168 610 436 67 95 117 
210 797 413 212 194 183 
211 60 473 96 80 62 
219 978 390 89 71 59 
147 141 313 174 91 19 
210 61 474 98 81 63 
226 112 445 80 68 58 
326 765 261 160 152 151 
173 916 320 80 64 51 
293 184 440 114 49 58 
183 267 444 117 131 149 
366 188 493 49 44 68 
164 348 412 145 124 102 
127 638 438 76 90 121 
213 496 306 157 156 162 
215 678 284 107 112 142 
211 269 285 123 121 120 
299 624 305 67 101 129 
399 673 284 181 185 195 
272 756 252 162 125 80 
276 136 452 106 100 101 
216 63 465 90 76 63 
267 270 456 124 132 145 
217 156 464 109 39 39 
270 762 254 89 85 84 
242 395 437 115 121 140 
195 305 433 71 104 130 
186 582 471 51 87 132 
239 946 370 84 67 54 
322 460 299 159 162 172 
374 683 350 130 158 188 
222 162 339 112 79 55 
191 133 373 96 79 61 
324 245 439 66 94 119 
352 258 474 81 95 110 
219 826 380 180 120 103 
227 137 399 127 107 87 
206 797 301 124 125 131 
317 520 386 85 106 135 
227 715 462 143 157 177 
158 943 338 89 72 59 
370 697 242 58 98 140 
369 625 293 64 101 129 
243 171 464 107 51 45 
209 500 471 152 151 158 
293 438 297 119 136 169 
340 355 429 142 134 146 
149 377 414 160 137 114 
146 640 493 172 122 98 
174 175 378 111 76 49 
351 758 269 216 174 129 
208 775 303 133 117 104 
321 708 242 152 162 178 
141 427 405 166 69 3 
143 450 390 125 119 121 
160 918 335 90 74 63 
262 504 427 96 110 136 
247 612 459 94 105 122 
274 675 442 137 156 179 
147 943 388 72 59 51 
99 649 415 15 42 99 
171 981 393 93 77 69 
138 500 409 99 112 134 
137 640 493 164 119 94 
182 440 460 110 119 133 
371 677 353 106 135 163 
218 849 323 215 152 108 
331 779 273 128 118 114 
327 481 408 103 132 172 
111 681 376 76 98 119 
271 289 296 131 133 139 
296 438 296 132 145 177 
230 204 393 58 42 46 
351 659 386 129 152 200 
222 66 385 83 69 57 
247 628 279 134 139 150 
186 407 319 80 110 169 
222 882 385 135 99 67 
220 156 324 110 78 55 
155 326 346 82 143 193 
151 445 433 143 60 4 
103 769 421 146 146 182 
221 69 385 90 76 64 
201 328 294 156 70 100 
311 407 353 98 121 144 
198 401 315 78 116 154 
238 827 362 203 136 113 
183 322 318 112 129 150 
278 796 360 217 157 130 
286 219 441 88 50 65 
196 707 442 114 126 142 
349 742 252 107 95 151 
324 353 461 120 126 136 
141 473 397 89 107 135 
170 636 338 100 105 113 
56 691 465 111 144 191 
325 402 432 151 124 94 
249 829 340 220 158 134 
219 72 384 91 76 63 
82 706 416 126 138 172 
105 719 395 76 60 110 
313 604 351 105 100 97 
231 509 284 67 111 158 
239 143 475 115 56 56 
387 164 499 170 64 27 
213 331 291 155 156 169 
295 795 273 147 141 140 
348 751 298 149 117 109 
260 831 308 233 180 148 
314 770 262 162 141 127 
151 639 438 72 101 129 
315 373 403 109 102 98 
143 532 400 109 120 161 
243 674 278 126 132 142 
292 753 401 201 180 164 
259 211 427 105 46 38 
278 248 428 113 48 71 
389 182 486 129 56 65 
259 226 424 81 51 60 
324 720 243 101 111 145 
195 526 485 180 182 191 
119 639 448 63 80 116 
381 635 282 105 124 146 
257 126 458 131 67 9 
306 211 432 40 55 73 
367 282 485 114 97 108 
59 698 460 148 148 191 
196 649 459 160 159 182 
232 967 372 87 72 61 
317 258 437 126 125 129 
300 146 456 97 80 77 
221 79 384 91 73 54 
211 71 475 106 87 66 
299 643 409 89 94 124 
226 128 360 126 62 1 
156 281 350 101 78 97 
257 253 313 80 109 135 
372 661 366 155 166 183 
328 760 323 137 114 91 
204 430 321 93 117 159 
111 746 389 70 117 165 
211 768 439 121 127 142 
208 769 439 142 131 125 
150 452 435 121 106 91 
179 338 328 148 100 111 
187 847 327 172 131 100 
172 264 324 110 102 114 
270 237 427 106 54 54 
275 509 272 100 125 154 
370 191 523 94 32 46 
278 492 431 105 119 156 
223 80 385 93 73 55 
313 437 435 89 83 80 
143 213 359 57 72 89 
324 478 418 119 143 186 
376 711 315 167 184 200 
263 190 433 35 44 84 
255 363 303 49 89 163 
202 199 456 136 40 24 
223 84 384 92 74 54 
154 298 392 122 121 125 
173 188 289 167 74 11 
286 729 414 92 106 125 
153 752 359 118 102 105 
344 301 448 166 166 175 
205 221 456 117 38 67 
376 255 510 137 103 94 
226 623 269 146 149 158 
343 169 466 104 32 50 
195 489 479 112 127 165 
189 635 350 85 90 99 
347 610 298 61 88 112 
233 642 268 116 145 179 
289 258 440 95 94 101 
222 151 311 90 88 95 
145 518 430 119 135 160 
193 238 430 82 61 61 
169 618 467 49 48 49 
216 964 414 152 108 88 
152 516 372 134 138 149 
338 287 464 75 114 143 
387 224 497 115 65 78 
182 379 453 131 113 95 
114 782 409 167 161 170 
303 735 244 207 162 102 
212 374 306 106 125 166 
129 645 468 132 99 88 
215 650 283 94 117 149 
177 771 332 139 109 84 
340 281 438 67 102 131 
323 676 245 109 111 117 
388 271 497 118 54 76 
283 356 458 107 125 150 
142 479 431 52 84 134 
180 331 416 97 108 122 
327 189 447 89 42 62 
320 187 444 132 53 42 
275 703 254 129 131 136 
277 602 312 54 74 93 
151 964 388 102 84 72 
172 354 452 181 152 121 
249 424 293 86 104 123 
347 279 470 144 146 153 
192 273 410 75 109 137 
170 524 345 80 103 147 
207 628 298 146 150 162 
194 70 435 84 70 56 
289 593 328 79 84 91 
303 389 360 87 121 151 
127 773 453 172 189 212 
178 399 316 63 96 139 
189 650 457 121 126 164 
248 312 286 127 150 181 
268 219 461 136 33 83 
195 952 433 202 155 131 
299 776 346 178 130 101 
144 672 356 54 35 73 
307 576 382 84 113 146 
81 732 456 128 143 205 
206 841 318 193 144 107 
85 649 441 85 100 116 
326 333 449 106 80 67 
310 227 429 64 80 95 
142 430 386 128 111 94 
149 336 381 142 145 154 
293 216 426 114 26 42 
309 464 447 112 135 162 
299 674 426 162 105 30 
225 143 468 144 42 34 
261 231 424 86 54 65 
128 730 379 188 182 189 
198 608 356 59 87 111 
320 248 439 70 84 99 
144 448 386 114 120 138 
246 699 457 146 161 182 
257 310 285 98 113 129 
199 67 436 93 76 59 
196 68 435 92 73 56 
280 217 458 117 16 58 
145 408 418 168 141 113 
177 764 450 141 40 45 
375 165 526 153 73 9 
144 454 384 84 100 131 
373 255 495 120 35 49 
216 648 458 66 67 117 
229 367 434 57 94 124 
340 241 444 58 92 119 
142 237 362 139 40 77 
156 967 348 86 65 48 
280 671 439 84 69 72 
193 587 352 137 127 122 
360 683 360 139 173 208 
149 657 436 113 124 144 
155 577 407 115 137 162 
207 147 293 124 83 76 
174 140 296 50 79 104 
209 515 313 51 76 120 
156 492 362 111 124 148 
172 996 374 177 149 124 
315 617 298 22 95 134 
151 898 381 170 123 103 
316 621 292 102 112 125 
205 130 411 110 92 77 
107 767 452 152 154 194 
305 479 281 85 105 127 
171 444 332 112 135 175 
192 74 433 69 58 48 
191 991 387 78 53 36 
207 764 446 135 70 93 
244 223 411 69 35 30 
142 794 364 161 128 95 
299 370 377 104 111 120 
86 712 408 88 115 166 
299 375 369 81 103 125 
241 799 279 79 123 159 
130 628 488 109 90 70 
308 708 409 78 74 73 
238 633 466 178 126 118 
121 633 428 68 96 124 
189 1007 371 144 111 82 
365 329 492 182 179 184 
168 940 330 85 64 44 
230 214 292 217 84 13 
251 830 327 221 161 133 
392 669 310 93 122 157 
146 339 361 98 125 151 
353 247 458 48 73 96 
193 76 434 84 69 56 
275 574 311 86 102 119 
247 127 453 176 92 24 
361 199 482 103 54 33 
203 583 478 54 62 76 
152 315 372 126 112 111 
222 425 303 87 102 118 
260 263 323 108 118 131 
129 775 386 158 40 58 
391 170 517 158 79 3 
293 460 443 142 146 163 
195 76 435 89 74 58 
316 434 380 131 139 152 
213 997 348 140 110 83 
170 174 370 126 68 1 
105 769 446 145 152 207 
249 763 423 215 197 187 
301 436 434 55 70 85 
242 318 459 123 87 112 
309 522 362 119 133 153 
241 431 433 90 110 135 
70 715 444 143 151 183 
333 302 473 68 104 131 
401 682 253 109 126 146 
256 743 433 129 89 75 
336 302 460 65 98 123 
307 578 382 115 134 157 
314 438 433 105 98 96 
342 285 453 65 105 135 
387 680 244 55 90 117 
83 690 408 139 144 158 
157 571 448 169 163 164 
187 584 357 170 154 144 
90 644 449 80 97 114 
279 213 456 103 35 53 
341 739 316 118 91 83 
254 143 440 111 104 99 
159 222 317 106 106 116 
229 410 303 113 124 138 
163 935 423 169 131 104 
254 685 274 129 129 134 
134 633 408 66 106 143 
312 675 413 171 125 64 
249 633 284 112 123 136 
194 244 425 79 73 70 
332 440 447 92 110 130 
224 813 290 173 123 88 
174 608 396 105 104 108 
226 552 466 172 164 164 
299 702 407 127 117 116 
190 182 419 76 31 42 
211 744 459 76 81 145 
344 444 457 96 132 186 
227 199 384 32 49 75 
185 940 325 67 50 32 
171 844 366 186 138 105 
272 767 256 186 164 147 
298 214 433 30 45 67 
93 643 458 58 63 70 
389 662 307 52 94 160 
308 685 411 136 100 47 
334 294 472 86 110 130 
269 395 301 94 121 157 
223 663 268 119 90 110 
244 122 465 158 115 85 
197 463 467 81 96 123 
180 614 473 71 71 74 
184 282 442 124 120 127 
236 368 443 42 82 123 
259 151 472 81 84 96 
91 663 496 166 122 96 
73 700 482 104 139 194 
333 607 331 115 105 98 
317 146 459 82 78 86 
207 451 463 93 106 127 
134 628 432 56 87 113 
364 621 296 138 148 163 
98 696 400 78 104 139 
320 419 296 100 122 145 
215 218 292 134 133 137 
320 782 315 164 159 162 
203 67 438 93 77 61 
385 675 345 62 89 158 
205 440 459 96 111 130 
256 754 421 132 130 132 
172 863 351 161 128 99 
66 652 478 95 80 65 
176 535 345 183 174 173 
142 713 364 73 116 189 
156 971 382 93 76 67 
218 784 422 205 175 148 
356 258 508 121 43 74 
146 406 417 158 129 95 
335 142 471 141 76 17 
218 237 292 145 142 145 
165 678 349 151 155 176 
386 240 508 39 74 108 
233 423 296 97 112 129 
330 771 305 203 171 139 
159 807 433 148 124 118 
336 640 262 33 71 104 
189 775 442 150 144 156 
346 291 436 89 133 167 
268 501 426 112 126 155 
281 334 364 126 99 74 
205 64 439 94 78 62 
177 340 442 161 142 125 
190 927 321 88 69 50 
335 453 447 121 135 160 
239 453 285 122 129 140 
213 341 431 91 101 116 
335 480 454 146 171 204 
349 273 458 86 124 155 
190 989 399 118 96 77 
150 335 371 102 121 141 
183 609 462 65 80 98 
80 708 424 168 168 176 
90 737 461 120 137 205 
227 193 345 38 37 38 
206 65 440 98 81 64 
343 225 450 92 34 47 
281 345 460 153 65 106 
339 756 258 236 200 139 
241 368 448 97 117 143 
207 65 442 99 82 64 
317 384 402 87 81 78 
271 470 289 81 101 121 
291 641 270 82 116 148 
206 67 441 97 80 61 
252 286 287 130 127 129 
116 784 445 152 156 169 
303 512 438 103 126 158 
262 681 449 131 142 157 
338 377 480 146 106 95 
202 144 464 87 47 71 
328 461 414 140 155 176 
286 637 425 60 104 136 
271 25 379 189 173 165 
378 271 505 135 141 151 
209 397 442 77 95 119 
205 819 308 160 119 85 
206 68 440 96 79 62 
122 755 389 59 51 76 
227 657 457 139 146 203 
314 514 429 100 125 157 
207 68 442 98 81 62 
263 745 252 88 105 121 
226 884 388 136 104 74 
225 164 377 97 32 26 
102 647 496 128 100 71 
111 690 473 129 141 188 
201 420 315 94 131 181 
315 211 435 96 48 57 
188 170 286 158 101 61 
330 769 306 150 112 65 
266 296 400 73 85 97 
234 686 273 148 150 158 
188 619 378 49 62 74 
268 669 276 106 120 138 
173 597 461 90 117 144 
327 738 360 186 170 161 
226 363 433 59 85 118 
227 151 401 114 75 49 
243 631 464 165 114 102 
388 667 327 112 135 161 
322 484 399 123 138 156 
98 754 416 116 133 177 
384 204 502 126 52 64 
290 664 254 122 141 163 
140 427 398 161 63 0 
232 530 451 80 101 136 
296 436 440 79 99 124 
173 410 447 160 73 8 
158 229 321 108 88 105 
199 340 433 130 133 141 
232 895 395 160 118 86 
242 686 453 140 154 172 
201 76 438 88 73 58 
229 190 384 29 46 64 
235 210 398 61 48 44 
167 740 347 138 150 165 
80 703 421 174 172 180 
161 341 408 122 36 62 
263 285 460 107 119 135 
215 989 348 119 90 65 
192 277 415 103 63 71 
352 267 483 137 121 120 
263 570 443 142 148 160 
248 740 261 53 49 87 
295 325 328 120 75 95 
162 251 313 147 79 95 
137 670 457 123 127 138 
336 293 426 129 132 138 
188 872 427 153 118 98 
212 973 341 149 126 103 
86 648 440 82 97 112 
280 215 433 137 58 41 
267 183 437 18 63 115 
266 161 461 114 82 76 
289 402 451 82 102 145 
351 222 468 117 28 18 
286 195 441 89 88 92 
314 625 288 111 121 134 
237 216 305 120 122 128 
338 262 429 107 56 57 
154 901 386 168 118 97 
362 316 481 103 134 163 
329 494 440 175 183 200 
242 614 269 141 137 146 
366 635 323 118 97 75 
253 584 297 106 104 105 
322 486 333 165 169 182 
219 758 446 147 91 131 
300 378 361 73 106 135 
302 583 341 106 102 103 
121 642 404 108 116 128 
341 345 422 146 138 134 
214 845 317 236 166 122 
288 245 446 98 81 90 
176 800 422 168 144 123 
89 672 494 162 117 91 
245 604 280 86 121 154 
209 828 308 179 130 96 
173 851 365 181 133 102 
345 671 249 77 104 131 
204 77 440 88 73 57 
205 76 440 89 74 59 
185 725 320 149 135 143 
228 196 383 24 51 80 
137 814 418 89 81 76 
196 187 288 78 113 142 
189 531 484 103 129 176 
205 78 440 88 73 57 
337 603 357 125 107 90 
268 150 450 105 74 59 
253 660 450 65 62 73 
361 742 292 186 142 87 
332 356 480 183 176 177 
185 642 366 63 71 81 
288 641 269 81 112 142 
214 529 475 111 124 146 
166 617 472 74 72 72 
159 912 340 96 79 66 
175 364 456 167 91 42 
282 778 385 216 155 125 
259 357 457 76 103 138 
327 620 374 140 99 82 
353 708 326 144 46 50 
207 79 443 85 70 55 
171 628 493 184 133 118 
163 584 391 125 141 162 
250 567 286 89 105 123 
210 493 322 112 120 135 
381 649 298 89 78 69 
349 331 471 139 89 88 
336 632 370 68 79 92 
210 420 451 88 102 124 
321 737 378 160 133 106 
244 833 335 215 159 134 
177 343 332 141 82 93 
289 760 398 164 156 154 
197 740 455 92 99 139 
278 224 431 134 54 20 
194 80 435 88 71 54 
378 300 493 133 156 182 
172 674 331 162 159 165 
309 757 251 91 119 145 
310 596 396 36 73 131 
298 220 424 112 49 46 
191 448 473 108 133 162 
207 562 286 167 160 166 
212 663 288 116 138 163 
339 160 463 85 60 63 
242 228 310 102 111 123 
294 667 436 65 46 121 
180 169 291 116 48 24 
275 691 439 80 81 84 
393 675 299 153 169 190 
182 906 314 60 46 42 
148 247 372 135 77 62 
152 134 305 148 133 120 
222 520 460 106 116 148 
184 856 331 169 130 98 
349 748 301 138 127 142 
164 897 355 57 48 39 
348 163 457 142 66 0 
270 210 431 116 23 29 
160 436 437 150 63 7 
199 176 455 104 48 67 
338 275 436 118 128 143 
313 301 428 78 63 73 
180 251 304 147 143 146 
181 675 431 34 65 103 
171 366 346 131 138 151 
81 667 494 163 118 95 
157 743 443 135 150 168 
254 118 466 115 92 68 
176 787 333 140 124 113 
144 485 384 118 124 145 
212 146 295 119 96 83 
312 255 421 132 10 37 
329 609 321 78 88 99 
150 934 397 82 67 54 
235 803 394 207 144 124 
161 447 347 90 117 145 
305 172 442 101 72 69 
146 212 342 140 91 84 
303 349 404 95 96 100 
327 306 429 86 35 33 
170 1004 370 153 127 105 
165 295 346 85 92 108 
332 318 453 126 122 124 
317 282 432 83 98 113 
303 616 411 55 50 71 
199 82 437 83 69 55 
236 320 289 156 163 185 
196 87 435 81 67 52 
324 438 314 116 139 164 
334 701 391 166 44 62 
197 84 436 83 68 52 
218 136 332 72 95 118 
75 660 437 38 76 102 
378 161 530 151 73 9 
294 215 427 110 37 45 
205 367 431 64 87 121 
341 436 451 86 89 114 
185 171 287 138 89 52 
74 723 454 219 213 217 
163 900 356 58 50 42 
174 580 368 160 144 134 
242 131 435 191 92 30 
172 474 340 86 101 133 
160 934 418 163 127 99 
183 291 311 129 39 49 
187 312 416 130 131 138 
241 379 306 64 93 121 
199 87 437 81 67 53 
322 322 426 75 63 63 
211 239 290 154 152 157 
161 664 430 132 138 150 
324 487 338 154 161 175 
185 315 431 105 120 139 
189 428 321 91 111 141 
318 671 412 179 153 128 
218 155 297 83 98 114 
297 737 404 153 132 112 
272 457 436 66 86 130 
391 243 503 102 94 113 
169 179 283 180 153 129 
149 333 380 128 134 146 
262 361 456 100 117 152 
219 734 281 159 17 50 
164 503 350 106 119 150 
162 816 347 155 141 132 
222 215 293 182 72 9 
230 966 386 101 80 69 
290 595 429 171 173 184 
318 496 304 170 175 187 
389 674 263 53 59 67 
365 309 498 104 151 188 
192 94 434 81 66 50 
180 348 421 133 24 64 
211 723 301 95 56 98 
157 163 317 114 83 69 
301 512 281 149 167 192 
153 914 392 98 74 53 
204 887 325 105 77 56 
187 664 434 113 125 158 
308 344 405 98 101 108 
193 466 330 85 115 163 
209 894 326 90 70 53 
287 528 431 82 104 149 
320 387 328 71 105 141 
282 739 412 124 108 102 
270 814 281 220 150 108 
179 592 373 77 82 105 
243 244 460 78 116 146 
290 604 425 158 159 168 
228 503 455 76 87 123 
356 345 471 187 153 118 
258 557 294 156 155 160 
374 710 319 153 182 213 
248 630 283 106 111 119 
235 215 394 66 45 55 
357 750 290 123 106 106 
204 137 291 105 97 113 
203 315 291 176 147 118 
198 88 436 81 68 55 
144 187 353 124 51 9 
327 715 390 171 98 43 
108 634 433 76 103 128 
164 458 339 93 110 159 
198 90 436 80 67 53 
231 309 287 112 139 177 
243 235 395 96 46 30 
374 297 488 173 174 183 
230 867 312 121 102 84 
214 656 285 81 116 148 
296 487 439 88 108 154 
277 222 462 127 125 129 
267 297 381 65 56 50 
196 95 435 82 69 55 
308 372 419 70 47 63 
322 207 443 83 39 39 
147 379 405 161 138 115 
323 204 443 82 27 40 
195 418 451 75 93 125 
256 569 447 155 154 159 
97 699 477 144 154 177 
153 251 379 35 48 73 
312 267 431 70 78 88 
150 330 376 140 144 153 
153 343 406 143 122 99 
263 558 438 103 114 129 
133 733 374 150 151 163 
298 601 417 85 107 137 
170 430 443 113 97 79 
259 283 364 74 90 105 
220 460 460 149 147 152 
181 635 310 89 125 156 
180 683 431 55 81 145 
90 646 431 64 95 123 
51 670 464 150 110 93 
202 80 439 86 71 56 
307 219 426 109 59 49 
170 922 322 93 74 56 
299 529 434 93 113 140 
283 789 363 213 156 125 
248 830 336 219 154 131 
312 400 290 120 136 164 
268 789 270 145 135 132 
297 226 428 102 94 89 
208 376 433 63 92 117 
317 541 410 147 161 183 
209 798 413 153 141 135 
176 261 439 96 108 124 
353 195 461 116 85 45 
200 87 437 80 66 52 
267 478 429 89 114 153 
179 303 438 122 119 128 
301 789 324 194 137 105 
307 351 298 67 94 118 
248 832 322 225 169 140 
400 684 281 103 136 172 
172 992 325 137 102 62 
178 614 482 89 80 74 
196 259 288 124 93 82 
176 214 389 120 64 69 
233 786 279 163 148 140 
315 700 241 132 142 163 
382 657 285 87 75 64 
52 664 463 126 102 76 
220 876 368 161 120 90 
234 506 448 109 125 151 
328 391 457 160 133 103 
177 560 475 98 118 141 
344 262 445 118 117 122 
374 681 351 126 152 180 
148 515 379 92 112 136 
304 721 406 125 124 133 
307 338 308 80 107 132 
317 722 396 150 114 90 
205 81 441 84 69 54 
174 340 339 174 137 91 
268 651 282 148 149 157 
306 520 438 94 114 159 
331 333 460 176 145 109 
264 594 307 62 82 100 
248 150 475 109 98 103 
365 229 516 51 40 55 
343 721 245 153 163 179 
207 80 443 84 70 55 
173 720 438 163 168 185 
339 317 454 147 12 55 
205 196 458 136 35 26 
205 465 467 140 141 148 
316 455 368 105 125 151 
207 82 442 83 69 56 
262 281 407 106 105 107 
252 528 284 137 137 144 
114 660 396 104 115 128 
180 361 325 91 114 140 
383 666 268 50 64 81 
182 130 341 82 68 53 
205 84 441 82 68 53 
356 233 470 47 62 98 
359 687 359 99 149 190 
258 690 273 93 110 128 
110 643 415 36 74 107 
177 875 421 148 116 88 
330 447 408 129 147 170 
210 403 310 127 139 167 
348 686 246 101 114 130 
305 611 334 92 86 83 
185 508 339 102 127 159 
158 324 349 90 136 174 
150 528 438 109 128 156 
224 226 462 152 142 137 
148 553 436 109 126 148 
214 866 386 166 128 97 
168 683 431 107 123 161 
161 454 346 101 120 142 
176 228 394 100 56 73 
225 188 331 51 61 72 
323 458 314 84 117 163 
322 403 332 74 107 147 
211 498 316 98 109 126 
187 224 396 84 83 93 
180 855 380 156 116 88 
163 310 349 109 114 124 
312 568 411 77 107 140 
373 643 304 102 87 74 
186 134 451 138 74 55 
216 344 432 134 133 139 
208 290 285 101 133 164 
375 296 488 177 176 182 
219 719 461 143 160 181 
53 682 464 92 119 168 
248 389 444 81 101 148 
183 981 321 131 100 64 
184 223 427 50 74 93 
191 252 426 86 89 97 
183 775 448 184 109 124 
274 430 301 81 98 118 
285 657 436 85 73 71 
174 364 342 121 130 144 
282 318 459 164 132 94 
84 647 443 70 90 109 
149 794 445 198 159 108 
391 675 262 44 55 66 
306 241 420 85 96 119 
201 95 436 80 68 55 
211 702 300 135 151 170 
196 593 353 104 115 130 
198 352 445 129 104 103 
388 649 260 98 118 139 
203 92 438 78 66 53 
232 436 293 121 129 141 
308 598 356 60 70 81 
180 359 439 131 84 56 
372 709 325 129 101 146 
153 937 405 97 79 65 
171 536 347 124 132 157 
287 156 447 89 72 86 
273 713 251 119 36 29 
232 131 422 117 92 75 
236 225 392 97 36 17 
154 525 364 160 163 173 
271 498 277 87 113 145 
366 195 505 67 42 53 
232 893 400 163 113 89 
166 838 356 192 143 112 
150 356 408 143 119 94 
317 468 365 113 127 156 
155 214 364 75 55 71 
326 708 396 197 92 21 
152 402 369 96 115 139 
173 918 428 120 98 93 
252 554 445 129 141 159 
346 235 444 87 98 113 
280 13 390 96 68 54 
361 166 484 102 61 68 
375 629 288 83 111 137 
205 94 438 77 65 53 
184 1004 343 121 91 60 
250 324 290 131 146 186 
368 211 508 143 8 36 
225 772 283 160 130 95 
208 1002 349 143 116 87 
269 328 285 92 109 173 
175 274 442 147 148 154 
211 512 318 58 77 111 
224 253 289 74 89 102 
173 603 394 121 119 122 
171 560 470 114 122 138 
109 779 436 189 199 217 
337 415 453 133 107 83 
300 376 442 54 80 101 
361 188 474 92 69 83 
338 340 419 113 126 143 
327 454 418 113 130 172 
192 140 290 69 88 106 
316 439 382 159 159 167 
206 90 440 78 65 53 
286 328 342 134 61 89 
319 268 423 115 115 118 
271 228 429 103 70 94 
225 935 421 184 139 113 
285 793 352 213 153 123 
299 220 424 111 51 44 
359 270 507 107 128 149 
260 725 435 146 54 53 
252 808 374 212 149 128 
304 223 428 101 46 55 
386 668 335 52 75 123 
340 278 429 95 128 157 
244 224 411 71 38 33 
310 614 405 116 116 144 
189 1007 342 145 115 86 
197 419 452 60 83 117 
265 533 438 149 152 163 
217 869 332 151 109 78 
280 284 417 92 97 106 
280 463 439 157 158 167 
130 632 417 64 101 133 
236 286 461 125 138 155 
210 64 444 101 85 69 
210 64 445 101 85 70 
188 934 438 187 147 126 
187 861 388 148 112 86 
408 699 255 105 124 172 
254 282 461 115 131 151 
181 335 437 79 104 128 
127 786 391 102 102 121 
161 642 437 81 93 120 
181 804 328 150 136 127 
172 287 402 69 101 127 
142 529 426 172 172 180 
284 335 350 135 82 98 
261 261 318 108 93 92 
386 717 285 187 203 228 
304 774 344 168 119 85 
134 810 405 115 124 134 
155 505 360 53 91 139 
131 675 464 110 112 142 
311 408 384 87 109 132 
155 635 404 54 97 137 
172 180 283 154 129 110 
175 388 431 164 141 119 
134 670 460 93 108 141 
212 952 428 197 148 123 
164 161 302 116 75 27 
232 205 312 96 67 76 
314 600 365 55 64 72 
233 517 450 152 154 162 
160 461 448 106 85 89 
378 173 528 120 107 104 
206 136 292 111 102 114 
213 404 311 94 121 169 
395 704 277 177 197 228 
370 173 503 108 63 86 
204 603 342 66 107 137 
281 324 384 120 118 120 
368 669 248 93 107 123 
261 820 333 225 166 139 
188 765 323 135 111 88 
307 148 450 125 111 106 
210 70 445 90 76 62 
245 240 323 131 129 131 
170 987 323 123 90 66 
224 150 368 111 39 33 
333 738 248 83 61 126 
284 710 423 179 97 51 
183 176 387 111 63 67 
212 64 447 96 80 65 
167 790 444 71 66 106 
191 131 371 96 79 62 
231 356 301 41 82 165 
329 249 429 109 77 73 
157 645 433 12 44 98 
305 396 438 44 62 80 
197 607 363 59 89 112 
348 413 461 133 119 108 
311 784 269 209 158 78 
166 886 371 136 107 79 
394 677 306 134 157 183 
291 402 449 97 113 143 
345 297 448 150 155 166 
80 648 485 103 85 66 
153 571 410 83 99 130 
167 613 422 83 94 107 
201 779 311 119 106 95 
322 475 306 104 129 158 
160 193 292 180 89 8 
167 976 400 118 96 76 
67 697 440 152 153 166 
214 275 447 145 134 129 
251 526 285 147 148 155 
208 73 443 93 78 63 
148 929 353 77 64 55 
289 768 391 130 114 108 
190 585 309 121 137 157 
325 262 424 107 56 42 
265 642 441 170 157 154 
233 437 442 151 148 152 
311 129 465 150 78 9 
326 405 470 100 110 138 
168 745 346 85 96 124 
154 138 324 72 53 27 
164 585 391 131 144 162 
380 676 245 105 118 134 
148 349 375 170 147 124 
237 539 289 77 115 146 
211 73 445 85 72 59 
308 668 415 113 71 28 
284 692 435 160 123 100 
322 633 366 50 59 75 
229 642 265 147 158 181 
286 777 379 216 157 126 
280 401 296 157 169 191 
159 391 360 65 105 142 
170 472 463 155 155 162 
142 637 493 161 119 91 
227 412 304 107 119 134 
151 396 420 128 28 66 
208 79 443 85 70 55 
194 295 294 179 131 81 
330 730 246 153 15 35 
319 732 390 132 122 117 
267 114 451 109 89 80 
352 171 466 68 73 87 
302 322 308 128 90 50 
397 218 496 100 94 104 
321 419 299 142 151 166 
219 762 288 140 129 121 
164 832 351 185 140 109 
354 289 488 138 136 139 
330 442 445 61 83 129 
324 346 461 134 131 133 
237 349 298 68 123 182 
198 475 469 90 106 131 
251 519 285 148 149 156 
224 898 422 179 136 108 
181 448 461 136 134 138 
185 551 480 83 116 149 
292 623 309 64 90 114 
233 812 386 205 141 122 
147 284 378 76 94 111 
222 871 404 139 105 75 
321 672 245 133 127 125 
243 216 411 63 37 39 
248 577 277 88 109 130 
97 640 460 77 72 69 
175 251 396 104 76 67 
204 464 322 112 122 137 
239 698 455 131 149 170 
314 654 260 110 124 141 
193 941 437 196 155 132 
260 741 432 134 89 83 
284 349 458 152 150 155 
288 367 289 133 142 160 
205 130 395 93 83 74 
194 256 288 97 86 89 
270 731 249 129 33 43 
219 877 381 169 129 96 
172 770 339 89 109 129 
149 337 374 93 112 132 
327 494 454 110 138 191 
338 151 467 83 58 79 
161 581 457 48 63 84 
169 988 325 126 90 57 
209 80 445 85 71 55 
209 81 444 85 70 55 
182 282 446 97 75 91 
307 609 329 92 85 81 
249 597 460 113 89 76 
293 279 434 69 85 104 
316 504 379 50 91 142 
288 475 285 130 137 148 
210 81 445 85 71 55 
291 336 406 68 78 90 
114 650 497 161 118 93 
198 547 330 86 108 132 
254 556 444 108 128 150 
277 472 435 83 101 147 
322 415 449 142 77 9 
167 397 352 75 100 133 
211 83 446 83 68 53 
262 520 282 113 129 153 
168 406 349 105 119 137 
270 172 441 103 53 33 
107 759 409 76 89 157 
216 290 435 81 102 125 
256 621 460 186 130 126 
148 696 354 140 164 208 
229 972 370 101 84 72 
220 515 465 182 175 174 
172 402 329 71 105 135 
288 340 384 94 102 113 
