ply
format ascii 1.0
comment Created by CloudCompare v2.11.1 (Anoia)
comment Created 2/28/22 9:39 PM
obj_info Generated by CloudCompare!
element vertex 2010
property float x
property float y
property float z
property uchar red
property uchar green
property uchar blue
end_header
157 499 366 136 140 151 
312 472 350 165 166 173 
212 64 473 98 81 63 
257 540 273 114 138 162 
291 595 329 88 89 93 
144 407 403 181 154 127 
256 657 275 126 125 129 
238 202 411 28 52 74 
171 645 355 82 87 94 
351 276 431 95 139 174 
226 880 349 157 121 94 
213 259 451 143 143 151 
71 665 449 73 101 131 
88 684 423 151 161 180 
143 676 357 80 98 122 
358 207 506 108 48 37 
312 580 361 144 146 155 
318 367 452 108 100 106 
184 641 301 151 157 170 
106 644 421 26 60 109 
237 86 367 103 85 67 
290 341 361 116 85 51 
261 626 451 100 87 94 
299 612 305 89 101 114 
197 571 279 95 118 141 
307 578 412 59 89 134 
220 883 420 161 126 98 
196 220 420 87 73 71 
232 90 358 102 86 68 
215 929 429 140 114 88 
208 612 282 122 136 156 
275 556 433 157 164 178 
174 228 389 100 51 63 
325 430 321 80 116 152 
218 161 301 96 89 85 
208 628 282 159 157 162 
252 135 455 162 86 38 
269 292 287 132 133 139 
184 257 435 136 127 122 
215 290 426 96 108 122 
281 656 255 88 110 134 
183 813 406 119 115 116 
271 510 420 87 98 125 
139 433 395 127 111 99 
304 156 441 35 47 71 
252 199 422 92 45 39 
246 767 420 120 123 131 
247 412 431 120 127 140 
140 392 385 185 157 127 
252 325 294 102 118 165 
390 670 274 112 139 171 
233 89 361 99 83 67 
315 403 338 85 113 146 
240 151 429 125 89 56 
143 436 415 161 64 9 
198 555 328 159 150 147 
368 194 503 52 51 66 
324 727 373 106 111 121 
306 571 340 85 100 119 
166 437 353 115 126 141 
216 494 281 87 116 157 
347 269 460 140 144 153 
154 564 388 119 132 150 
147 285 382 108 67 72 
356 684 347 100 150 191 
301 576 334 134 128 128 
300 293 404 116 123 135 
137 175 339 129 113 98 
196 475 329 57 91 133 
305 749 387 219 198 185 
95 676 412 97 118 142 
130 704 472 89 106 155 
378 689 308 140 167 202 
334 758 289 148 134 128 
160 825 352 93 108 125 
271 629 445 163 106 98 
186 522 473 153 148 150 
347 403 460 154 127 104 
256 595 295 74 103 132 
235 91 367 101 84 66 
151 498 375 66 93 134 
203 1000 342 151 123 102 
329 409 464 58 90 123 
336 721 311 105 51 52 
180 177 425 80 31 41 
150 298 344 178 175 182 
186 932 322 72 55 37 
227 841 311 236 169 129 
280 408 301 125 144 179 
377 658 341 25 84 138 
183 341 420 128 2 52 
352 196 443 128 104 74 
278 372 299 95 124 156 
313 410 345 129 140 156 
292 789 323 206 149 112 
303 333 433 66 73 82 
327 647 249 49 79 106 
195 300 304 173 134 77 
348 619 266 87 119 157 
144 321 359 130 145 164 
234 92 364 100 83 66 
234 92 365 101 84 67 
212 509 278 83 123 157 
161 413 361 125 135 153 
334 302 437 113 123 139 
327 223 435 94 29 55 
311 596 384 151 150 156 
260 326 457 112 132 154 
331 288 461 102 85 84 
186 875 427 156 122 100 
176 257 397 81 51 69 
144 652 458 71 87 114 
246 441 431 34 64 116 
376 184 527 81 69 99 
149 267 334 135 108 101 
343 610 326 105 92 82 
190 293 308 146 120 115 
234 95 367 102 84 64 
167 638 337 94 100 110 
230 380 301 76 104 135 
236 88 366 102 85 67 
168 305 345 108 114 126 
152 795 354 163 144 130 
217 474 306 146 144 148 
386 665 237 112 128 147 
227 736 267 137 69 81 
241 606 275 89 109 131 
324 448 432 52 85 135 
232 673 267 114 117 123 
313 767 332 114 99 90 
225 81 383 93 75 57 
266 567 306 116 124 136 
333 748 244 170 37 79 
322 501 339 108 129 167 
316 758 338 176 161 153 
165 891 355 81 64 48 
226 81 383 94 76 59 
202 750 309 73 81 92 
347 166 445 132 64 4 
176 236 310 141 135 135 
189 276 407 63 97 124 
168 892 421 153 113 87 
306 592 349 65 79 93 
273 764 399 190 177 171 
181 974 417 82 67 58 
212 980 392 119 96 73 
316 654 402 111 114 130 
225 85 382 93 74 56 
182 869 422 152 120 94 
154 648 352 10 56 88 
347 268 462 143 146 154 
251 213 456 121 23 50 
271 598 314 71 74 82 
208 521 273 122 139 161 
163 696 358 180 181 190 
383 667 310 101 133 169 
217 742 290 71 46 82 
226 87 382 96 78 60 
70 707 467 142 170 200 
318 274 424 69 89 108 
172 180 300 98 51 58 
82 718 474 172 185 209 
186 386 312 83 114 162 
170 795 442 128 148 175 
207 446 315 128 138 153 
182 729 322 156 58 72 
307 125 454 127 107 86 
294 333 448 144 101 45 
315 766 329 165 150 139 
309 435 442 69 89 134 
380 644 260 42 68 122 
178 852 377 160 118 89 
124 694 473 132 147 169 
152 758 451 134 151 173 
290 403 445 67 94 146 
329 445 415 106 106 157 
211 74 448 84 71 58 
145 636 403 61 108 150 
376 246 502 114 67 81 
163 641 383 69 100 128 
241 926 375 142 95 76 
235 896 367 114 87 66 
147 245 380 122 71 53 
215 128 472 164 72 8 
229 85 382 98 79 60 
194 412 316 90 116 150 
208 565 275 71 138 192 
279 405 444 84 113 153 
395 692 228 115 141 199 
236 804 277 153 108 73 
98 667 413 91 110 131 
98 638 478 92 79 67 
209 467 313 128 146 170 
125 796 423 82 48 133 
344 252 433 61 87 108 
189 616 374 56 71 85 
379 690 299 129 173 215 
352 720 234 176 181 194 
194 839 320 181 134 102 
231 86 382 97 78 59 
316 202 424 97 90 86 
182 613 483 98 86 75 
212 523 283 99 124 153 
225 89 382 92 74 55 
238 628 278 125 126 133 
289 367 450 95 127 156 
152 902 358 70 50 39 
146 335 373 127 141 159 
269 262 312 116 126 139 
230 242 461 75 104 134 
309 126 455 118 80 47 
136 806 435 239 197 145 
246 238 291 154 154 159 
295 331 446 143 104 46 
288 459 289 65 102 131 
226 90 382 92 75 55 
338 688 238 125 127 138 
212 206 460 141 32 25 
165 377 357 71 102 136 
206 897 433 139 95 72 
266 764 402 147 143 144 
150 485 443 98 113 135 
197 211 443 78 44 59 
178 140 359 95 70 46 
296 350 387 114 113 116 
299 483 277 119 134 156 
174 128 299 98 79 61 
212 485 317 93 104 123 
367 705 230 116 134 190 
183 269 449 140 143 152 
203 359 440 100 102 130 
161 793 344 58 53 53 
233 408 290 127 132 141 
224 951 412 170 130 105 
221 812 391 196 132 112 
200 647 300 90 123 165 
328 623 348 115 83 65 
307 775 323 100 73 53 
254 254 332 125 123 124 
193 404 315 72 102 149 
150 164 334 105 78 65 
273 531 424 116 130 149 
165 641 488 177 121 101 
136 796 445 124 161 194 
154 720 366 132 136 152 
206 360 301 94 133 177 
287 767 247 201 176 157 
289 332 454 158 118 60 
267 513 424 95 110 142 
213 281 291 175 170 173 
272 528 285 193 193 206 
180 567 472 49 54 61 
258 689 262 114 121 131 
239 167 422 105 65 55 
230 91 381 88 71 54 
260 645 280 121 120 125 
290 443 296 79 101 124 
198 898 310 92 72 60 
362 740 262 224 120 137 
322 259 417 96 90 95 
308 190 427 112 67 49 
368 226 500 125 74 68 
162 142 308 60 64 78 
237 736 256 145 85 76 
158 355 361 114 121 135 
213 816 292 182 131 98 
273 628 443 163 106 95 
102 637 474 85 76 69 
195 232 419 103 80 82 
269 344 297 58 92 167 
125 669 485 168 111 89 
181 447 327 93 115 144 
243 455 275 105 113 125 
214 353 426 113 118 128 
312 281 412 90 93 100 
164 344 411 127 96 81 
144 326 364 92 118 143 
99 694 491 91 102 132 
314 677 238 136 133 136 
330 667 243 47 67 101 
191 636 359 68 77 88 
177 298 452 80 122 154 
144 330 362 114 134 156 
258 258 456 152 148 150 
319 394 299 147 153 166 
239 80 368 108 89 69 
319 778 300 162 117 108 
282 324 456 142 79 62 
363 157 507 147 60 4 
331 423 398 135 129 127 
383 250 494 150 109 108 
257 418 291 104 118 138 
160 131 308 56 91 126 
293 304 443 105 117 133 
256 450 428 99 114 145 
252 208 420 87 49 43 
242 707 456 134 154 177 
337 395 408 185 149 104 
156 163 322 118 64 17 
267 464 283 123 127 136 
288 165 443 91 60 71 
339 298 426 109 124 141 
193 900 303 96 77 60 
237 82 374 100 81 62 
177 423 451 118 102 86 
109 681 491 170 111 93 
223 873 341 167 127 98 
238 81 372 101 83 63 
324 753 245 163 23 32 
239 80 372 102 83 64 
223 641 461 186 126 119 
162 994 332 182 150 120 
337 322 412 103 113 126 
236 283 459 118 135 156 
199 398 314 148 154 165 
193 590 282 106 141 172 
172 1000 373 119 80 48 
173 253 326 126 121 125 
131 657 388 81 98 117 
377 676 339 146 171 202 
178 138 296 61 87 111 
230 200 345 37 48 60 
214 678 279 102 116 141 
267 598 304 53 76 97 
146 409 412 174 147 119 
349 240 489 95 46 68 
74 655 456 78 91 105 
244 386 294 116 122 132 
330 209 426 84 95 106 
341 440 442 79 85 119 
256 260 457 145 142 145 
164 510 458 70 96 143 
363 213 514 139 15 58 
158 822 355 154 145 141 
319 534 433 131 156 197 
307 582 368 88 118 146 
313 242 424 96 96 101 
238 584 462 66 114 149 
153 823 390 217 188 163 
324 650 250 40 78 111 
327 393 447 155 128 100 
322 418 303 138 149 166 
287 176 439 106 56 60 
190 631 344 92 97 105 
284 679 432 79 88 100 
334 725 310 93 110 128 
360 214 450 109 51 63 
270 297 369 117 117 121 
160 893 402 153 114 85 
337 685 385 183 74 102 
247 422 285 84 101 122 
279 21 385 163 109 96 
175 905 427 187 143 122 
237 84 374 99 80 60 
224 328 295 188 184 191 
307 452 437 77 97 146 
236 86 373 99 80 61 
286 327 346 129 92 63 
278 701 241 108 116 127 
129 722 468 176 174 180 
315 160 441 46 35 42 
298 192 434 97 66 48 
194 216 435 80 48 55 
227 248 460 87 116 142 
156 771 352 81 72 81 
311 352 330 82 109 133 
158 269 333 155 92 91 
257 739 435 180 128 104 
235 83 379 94 77 57 
167 430 353 128 132 141 
164 139 305 52 79 104 
330 431 439 126 109 95 
332 738 239 190 45 50 
212 297 294 193 152 110 
211 148 464 138 40 28 
390 699 259 109 132 191 
152 480 374 98 116 136 
322 767 304 182 165 154 
276 267 414 99 94 99 
191 476 331 126 138 164 
128 715 470 115 136 163 
214 585 280 44 100 141 
307 560 427 113 130 182 
235 453 275 22 73 114 
216 684 266 78 134 175 
109 741 467 149 147 186 
302 626 403 56 67 106 
235 85 377 94 76 57 
236 386 431 88 105 127 
189 244 298 121 136 154 
176 301 331 125 130 137 
85 724 473 159 164 209 
323 450 320 136 150 169 
224 446 277 145 146 152 
158 972 355 64 41 34 
382 668 262 72 64 59 
206 513 320 43 73 101 
186 148 436 71 43 48 
171 222 316 96 76 84 
224 146 401 119 64 2 
373 161 503 166 61 7 
307 398 434 49 58 72 
145 474 382 84 106 144 
338 669 385 85 83 84 
291 362 449 76 99 140 
178 617 397 60 72 84 
254 317 291 106 125 163 
176 258 320 134 133 138 
177 695 443 64 103 152 
219 693 263 170 178 194 
233 211 358 37 40 49 
134 730 461 91 99 147 
359 626 260 57 104 137 
209 700 444 94 121 147 
224 908 344 70 56 52 
309 244 412 70 90 113 
233 87 380 93 75 58 
372 277 481 155 148 153 
359 727 299 178 88 96 
195 371 306 84 122 168 
169 877 357 145 112 82 
270 457 428 104 117 147 
161 638 399 53 85 113 
247 353 449 138 142 157 
124 632 430 76 123 160 
127 749 392 70 63 88 
253 245 456 140 125 119 
360 142 495 106 94 83 
163 438 360 69 98 126 
225 167 378 103 28 29 
275 414 442 106 121 158 
342 615 342 148 112 91 
236 282 458 112 131 153 
143 633 418 52 98 138 
168 881 378 149 117 88 
176 273 447 155 155 161 
225 530 463 107 123 148 
158 620 466 95 89 86 
302 255 416 59 69 79 
227 203 383 37 49 67 
208 142 401 117 80 45 
196 720 447 127 144 165 
248 176 427 91 51 59 
315 465 357 108 125 154 
183 361 443 170 141 108 
205 945 322 110 85 60 
360 628 288 116 143 169 
139 499 416 109 133 167 
377 658 273 83 72 63 
292 675 237 107 122 140 
214 519 299 68 90 111 
259 544 435 144 145 154 
202 644 300 97 131 177 
248 240 326 120 118 120 
235 89 372 99 80 62 
228 892 411 168 122 89 
296 288 409 85 103 121 
291 579 427 126 148 173 
206 638 285 38 69 118 
211 835 307 198 145 107 
165 446 351 94 118 146 
145 405 380 107 113 125 
301 491 278 81 113 150 
172 333 341 151 96 56 
277 514 270 134 147 182 
155 281 336 196 6 59 
118 654 501 166 120 92 
278 516 274 141 144 184 
277 611 440 75 111 139 
221 561 284 122 128 139 
184 855 384 156 116 90 
248 245 343 77 95 113 
172 744 444 133 150 171 
267 763 248 149 134 123 
337 270 465 77 103 131 
278 303 343 108 105 104 
317 389 298 97 115 136 
246 561 276 111 120 132 
156 186 363 81 83 87 
317 611 289 69 113 147 
272 765 245 168 148 133 
298 478 278 126 133 144 
282 259 447 94 134 168 
290 562 306 117 132 154 
312 453 425 51 76 107 
347 229 444 86 46 63 
308 363 291 114 133 157 
216 733 292 140 36 45 
302 316 424 71 77 86 
115 751 411 127 133 144 
374 152 527 124 112 100 
365 150 510 107 93 79 
300 531 426 96 118 145 
332 304 444 101 112 126 
77 721 458 220 212 213 
276 414 302 154 152 156 
185 338 438 94 114 135 
262 551 435 139 145 159 
341 662 375 87 122 153 
286 332 393 65 59 55 
218 585 473 109 112 120 
104 756 422 136 155 180 
337 459 438 74 105 150 
151 201 344 143 59 84 
138 142 334 137 126 119 
187 1005 339 139 111 79 
178 287 326 134 14 56 
189 399 456 96 80 83 
343 161 454 78 18 28 
297 553 314 174 173 180 
131 798 402 191 140 41 
274 273 317 140 139 144 
234 565 464 161 158 163 
227 116 473 115 102 92 
269 381 303 72 102 134 
236 89 369 103 85 67 
167 820 342 91 111 130 
280 122 452 134 81 16 
217 872 389 156 122 88 
259 419 291 108 119 134 
196 461 327 94 122 163 
196 441 473 102 128 164 
374 684 230 105 120 138 
191 598 317 103 127 151 
240 626 465 167 109 106 
233 88 379 92 75 57 
265 565 305 130 134 145 
347 331 485 136 71 81 
265 290 376 74 94 113 
217 402 441 57 83 118 
348 203 450 86 30 26 
374 679 338 142 166 194 
146 267 382 72 84 104 
217 628 266 116 136 159 
89 649 449 87 101 115 
246 745 443 202 165 119 
353 749 271 190 140 74 
176 802 427 101 82 80 
213 879 425 169 128 107 
151 900 368 101 68 44 
314 600 365 60 60 62 
163 928 326 73 58 47 
324 515 432 132 151 177 
105 686 490 144 101 100 
210 530 291 89 107 129 
190 601 462 48 76 98 
84 698 436 127 136 154 
267 599 311 54 61 76 
232 88 380 91 74 57 
304 768 347 161 117 85 
288 565 423 99 118 138 
333 293 415 135 134 138 
310 390 388 87 97 109 
230 206 390 53 37 38 
186 1006 351 125 95 60 
188 778 443 86 78 76 
233 93 377 95 78 62 
256 210 422 99 50 45 
239 786 405 107 124 142 
349 659 242 87 104 122 
341 279 486 129 113 96 
196 1007 353 114 86 57 
193 707 312 136 156 180 
212 128 406 99 90 83 
330 315 467 113 128 146 
227 208 290 196 154 87 
109 672 498 167 114 89 
323 425 391 56 76 96 
272 767 396 125 137 152 
183 737 444 106 136 166 
217 539 274 179 187 201 
287 766 387 168 162 162 
367 160 495 158 45 30 
360 179 485 44 49 83 
350 251 468 69 104 131 
346 283 421 84 123 156 
133 174 355 97 88 82 
289 250 432 84 87 97 
231 830 361 195 128 109 
315 241 417 92 91 94 
212 120 474 126 111 99 
264 763 248 149 132 119 
240 66 360 124 99 74 
153 252 361 112 101 112 
161 465 350 49 93 135 
164 586 393 133 145 163 
215 760 444 175 152 144 
227 400 297 100 113 127 
329 465 398 161 170 185 
172 391 344 92 114 139 
187 333 422 165 143 123 
289 726 234 156 79 57 
218 823 292 194 139 105 
222 137 349 64 57 78 
158 808 437 140 100 98 
105 638 458 56 79 98 
290 231 427 97 93 93 
219 456 276 135 143 155 
225 134 371 124 64 6 
147 211 351 167 108 101 
108 633 443 78 96 115 
333 608 321 110 102 96 
170 873 412 147 114 85 
325 620 364 133 90 76 
97 749 435 130 151 194 
351 623 304 79 74 71 
364 724 289 116 134 168 
233 214 351 45 50 62 
167 273 393 65 97 122 
212 224 458 124 56 85 
343 348 414 147 26 56 
212 645 274 126 147 174 
311 581 351 107 105 106 
269 250 302 95 118 138 
182 276 317 111 70 23 
289 771 378 216 155 126 
166 629 437 38 67 94 
259 594 304 53 76 96 
172 513 342 115 130 164 
301 677 235 167 160 159 
226 183 320 48 65 82 
337 277 476 113 119 132 
186 910 315 55 46 38 
220 896 424 167 124 96 
224 927 338 81 63 54 
243 68 363 115 94 73 
168 877 372 150 118 88 
351 254 501 105 81 97 
276 291 331 124 48 63 
160 892 390 135 108 80 
270 407 301 133 138 148 
161 898 360 63 54 44 
323 429 311 54 96 151 
248 713 255 112 63 51 
132 754 380 150 153 164 
193 532 327 161 161 168 
147 443 379 83 105 144 
251 329 457 158 65 102 
347 704 340 167 52 81 
346 695 359 124 163 194 
243 70 365 119 97 75 
212 690 290 152 162 177 
317 508 412 54 80 149 
139 917 367 99 79 64 
180 969 421 110 89 78 
380 678 316 56 77 144 
164 642 441 80 95 118 
279 293 330 119 34 45 
172 617 318 133 142 156 
337 365 425 138 127 145 
139 664 351 109 128 159 
233 516 452 117 130 154 
244 65 365 113 92 70 
214 824 385 169 107 89 
232 622 473 170 110 103 
215 530 478 101 125 158 
153 253 327 100 90 115 
153 388 368 56 93 126 
148 144 326 173 84 19 
345 272 462 134 138 148 
258 237 296 132 128 129 
177 299 452 85 117 145 
199 214 450 122 54 41 
244 66 367 108 87 66 
145 406 407 172 147 122 
119 643 411 48 68 88 
263 242 452 142 141 147 
270 592 441 90 96 111 
311 775 257 175 156 140 
223 848 348 178 137 113 
180 452 329 157 156 164 
357 641 249 113 128 146 
319 182 436 108 36 32 
226 188 293 116 69 49 
297 297 440 137 137 142 
150 819 375 211 164 106 
264 418 295 89 105 123 
154 944 408 117 94 79 
266 668 436 122 130 146 
204 201 457 131 34 21 
368 168 523 154 71 9 
276 274 449 139 138 142 
148 313 391 148 148 154 
205 176 399 113 75 72 
306 596 371 97 107 120 
201 596 329 147 149 157 
313 523 418 89 113 150 
327 605 301 91 109 128 
325 332 405 114 118 126 
209 544 271 171 175 187 
234 212 340 28 55 81 
319 407 296 124 139 158 
181 863 385 152 117 89 
281 365 296 121 133 158 
263 281 362 85 97 110 
318 485 372 91 113 140 
293 261 441 72 79 97 
217 480 276 104 126 149 
328 174 434 101 68 42 
325 310 425 80 47 50 
171 692 338 49 91 134 
140 162 344 111 65 51 
317 602 332 107 97 89 
262 158 472 143 94 69 
241 668 269 80 105 127 
225 303 434 97 111 129 
378 204 496 104 66 75 
189 562 342 97 113 133 
392 674 266 104 136 165 
323 280 415 131 136 145 
368 681 232 103 115 130 
243 67 375 110 89 68 
264 247 308 84 109 134 
243 69 368 109 87 65 
253 296 459 139 37 66 
301 220 423 80 33 46 
147 690 462 174 173 180 
231 569 468 145 145 151 
217 581 279 112 129 149 
107 759 456 106 117 170 
333 417 443 125 90 42 
380 153 530 113 102 94 
303 551 325 114 120 132 
353 678 335 123 150 182 
241 909 374 139 102 75 
219 650 457 129 134 176 
195 868 326 155 108 66 
332 357 432 183 154 122 
343 436 452 157 167 184 
248 122 478 137 73 13 
362 203 517 146 63 58 
297 779 326 183 131 91 
275 708 240 107 110 116 
355 681 337 146 126 157 
313 497 306 108 133 169 
338 220 436 96 19 28 
306 340 430 66 65 67 
262 770 401 174 161 151 
207 630 286 121 128 148 
373 293 485 156 168 187 
326 432 418 124 17 46 
321 380 323 55 94 138 
345 184 448 45 52 81 
159 677 456 166 168 177 
229 345 299 107 148 182 
229 195 388 39 44 51 
283 472 282 120 129 141 
150 397 372 108 123 143 
344 618 301 60 81 100 
168 644 469 82 118 148 
206 152 409 96 79 61 
326 454 328 176 173 178 
159 153 335 65 46 40 
159 919 412 175 134 108 
192 572 301 106 121 139 
212 408 445 101 109 122 
224 418 443 103 114 132 
217 578 475 160 163 173 
239 425 282 71 96 119 
218 172 463 48 59 90 
298 765 364 232 183 155 
244 67 370 111 90 68 
140 490 422 78 115 154 
311 161 436 100 64 35 
240 447 439 98 109 136 
275 601 319 56 57 63 
226 510 463 95 113 162 
148 272 343 127 56 74 
321 500 336 111 133 162 
250 140 477 45 69 95 
238 515 447 132 142 158 
244 611 465 142 100 100 
302 294 414 62 71 82 
367 211 515 162 57 64 
334 287 452 71 106 134 
147 767 364 140 51 51 
342 377 453 161 118 76 
245 66 372 115 92 69 
291 162 439 96 59 65 
346 612 332 115 97 79 
195 212 419 75 62 70 
319 512 336 91 122 154 
169 366 418 146 123 100 
340 356 478 133 139 151 
283 320 370 118 118 121 
177 731 332 136 146 160 
277 183 429 49 82 107 
302 491 279 82 111 148 
313 739 383 169 145 125 
168 646 328 66 136 191 
179 890 327 84 67 54 
257 130 459 128 65 12 
382 665 292 104 132 160 
255 584 448 81 127 162 
144 653 352 87 106 125 
287 633 432 174 171 177 
297 522 428 175 179 189 
293 294 305 150 117 84 
210 299 295 154 101 46 
159 574 448 174 166 166 
154 422 368 109 127 151 
336 722 310 101 108 114 
142 354 373 102 127 153 
167 633 328 101 93 108 
195 864 426 148 114 94 
309 586 406 97 133 175 
285 311 336 109 93 104 
181 230 395 84 70 83 
318 482 417 69 86 130 
329 607 321 116 104 94 
294 457 437 124 135 156 
290 640 424 66 107 141 
141 218 357 124 98 120 
261 219 454 129 50 86 
176 629 426 28 48 63 
295 548 303 112 129 157 
255 716 450 135 166 198 
194 207 437 104 20 24 
247 235 458 80 115 145 
346 691 323 100 85 140 
302 609 332 88 85 84 
354 223 472 54 50 74 
172 896 329 82 67 57 
340 343 458 150 113 86 
271 177 454 102 56 61 
274 505 420 110 122 138 
147 501 437 96 113 149 
183 351 423 131 2 56 
369 299 480 137 151 170 
313 560 344 124 130 140 
215 754 450 202 161 140 
175 551 469 63 78 111 
185 285 446 81 111 136 
307 458 437 80 99 145 
317 423 453 91 111 136 
322 167 441 86 27 40 
198 243 413 126 54 79 
150 637 398 75 112 149 
216 264 452 111 128 148 
314 286 409 87 111 133 
185 963 425 183 138 120 
169 138 301 51 74 106 
302 407 292 149 159 179 
306 574 422 160 176 199 
197 143 293 101 94 94 
307 629 396 96 72 92 
64 666 492 151 111 89 
267 619 449 186 118 114 
155 999 339 180 150 120 
147 954 355 111 82 58 
217 898 333 85 64 53 
151 954 347 128 97 70 
214 404 443 68 91 118 
139 487 415 155 162 176 
187 302 432 97 119 142 
245 560 274 104 108 117 
239 214 318 101 76 76 
177 707 329 94 123 154 
223 154 357 72 33 31 
160 1001 348 167 140 115 
289 772 374 217 157 128 
187 149 446 143 30 22 
157 272 391 52 81 101 
219 212 290 161 74 5 
180 245 308 150 148 152 
157 571 444 126 140 159 
244 64 378 104 83 63 
315 483 297 147 159 179 
162 478 452 53 85 128 
241 75 368 114 92 70 
367 174 520 133 70 65 
309 364 425 75 52 60 
223 907 344 66 51 46 
363 720 295 92 40 42 
167 741 347 101 109 130 
230 189 297 95 87 79 
192 822 318 163 125 89 
178 141 361 96 73 50 
156 150 335 53 34 35 
188 219 395 93 54 60 
252 400 292 70 96 123 
177 738 330 65 50 107 
328 603 332 120 113 109 
334 646 373 64 89 112 
149 310 365 129 135 146 
282 669 432 94 98 116 
207 656 288 120 139 166 
203 131 466 160 70 9 
349 273 441 72 123 163 
335 318 448 139 21 65 
161 229 377 95 39 52 
277 390 447 53 91 154 
124 718 470 157 174 196 
241 710 257 88 63 85 
120 737 403 58 80 135 
320 123 459 120 102 85 
261 118 449 105 91 81 
334 736 307 155 137 121 
242 72 372 105 85 64 
284 230 451 123 123 129 
163 889 387 119 96 70 
164 540 456 117 128 149 
354 238 438 110 96 94 
289 451 439 95 115 165 
236 837 325 219 164 135 
329 292 414 129 130 134 
88 682 497 176 129 103 
263 506 427 83 105 136 
319 446 453 140 151 165 
258 822 319 210 155 123 
320 495 443 146 159 180 
176 778 449 185 141 112 
170 226 385 120 45 66 
318 598 349 97 91 88 
220 918 421 165 126 106 
382 671 311 118 139 169 
186 334 421 157 134 112 
215 601 273 93 106 122 
153 285 370 93 63 74 
217 506 301 67 91 114 
232 604 470 59 63 69 
321 605 305 86 97 110 
184 140 439 86 39 49 
292 422 442 72 97 137 
329 187 436 67 32 45 
197 253 293 100 130 156 
318 291 424 89 96 105 
202 191 456 85 49 74 
293 346 288 77 120 161 
188 990 388 93 75 64 
282 641 431 90 135 169 
200 496 483 178 181 192 
222 428 286 125 128 133 
149 900 379 163 113 93 
314 526 353 118 133 164 
155 170 355 87 77 69 
278 596 435 151 149 154 
335 422 411 95 83 78 
145 649 465 46 60 89 
298 411 435 112 117 128 
74 663 447 102 112 124 
201 137 297 102 94 91 
364 635 318 95 111 129 
247 336 298 138 149 177 
347 274 495 154 69 9 
117 678 403 67 96 132 
219 732 288 167 133 87 
341 297 428 112 124 140 
179 244 308 158 153 155 
228 621 263 152 153 162 
227 773 427 181 171 166 
307 618 289 78 107 132 
310 646 398 14 33 56 
202 730 310 124 34 63 
230 951 347 110 86 68 
262 192 428 36 53 83 
346 247 450 92 83 86 
230 192 359 71 41 34 
186 712 442 129 147 168 
165 585 453 48 55 83 
249 399 435 95 112 138 
231 642 272 133 144 159 
278 279 316 93 114 136 
193 128 317 107 89 81 
70 707 458 134 147 186 
375 654 276 84 72 62 
155 902 392 158 120 92 
173 179 300 102 67 69 
150 292 360 74 115 147 
195 130 307 111 95 85 
275 679 439 150 168 191 
287 666 243 128 142 160 
309 489 290 126 140 166 
276 420 302 91 109 134 
273 185 460 100 46 67 
91 692 494 96 117 159 
143 329 360 117 131 149 
389 677 251 71 67 65 
270 601 314 57 63 74 
279 335 457 169 105 125 
249 689 452 110 135 160 
341 609 285 74 104 131 
191 613 466 62 62 63 
268 314 287 115 138 187 
386 676 289 124 139 171 
270 732 422 146 134 130 
387 688 274 103 143 189 
269 329 456 158 77 108 
343 341 427 172 11 80 
319 730 382 141 130 124 
215 681 273 78 132 173 
329 739 338 38 33 49 
308 321 410 68 57 44 
312 487 356 116 127 153 
165 644 472 99 99 109 
299 459 288 127 133 143 
351 234 476 72 51 77 
167 884 360 117 92 65 
201 564 312 100 125 158 
147 195 365 74 60 67 
91 645 455 96 107 121 
190 635 373 61 70 79 
103 709 405 107 132 159 
228 278 454 95 121 147 
154 731 452 139 150 166 
324 422 438 131 52 4 
324 378 430 142 110 67 
189 175 388 110 54 65 
309 547 410 121 137 166 
273 631 441 184 123 117 
266 315 287 109 130 163 
350 297 472 131 130 135 
187 615 375 55 72 88 
172 321 339 149 86 83 
142 523 416 137 140 157 
297 565 423 134 149 175 
383 217 509 150 68 76 
236 787 407 156 95 92 
135 694 366 127 139 157 
317 413 295 68 109 151 
321 452 381 93 112 148 
181 129 349 88 70 50 
336 434 457 155 166 182 
345 249 479 133 137 142 
287 615 333 55 72 88 
285 593 434 146 155 170 
172 557 466 62 71 85 
293 495 274 155 166 181 
355 250 485 99 30 63 
205 533 310 94 130 164 
308 552 429 110 135 184 
258 619 459 162 104 103 
185 591 464 55 92 128 
71 699 483 127 150 199 
164 381 422 140 120 98 
350 327 464 153 144 140 
163 286 393 81 47 51 
160 640 458 79 102 130 
359 739 272 126 46 70 
282 596 433 116 126 141 
238 498 275 79 111 166 
273 159 444 80 68 67 
299 296 431 103 105 112 
174 726 443 125 147 171 
183 978 413 97 83 71 
157 932 414 162 127 100 
230 824 291 218 160 124 
173 150 361 91 70 55 
229 101 358 105 85 64 
357 194 504 69 55 84 
202 581 320 97 129 159 
177 833 334 168 127 96 
168 296 344 93 114 144 
187 252 437 122 107 94 
198 388 446 89 105 136 
231 816 285 213 148 111 
293 628 428 156 154 160 
240 515 446 104 120 146 
181 314 455 161 162 169 
230 101 357 105 85 65 
137 641 497 159 116 90 
230 101 358 105 84 64 
265 782 259 137 118 103 
303 599 404 54 56 85 
231 100 359 103 83 63 
186 136 295 87 97 111 
283 246 450 133 138 150 
348 163 449 133 67 3 
230 103 359 105 85 65 
158 895 395 146 111 82 
173 395 326 70 98 137 
223 593 270 87 104 121 
196 983 412 86 72 63 
377 719 244 157 164 211 
146 652 350 79 101 122 
315 460 369 150 153 162 
188 933 321 64 48 31 
253 630 457 170 120 103 
344 314 435 138 148 164 
183 484 465 78 98 130 
230 103 361 104 85 66 
299 283 409 73 96 118 
230 103 362 104 85 67 
389 210 503 119 92 110 
234 418 285 93 110 129 
331 239 420 121 103 85 
235 689 455 149 159 176 
302 779 258 173 149 129 
286 187 426 46 63 83 
338 760 281 184 162 144 
276 428 439 156 162 173 
167 999 341 138 91 38 
175 672 326 160 158 165 
302 627 403 57 74 110 
240 476 445 150 147 151 
121 694 372 165 167 176 
156 203 324 99 88 103 
282 224 453 140 135 137 
261 768 401 94 92 95 
154 401 424 128 28 59 
270 741 412 179 159 156 
188 942 323 74 56 37 
269 426 437 62 87 139 
225 107 352 91 79 68 
143 936 358 95 75 59 
368 649 347 115 137 160 
292 365 448 70 108 138 
216 499 268 98 123 157 
136 730 460 111 134 162 
270 744 241 91 68 68 
367 652 351 93 120 146 
221 708 264 163 37 77 
297 504 279 41 77 160 
183 794 428 202 181 165 
162 829 352 179 145 107 
300 298 417 82 85 91 
236 547 453 170 159 155 
253 809 273 193 132 89 
283 701 427 145 126 133 
227 107 355 103 84 65 
290 192 426 67 79 95 
98 720 415 115 142 176 
278 261 416 111 97 102 
233 461 450 146 148 157 
276 177 442 50 65 83 
284 643 261 105 120 136 
358 168 499 126 36 29 
230 189 356 76 39 35 
280 130 447 158 78 10 
218 856 365 176 133 103 
225 109 354 90 81 73 
117 681 403 51 73 131 
305 480 281 161 167 180 
177 373 326 86 111 142 
229 195 346 44 31 30 
135 654 496 169 112 84 
196 556 307 134 147 165 
276 782 379 212 151 121 
330 610 363 162 117 102 
321 752 335 167 131 92 
278 799 343 221 161 132 
347 248 488 104 53 76 
314 760 340 98 118 141 
125 686 364 192 189 197 
205 533 317 123 127 138 
115 632 438 67 92 114 
298 589 334 93 90 91 
372 219 513 155 39 75 
376 667 234 48 87 118 
177 422 452 131 116 104 
174 247 394 72 59 72 
223 851 347 173 132 103 
335 283 471 113 123 138 
156 827 377 161 124 106 
339 189 435 101 92 87 
291 615 422 138 136 142 
234 120 460 136 104 83 
299 708 400 103 52 53 
374 270 496 165 164 171 
397 689 231 129 147 172 
168 785 341 51 47 48 
227 111 358 84 72 62 
339 266 455 88 105 124 
271 584 308 75 83 93 
223 175 310 76 72 75 
197 938 321 68 51 32 
218 75 467 99 81 62 
142 811 386 168 152 142 
287 791 338 210 151 119 
221 829 298 220 154 119 
176 332 333 141 82 99 
232 541 282 75 120 156 
393 703 236 228 232 247 
152 131 319 103 80 58 
376 718 272 178 200 228 
105 664 501 164 120 96 
155 951 341 111 85 53 
146 710 360 113 141 188 
253 232 455 70 106 134 
140 767 374 127 37 39 
234 221 367 66 26 27 
243 297 289 181 179 184 
147 220 353 112 93 119 
369 155 500 181 65 10 
201 713 449 122 137 156 
292 597 421 117 142 170 
217 487 311 110 119 134 
185 349 318 90 110 130 
213 454 303 167 166 174 
229 105 360 105 85 65 
169 835 347 183 139 107 
204 383 308 92 115 150 
263 786 386 206 149 121 
278 222 422 132 55 44 
263 737 428 138 68 72 
322 459 416 91 113 157 
180 635 342 56 80 100 
205 652 457 118 155 200 
285 611 330 57 76 96 
187 604 371 60 96 124 
282 221 454 138 133 132 
284 475 431 105 126 161 
321 424 437 134 48 6 
314 447 447 75 107 154 
146 817 391 191 167 148 
257 804 272 156 112 68 
321 765 311 186 168 157 
218 78 468 99 81 61 
266 726 240 122 16 40 
315 401 293 106 135 167 
178 212 437 78 59 80 
336 290 444 73 97 120 
203 899 441 144 109 85 
155 675 343 124 129 153 
197 539 324 106 116 131 
149 397 419 134 25 63 
208 976 338 90 68 51 
381 157 501 170 73 19 
179 185 381 61 78 97 
187 617 492 138 108 89 
217 72 470 101 84 66 
228 727 260 176 141 79 
96 723 420 118 128 168 
244 559 269 86 47 57 
282 164 440 86 64 73 
160 475 359 114 127 148 
198 981 415 103 86 71 
227 186 344 76 34 38 
351 217 454 106 30 26 
183 783 441 103 121 153 
305 347 334 84 110 138 
320 402 457 90 104 124 
250 604 462 158 100 101 
334 468 449 101 128 186 
292 338 374 85 94 105 
308 139 449 115 124 135 
175 768 333 117 107 100 
343 206 437 106 23 33 
329 416 420 172 63 7 
146 464 430 131 116 101 
290 598 430 133 149 170 
220 449 278 135 141 153 
176 393 453 151 79 26 
305 163 441 53 33 53 
186 906 314 57 46 40 
353 746 250 108 75 103 
230 586 266 137 143 154 
268 144 446 105 66 57 
281 315 376 104 108 115 
152 196 341 115 121 129 
314 507 350 100 113 160 
145 299 350 151 151 157 
307 520 314 149 156 170 
158 509 353 141 147 161 
319 682 237 61 75 102 
229 374 429 61 95 124 
197 242 416 127 66 76 
264 649 431 117 114 117 
328 433 395 88 113 137 
261 161 433 166 61 7 
104 678 407 90 120 147 
229 111 365 101 82 64 
124 641 498 132 103 75 
319 454 343 125 140 164 
283 483 429 158 160 168 
140 391 384 182 155 126 
162 827 352 130 99 72 
232 801 278 129 104 78 
166 400 428 143 120 96 
371 709 299 186 130 149 
158 180 298 133 115 102 
325 336 405 124 123 127 
144 812 382 199 177 160 
257 794 268 158 140 128 
272 596 313 69 81 94 
219 871 367 160 121 89 
277 793 356 216 154 127 
142 718 362 40 97 184 
328 142 455 122 122 124 
274 277 318 122 128 139 
243 745 445 200 76 102 
144 947 378 90 72 59 
219 123 477 123 105 88 
200 386 438 83 98 126 
135 662 356 73 101 128 
298 688 233 116 125 141 
186 592 299 119 137 158 
341 328 412 113 121 135 
230 896 385 133 100 72 
233 97 362 102 84 66 
196 881 327 119 88 66 
318 384 433 162 140 119 
229 155 415 109 54 7 
363 170 514 127 53 49 
232 99 361 103 84 65 
308 440 442 59 84 131 
321 459 318 150 157 172 
173 749 340 129 44 35 
308 700 234 157 162 174 
340 356 456 175 143 113 
201 285 296 115 128 147 
330 739 318 151 142 152 
101 637 480 97 82 67 
194 972 325 132 99 56 
175 281 329 130 128 132 
145 921 358 83 65 55 
237 218 399 73 42 31 
201 572 331 87 103 123 
219 679 261 118 78 89 
143 363 381 134 103 93 
250 831 304 236 181 153 
208 169 462 44 39 41 
246 376 443 146 151 161 
178 241 444 121 106 105 
183 988 385 97 75 59 
217 865 371 173 131 99 
233 99 365 102 84 66 
307 388 351 79 117 149 
378 160 501 176 69 10 
373 148 521 115 102 92 
316 496 369 64 89 142 
233 99 366 104 86 67 
311 351 397 97 101 108 
333 459 437 97 115 152 
228 885 354 135 104 80 
307 431 438 44 79 124 
315 295 417 63 71 80 
240 361 300 96 113 132 
217 489 468 108 116 136 
322 483 426 81 115 156 
263 552 297 77 99 149 
209 852 324 203 141 96 
209 517 315 53 78 112 
266 17 361 164 144 132 
232 101 365 102 85 67 
275 709 238 118 121 127 
264 636 442 141 119 138 
232 101 366 104 86 67 
302 468 284 108 118 131 
196 932 437 182 143 119 
143 487 430 74 105 145 
202 337 444 134 135 142 
263 277 405 77 83 91 
157 492 451 79 101 137 
156 388 364 82 116 148 
237 882 355 148 115 88 
245 603 290 78 120 154 
145 952 366 113 94 77 
146 463 429 130 115 100 
141 922 380 97 69 53 
316 133 456 141 67 7 
145 505 384 133 145 163 
198 232 405 131 97 75 
108 740 468 161 166 197 
202 159 292 105 102 109 
290 623 418 98 53 70 
178 929 322 70 50 33 
245 390 293 79 102 123 
268 27 380 168 153 147 
322 748 243 187 99 76 
171 912 322 74 61 47 
240 547 450 113 119 130 
238 894 362 142 111 84 
151 252 343 96 101 110 
292 559 422 77 94 123 
209 787 420 205 171 135 
363 285 480 163 168 180 
228 157 411 107 48 10 
157 201 327 118 104 102 
252 243 317 134 132 136 
180 605 316 124 133 147 
135 734 369 132 146 183 
264 593 445 84 123 154 
216 153 305 83 91 102 
226 99 382 85 71 57 
157 188 334 141 62 0 
321 477 324 143 154 171 
244 466 273 70 102 128 
224 101 382 84 68 51 
185 288 434 96 116 137 
305 525 311 99 132 163 
170 888 343 72 60 50 
193 897 302 116 89 58 
225 165 382 108 33 29 
248 372 299 72 100 127 
266 163 458 116 65 63 
208 458 311 163 163 173 
226 100 382 85 70 55 
148 412 421 173 148 123 
141 748 458 153 160 173 
361 713 309 162 77 80 
346 253 444 106 90 96 
319 347 400 98 108 120 
64 674 491 172 124 100 
239 264 461 154 150 153 
229 99 379 88 72 54 
210 740 301 129 112 98 
246 556 274 125 131 142 
196 266 425 103 105 111 
344 729 237 161 171 186 
329 739 308 106 88 113 
309 385 368 54 100 132 
239 214 314 121 118 118 
313 226 418 80 78 89 
191 801 415 203 166 130 
251 250 334 82 72 64 
223 509 468 89 106 146 
243 230 400 56 41 40 
184 500 335 79 104 137 
180 360 325 65 94 132 
195 596 354 74 89 106 
222 130 401 102 92 83 
135 626 455 65 82 100 
307 593 377 83 105 127 
315 283 418 51 68 83 
263 672 426 123 136 153 
164 626 456 74 77 80 
234 187 364 57 48 48 
343 138 462 165 74 24 
159 794 446 142 108 74 
243 159 465 97 69 93 
196 820 398 160 125 98 
168 608 417 71 83 97 
318 729 237 149 21 48 
383 681 300 167 185 214 
321 498 389 107 121 138 
353 223 491 43 37 69 
223 852 346 177 133 107 
312 590 397 77 113 170 
190 931 437 177 140 118 
187 299 313 129 129 140 
211 144 301 87 107 128 
159 763 351 119 88 47 
383 249 488 154 61 89 
378 235 490 141 93 88 
207 538 315 136 134 138 
269 795 369 218 158 131 
164 929 426 173 136 110 
223 814 387 200 134 114 
354 176 477 89 38 42 
318 384 300 75 103 141 
231 103 376 94 77 59 
147 671 345 45 61 86 
87 728 469 215 209 214 
318 649 389 54 66 82 
253 811 365 213 148 126 
275 305 354 90 103 117 
142 166 357 90 80 78 
299 658 427 103 108 135 
324 399 318 62 100 142 
222 943 331 84 64 52 
164 560 367 154 164 180 
232 898 373 112 81 65 
222 910 340 66 53 50 
153 770 354 121 82 79 
247 373 445 99 120 150 
287 294 299 131 92 52 
334 360 454 163 135 103 
243 392 292 72 92 112 
232 276 286 133 39 62 
222 321 429 136 115 94 
249 300 460 142 10 54 
316 631 269 113 123 136 
121 639 497 124 99 71 
226 175 364 42 53 67 
249 788 395 208 153 131 
169 413 332 116 131 150 
330 712 369 123 127 146 
313 579 391 82 116 156 
178 665 318 155 156 164 
230 270 459 136 139 147 
324 398 426 141 115 86 
275 740 239 141 82 57 
106 634 444 94 105 119 
248 238 326 122 119 121 
336 287 476 115 123 135 
310 579 407 49 92 130 
272 348 454 159 160 169 
320 644 255 97 109 122 
231 104 372 102 83 63 
191 907 314 81 65 49 
198 610 329 71 118 154 
181 965 423 152 116 101 
181 209 298 92 58 77 
192 522 481 94 117 158 
257 589 307 75 87 100 
353 652 370 85 120 151 
344 292 470 145 140 140 
300 636 268 147 148 154 
261 443 284 106 121 138 
330 382 467 150 129 109 
202 250 442 100 111 126 
329 187 435 51 34 53 
318 126 458 117 103 86 
219 812 287 169 121 85 
262 767 250 159 147 140 
172 340 343 161 118 48 
197 972 419 102 80 67 
229 108 370 101 82 63 
315 448 352 119 136 157 
224 140 361 91 99 108 
213 408 444 111 118 129 
129 802 422 223 179 119 
332 130 463 140 74 8 
229 110 368 99 82 64 
313 794 291 93 98 105 
239 446 441 92 102 140 
164 565 454 123 133 156 
326 695 393 181 91 38 
165 888 384 103 80 53 
169 831 383 164 139 116 
306 317 411 52 57 63 
378 661 258 111 116 140 
272 663 436 74 126 164 
93 642 484 95 81 67 
180 285 321 135 53 71 
183 620 448 49 53 58 
320 434 421 97 86 72 
258 620 291 69 109 141 
229 108 373 99 81 63 
248 213 415 55 44 54 
168 597 443 37 47 60 
201 146 388 78 69 63 
337 183 437 123 109 98 
124 794 431 201 27 56 
327 738 240 151 155 165 
257 36 376 140 111 80 
154 567 416 107 122 151 
228 265 459 158 155 159 
205 664 441 123 132 166 
241 460 442 159 154 156 
298 228 418 135 94 23 
228 110 375 94 76 56 
188 932 321 70 53 37 
266 588 308 53 75 94 
274 303 356 85 100 115 
269 526 279 109 134 174 
276 475 427 36 61 125 
341 308 488 146 140 141 
321 445 382 86 108 145 
317 615 387 145 98 96 
142 510 389 68 96 134 
143 629 492 117 95 72 
321 405 302 111 131 154 
353 264 500 144 149 160 
155 505 370 80 93 120 
62 657 479 118 94 67 
306 596 370 107 113 123 
191 576 308 149 154 167 
152 259 347 141 106 83 
163 643 348 71 78 88 
201 339 301 115 126 141 
298 754 240 62 69 102 
321 370 398 102 98 95 
339 320 441 163 20 83 
217 826 296 196 139 107 
307 342 432 73 70 70 
269 561 303 138 139 151 
132 662 490 172 114 91 
227 108 379 93 75 57 
318 433 422 108 98 88 
267 571 307 112 122 136 
150 241 359 103 73 76 
359 200 502 112 54 52 
370 221 513 152 36 76 
312 480 351 153 156 167 
187 797 321 145 135 131 
149 981 336 130 110 93 
264 276 343 122 120 123 
179 872 421 146 116 89 
155 226 332 107 85 104 
143 702 354 134 147 191 
170 132 334 82 79 80 
345 696 323 59 53 44 
167 199 371 71 77 87 
380 661 326 58 69 119 
206 651 295 77 96 145 
135 638 398 58 104 143 
312 352 398 97 101 108 
204 179 397 118 75 70 
182 792 432 128 113 103 
142 481 426 51 84 137 
323 497 444 151 167 190 
181 359 444 166 141 117 
144 633 449 50 80 106 
304 196 424 78 70 70 
203 780 303 105 87 68 
269 589 441 118 69 82 
313 473 289 102 128 159 
224 131 412 104 93 84 
229 105 379 91 72 51 
226 517 461 112 124 150 
176 705 442 91 121 153 
295 646 267 77 110 143 
102 761 447 151 151 199 
210 358 299 105 142 179 
347 236 450 102 41 61 
289 708 411 112 75 51 
206 566 275 79 153 211 
204 814 400 132 103 75 
270 454 290 98 111 124 
135 661 486 169 111 88 
330 409 466 95 108 124 
273 618 442 173 114 107 
225 266 457 155 152 157 
220 136 345 44 65 84 
162 658 332 155 105 114 
290 641 270 24 57 96 
142 763 456 157 163 181 
337 400 408 180 84 12 
220 879 384 140 104 72 
172 331 342 164 124 65 
256 256 330 125 125 128 
317 385 456 118 127 138 
229 109 376 93 75 55 
185 249 442 127 107 89 
318 606 384 94 85 79 
230 424 441 84 103 126 
320 369 439 148 28 76 
180 825 392 170 157 148 
217 882 422 149 111 88 
167 153 353 74 65 60 
203 560 480 155 165 183 
226 531 463 124 137 154 
284 408 299 183 186 196 
268 399 301 79 105 131 
191 218 293 164 160 164 
233 276 285 120 68 102 
227 659 451 138 144 193 
162 388 359 73 108 145 
226 328 436 93 56 20 
224 657 453 119 135 196 
163 677 452 121 127 159 
190 986 402 104 84 66 
192 257 300 129 142 159 
166 536 459 77 97 137 
394 685 236 144 157 174 
262 620 455 185 130 125 
354 156 475 101 30 31 
333 697 382 168 57 58 
311 504 361 154 163 178 
265 776 394 199 175 156 
276 376 450 59 102 151 
320 429 378 56 95 140 
311 576 349 129 127 130 
162 389 360 72 110 145 
375 699 299 129 162 196 
79 650 469 77 73 71 
273 408 444 74 99 154 
375 208 502 136 44 58 
201 840 317 191 142 107 
231 622 472 171 111 104 
225 181 332 50 48 52 
173 145 358 104 76 47 
262 642 438 151 113 107 
276 506 268 78 108 142 
324 477 333 133 146 163 
332 314 470 114 131 150 
188 737 318 123 47 74 
152 399 369 67 96 133 
392 690 227 100 136 205 
76 708 444 141 148 166 
340 741 240 85 86 115 
167 558 461 60 95 123 
194 860 422 115 92 68 
182 923 318 64 50 39 
149 352 400 145 22 69 
326 775 289 200 171 147 
292 427 297 127 139 160 
153 523 443 102 125 156 
239 575 264 95 119 142 
263 660 416 63 96 123 
159 585 411 99 119 154 
247 473 438 127 130 141 
155 644 491 177 120 96 
163 819 345 100 82 63 
291 796 318 203 151 116 
333 604 334 118 111 107 
120 645 500 141 107 80 
159 781 347 134 103 88 
144 421 386 133 75 61 
264 773 252 186 153 119 
229 476 269 143 148 161 
175 626 444 55 55 61 
322 434 387 57 80 111 
227 306 436 93 108 126 
245 270 286 86 102 122 
309 342 417 58 53 55 
196 586 469 71 112 144 
325 351 463 148 141 139 
174 629 429 35 52 65 
205 540 318 112 116 127 
189 130 297 113 96 83 
331 378 401 135 122 111 
326 405 462 106 111 135 
339 272 429 117 128 143 
282 688 432 70 70 75 
97 719 416 99 123 173 
232 98 376 91 74 55 
317 240 419 110 99 96 
232 99 376 91 74 56 
205 746 456 144 96 94 
333 472 449 121 151 189 
316 667 242 130 126 126 
200 468 470 106 125 152 
210 950 429 193 144 118 
224 113 355 103 96 91 
227 384 302 89 109 132 
148 820 404 176 156 141 
276 611 441 100 100 105 
333 353 474 180 173 174 
224 483 268 114 130 151 
196 701 441 79 91 116 
313 384 293 69 102 144 
320 188 431 126 62 42 
194 658 442 132 146 170 
219 288 439 93 110 133 
259 272 402 75 85 97 
173 397 328 77 107 141 
263 539 291 141 155 180 
324 481 391 127 141 159 
337 394 408 185 167 153 
222 681 260 124 131 141 
155 249 324 119 85 108 
354 173 477 82 38 52 
317 453 363 108 128 150 
325 322 449 115 106 102 
140 723 460 117 132 166 
226 113 359 104 96 90 
193 184 443 38 36 39 
271 750 404 147 116 78 
197 749 453 128 39 64 
192 620 367 62 73 85 
317 790 268 197 185 181 
224 116 355 107 93 81 
331 323 453 172 143 112 
157 482 449 82 106 138 
212 256 286 90 124 154 
224 116 356 108 96 87 
289 730 403 91 95 113 
267 670 439 110 108 128 
178 707 326 114 132 156 
164 223 313 189 100 79 
205 552 272 163 172 188 
174 666 327 150 150 158 
261 584 445 102 54 77 
222 913 421 195 144 119 
228 289 288 157 159 169 
192 627 342 102 105 111 
341 289 465 102 119 138 
197 642 462 69 71 114 
343 222 429 103 80 73 
288 351 289 82 121 165 
225 119 358 102 86 70 
149 904 356 90 68 55 
166 438 441 119 91 52 
120 715 401 96 109 128 
192 465 328 102 129 168 
281 256 447 95 136 170 
147 740 369 141 145 157 
143 796 366 174 132 86 
268 319 287 126 138 170 
241 239 378 81 61 64 
212 111 474 103 88 72 
195 174 420 46 46 55 
309 598 356 58 66 74 
388 665 278 145 156 171 
151 263 345 130 73 74 
354 237 439 88 83 89 
309 131 453 143 70 8 
245 802 274 180 156 133 
158 176 317 123 111 100 
187 219 435 74 37 47 
113 780 433 171 187 209 
270 799 359 218 157 130 
270 522 424 121 128 142 
226 117 361 104 93 84 
327 503 436 140 159 194 
149 386 415 136 19 60 
221 514 267 89 142 191 
176 427 452 136 119 102 
171 432 329 112 131 161 
264 629 450 157 116 99 
299 215 419 98 51 44 
265 127 450 122 75 51 
178 693 324 133 144 162 
351 201 441 125 73 59 
334 634 369 100 119 139 
335 430 441 120 106 97 
218 105 471 99 83 67 
339 669 386 107 102 102 
96 653 499 132 101 74 
282 322 355 135 107 80 
199 787 307 110 108 110 
308 206 432 75 72 78 
287 705 419 206 136 107 
162 501 348 102 120 151 
199 564 277 154 153 162 
272 474 279 80 104 126 
179 325 412 104 110 121 
156 893 382 118 95 69 
293 262 438 78 92 111 
332 704 377 156 63 53 
227 118 366 99 88 79 
354 681 354 113 147 179 
324 179 438 90 34 39 
329 458 397 159 163 174 
359 220 457 60 43 58 
326 317 438 106 90 91 
171 795 336 158 125 83 
252 398 293 82 103 125 
341 693 365 172 90 98 
228 112 364 97 81 65 
166 325 350 168 123 66 
226 659 451 140 151 199 
193 996 377 127 94 62 
373 195 509 86 66 98 
235 503 450 132 139 155 
249 638 450 70 49 62 
319 421 455 89 105 134 
227 687 260 140 139 143 
199 613 346 65 91 115 
196 400 447 73 87 125 
206 902 314 75 60 50 
128 756 392 128 147 169 
203 500 327 92 108 128 
197 238 416 125 76 82 
274 613 442 161 112 114 
209 662 287 125 146 172 
201 147 416 97 83 69 
276 805 332 223 162 129 
183 779 326 178 160 147 
345 293 492 122 142 165 
219 295 429 134 133 138 
348 246 430 108 95 86 
145 399 406 174 150 126 
235 342 299 48 96 160 
173 167 371 121 65 3 
297 290 420 73 76 87 
352 240 470 105 40 51 
175 902 427 188 145 124 
269 222 454 122 85 87 
355 341 470 187 155 121 
87 690 427 164 168 180 
165 975 396 125 105 85 
148 922 353 81 63 53 
314 537 336 95 111 130 
350 261 456 84 117 147 
156 449 368 105 123 150 
337 397 410 175 110 39 
210 263 447 88 114 139 
134 668 354 164 164 173 
164 600 412 92 103 130 
369 629 273 125 135 149 
228 870 348 163 127 98 
171 339 344 168 128 75 
309 543 358 136 147 165 
261 176 464 139 50 74 
297 383 291 91 125 177 
227 893 367 125 95 69 
366 174 519 133 46 47 
162 889 407 161 120 93 
123 784 408 86 83 102 
162 642 382 71 106 136 
127 747 390 77 85 122 
206 945 432 187 139 111 
306 369 396 101 100 102 
156 646 369 73 104 135 
222 862 339 180 137 106 
225 121 360 102 74 40 
316 553 385 117 138 163 
265 599 298 64 82 100 
164 825 346 177 145 109 
207 474 320 32 76 142 
218 951 332 89 67 51 
246 251 369 74 92 108 
227 656 453 132 151 203 
283 639 264 82 110 139 
296 789 317 196 141 107 
269 288 347 86 98 111 
322 453 387 60 79 108 
187 627 337 95 102 113 
167 546 353 140 140 147 
312 585 356 137 132 133 
154 907 390 155 112 88 
226 121 363 106 93 81 
221 933 330 75 59 49 
182 638 474 144 102 91 
271 739 413 171 143 142 
170 867 354 160 125 95 
305 351 291 76 110 139 
325 284 425 74 87 100 
181 238 436 128 88 78 
318 438 295 148 154 166 
150 297 395 85 60 67 
334 130 465 127 90 50 
144 910 372 144 92 75 
227 120 366 104 93 84 
308 597 400 156 169 189 
323 780 265 220 187 156 
217 853 326 193 143 108 
349 701 346 62 92 149 
181 923 318 62 47 36 
337 464 445 187 192 206 
308 357 434 55 60 68 
134 717 364 163 166 178 
346 689 323 115 109 121 
312 738 238 164 78 83 
121 781 452 189 202 223 
151 345 406 138 74 71 
248 258 379 107 103 103 
124 787 448 196 42 68 
385 699 267 147 172 201 
253 302 289 170 173 186 
195 253 406 112 32 59 
335 667 243 48 51 84 
260 491 278 68 98 146 
155 251 324 112 89 115 
213 314 426 108 108 113 
115 707 474 185 177 178 
312 517 416 102 127 174 
361 191 490 55 35 50 
254 309 459 154 44 87 
287 544 418 74 91 108 
308 516 309 139 152 170 
184 532 335 151 158 171 
258 697 260 121 129 140 
146 274 380 105 93 106 
173 284 332 167 125 71 
235 189 413 95 36 22 
146 411 415 174 149 124 
300 314 316 135 84 96 
251 217 416 64 45 51 
146 170 357 81 73 68 
231 137 424 106 88 72 
242 619 281 67 118 162 
316 280 418 54 69 83 
342 674 383 115 108 108 
312 602 374 75 73 75 
156 478 448 62 88 131 
323 420 307 75 114 154 
331 264 422 79 74 78 
91 642 475 89 78 68 
145 424 418 176 150 123 
260 806 363 214 152 127 
283 779 371 216 156 126 
149 308 348 172 172 180 
227 115 369 89 74 58 
324 329 456 146 137 133 
276 209 458 75 45 75 
341 338 460 140 78 71 
312 475 288 135 148 168 
150 432 373 65 95 135 
150 304 366 99 35 55 
317 752 348 192 180 176 
270 687 255 128 125 126 
230 185 355 74 44 36 
325 777 261 125 114 107 
232 162 414 90 84 80 
237 774 420 152 138 128 
324 437 319 87 118 154 
242 820 365 210 141 122 
312 555 340 90 104 122 
261 683 267 100 113 129 
161 824 399 208 192 184 
85 672 429 166 168 180 
321 716 236 143 158 178 
299 461 432 58 70 91 
178 543 472 112 122 139 
227 118 368 105 95 86 
295 589 329 98 96 96 
168 732 445 118 151 183 
191 434 320 80 118 159 
185 810 320 89 110 130 
303 318 307 130 83 96 
227 119 370 93 84 77 
193 381 455 126 110 98 
135 181 344 139 111 80 
289 160 441 81 65 79 
357 243 490 62 56 78 
230 910 404 168 119 89 
342 261 476 117 92 76 
337 185 439 70 40 40 
357 630 318 124 100 72 
170 237 387 47 44 62 
319 477 417 61 77 134 
324 419 315 58 97 149 
328 713 375 131 144 162 
178 259 398 108 16 48 
352 201 482 79 42 73 
313 291 408 68 83 97 
221 162 464 44 38 44 
227 119 375 89 76 62 
237 554 275 74 110 143 
155 619 474 88 83 81 
193 628 292 142 152 169 
230 192 397 80 36 27 
241 311 292 148 156 170 
341 284 486 131 116 104 
315 391 294 107 121 137 
228 113 371 98 79 60 
195 394 314 97 116 142 
318 472 302 109 132 158 
330 708 376 143 106 106 
321 412 302 114 132 153 
139 812 419 102 122 141 
145 309 353 164 163 168 
351 632 348 123 130 142 
251 510 438 51 80 119 
314 430 344 114 137 162 
