ply
format ascii 1.0
comment Created by CloudCompare v2.11.1 (Anoia)
comment Created 2/28/22 9:39 PM
obj_info Generated by CloudCompare!
element vertex 2010
property float x
property float y
property float z
property uchar red
property uchar green
property uchar blue
end_header
312 400 440 90 105 129 
254 489 270 63 93 134 
304 317 306 130 86 97 
265 779 386 195 146 118 
164 639 394 54 91 119 
324 255 421 116 115 120 
147 244 346 97 96 100 
213 497 313 89 100 115 
299 612 289 83 116 143 
78 660 500 127 98 72 
246 215 295 102 109 119 
350 196 465 43 51 91 
137 654 502 163 111 83 
238 762 428 140 138 153 
123 682 490 96 87 114 
237 64 354 126 103 80 
159 986 327 128 94 63 
211 603 475 95 85 77 
219 708 450 124 140 159 
142 504 423 99 121 160 
286 265 441 72 110 142 
192 340 449 109 124 141 
287 132 438 115 69 39 
225 177 326 53 43 50 
172 609 428 83 95 113 
289 442 293 77 100 124 
238 64 354 128 105 83 
362 165 499 132 100 99 
220 710 262 172 27 46 
262 175 463 146 29 68 
267 796 261 132 113 94 
193 175 293 113 113 118 
241 702 243 136 131 130 
278 772 383 146 138 134 
239 65 357 133 108 85 
334 271 445 117 120 128 
223 959 342 117 89 60 
326 306 433 87 98 115 
105 668 418 88 116 149 
210 484 476 111 124 155 
140 376 388 145 18 57 
236 68 353 128 104 78 
323 726 345 122 114 108 
238 225 393 70 39 32 
180 684 316 155 157 165 
172 787 448 173 133 123 
220 156 347 70 66 67 
305 768 327 105 76 54 
246 233 346 111 108 108 
281 627 279 120 124 132 
236 71 355 132 107 84 
183 627 294 123 37 94 
358 149 463 123 64 0 
174 612 402 103 104 110 
271 541 290 181 178 183 
193 165 448 83 38 59 
201 503 477 149 161 178 
148 386 406 138 50 74 
312 734 378 168 144 122 
186 238 434 118 30 58 
136 762 465 175 179 192 
147 986 341 140 111 82 
189 584 287 90 115 138 
210 484 475 113 125 156 
232 184 406 93 36 16 
140 153 361 95 52 24 
147 285 365 80 118 148 
238 71 358 126 97 74 
225 391 284 78 104 128 
274 510 277 145 167 196 
238 330 442 148 118 80 
340 269 481 137 59 3 
171 855 349 160 126 94 
303 212 414 87 46 55 
333 137 445 136 69 7 
178 789 445 98 91 102 
331 406 389 117 105 96 
201 768 298 134 121 112 
268 535 289 126 145 184 
355 715 289 141 111 129 
175 619 490 113 94 75 
339 376 415 150 146 147 
149 133 345 86 71 56 
158 921 328 95 77 62 
215 853 325 185 138 103 
205 131 380 87 70 52 
260 734 434 187 26 49 
245 506 269 39 77 122 
333 262 419 70 59 64 
343 623 251 63 108 143 
327 746 290 55 54 59 
366 238 483 132 71 76 
292 170 431 87 43 54 
165 693 468 78 113 168 
175 640 347 62 81 99 
328 733 325 181 166 158 
256 480 268 90 118 170 
223 878 359 146 108 77 
255 264 394 103 100 100 
190 501 467 133 132 138 
178 353 334 105 119 140 
138 684 372 158 163 177 
310 767 321 144 133 126 
222 964 392 123 100 81 
167 313 404 86 100 115 
172 613 314 143 148 160 
154 171 340 104 90 84 
152 763 359 142 25 55 
186 613 485 105 90 77 
274 550 292 139 151 177 
262 143 444 117 73 75 
345 241 442 43 72 93 
269 829 290 253 192 168 
304 153 436 40 59 76 
263 233 406 85 58 66 
298 269 433 62 94 120 
374 649 243 108 129 155 
343 258 491 131 76 103 
271 196 424 56 52 54 
149 774 362 111 103 97 
167 462 448 114 100 87 
160 977 379 126 101 77 
201 924 431 137 102 75 
298 600 406 106 139 172 
210 813 397 170 122 103 
370 665 222 135 141 151 
333 242 414 113 96 78 
180 619 455 46 47 50 
262 739 426 204 171 131 
236 73 356 130 106 80 
162 638 495 169 115 92 
237 72 357 128 102 78 
218 74 472 103 85 67 
314 530 424 71 108 166 
310 661 237 95 108 123 
183 841 326 166 124 94 
178 421 323 87 118 164 
346 215 475 81 34 65 
160 166 310 127 96 57 
181 865 417 136 108 80 
306 306 422 78 81 88 
253 261 394 105 104 105 
146 301 354 170 169 177 
276 591 310 84 86 89 
202 207 291 158 154 156 
152 641 382 66 112 147 
169 928 430 119 88 78 
274 264 295 107 119 132 
284 596 425 142 140 146 
360 727 235 201 210 227 
239 74 359 132 105 81 
371 167 530 159 73 9 
189 294 442 98 123 147 
99 677 505 167 124 98 
242 407 425 39 67 116 
313 472 300 117 143 171 
167 954 423 201 154 133 
253 268 385 109 106 107 
182 317 447 153 152 156 
169 629 429 33 66 100 
154 172 321 113 99 87 
363 727 242 178 208 241 
238 75 360 131 104 80 
345 340 406 148 138 134 
239 75 360 131 104 80 
224 423 446 95 112 131 
180 943 324 86 66 41 
236 79 360 120 97 74 
346 655 354 142 168 198 
145 524 387 121 130 162 
299 277 424 66 83 98 
187 729 316 134 39 49 
317 487 324 185 181 185 
148 371 403 169 149 131 
220 503 283 86 113 151 
266 159 444 112 86 70 
202 846 319 216 156 118 
178 158 299 144 61 67 
357 183 508 94 49 53 
175 230 388 68 45 53 
325 714 373 174 67 57 
317 310 423 93 76 68 
150 415 372 93 111 138 
314 416 342 75 103 147 
245 328 299 63 95 121 
169 281 335 138 108 82 
342 247 472 115 32 69 
315 430 343 154 159 169 
362 180 459 94 78 94 
127 711 410 54 79 140 
173 353 415 139 118 96 
178 390 428 124 24 59 
358 148 500 112 95 75 
148 149 351 51 39 22 
147 249 350 99 103 111 
222 141 351 72 56 68 
238 914 365 173 112 84 
203 893 434 165 123 101 
239 227 358 75 36 43 
227 967 360 83 68 55 
315 575 392 89 125 159 
279 812 309 197 146 115 
299 612 290 79 111 137 
345 696 222 107 122 140 
361 141 495 121 98 83 
127 627 445 61 78 94 
161 588 412 115 131 158 
174 444 445 124 109 95 
147 449 397 100 99 113 
234 266 288 94 134 167 
307 339 390 96 97 101 
115 738 475 105 126 181 
178 365 335 106 122 143 
311 345 432 74 69 69 
229 72 383 89 72 55 
320 530 375 114 132 168 
346 305 429 152 155 165 
340 289 460 127 133 144 
201 954 429 199 147 122 
333 338 468 168 159 157 
309 564 363 85 108 131 
105 719 424 84 112 160 
286 818 300 212 158 126 
287 599 425 119 131 148 
235 871 350 179 140 108 
186 246 315 115 127 144 
255 265 285 116 140 166 
359 254 479 90 94 105 
335 374 444 125 51 60 
178 792 442 132 151 176 
318 706 226 103 116 137 
226 545 470 140 150 168 
206 700 301 144 155 171 
214 184 462 27 56 102 
291 236 441 81 96 113 
246 800 381 214 151 129 
167 616 477 78 73 71 
156 253 338 56 95 131 
202 551 262 170 170 178 
315 417 418 112 56 5 
219 837 368 170 122 96 
228 128 425 131 91 67 
192 446 321 119 137 160 
104 692 420 150 158 176 
286 184 423 91 64 58 
251 171 461 129 56 48 
166 953 335 108 76 47 
320 360 450 123 124 130 
317 314 411 98 81 69 
290 329 358 135 116 97 
181 465 332 73 98 149 
171 472 453 58 86 124 
187 432 324 77 105 156 
332 400 460 139 118 102 
158 826 385 196 176 163 
314 404 342 106 127 152 
183 912 428 135 101 88 
212 313 302 159 111 45 
147 346 393 177 152 127 
347 277 439 156 159 168 
154 478 371 129 134 143 
302 516 308 125 142 164 
316 446 341 143 151 166 
164 475 450 58 86 128 
273 23 392 118 80 61 
240 307 297 137 149 168 
224 866 346 170 131 101 
200 141 315 113 92 80 
342 378 408 202 176 152 
235 219 373 90 37 19 
296 479 427 164 165 174 
295 296 301 154 128 98 
292 490 276 150 151 156 
191 356 433 118 62 79 
139 222 374 131 60 86 
171 390 427 116 19 48 
177 514 464 79 108 147 
322 149 438 34 67 96 
203 198 408 95 76 79 
142 177 347 120 104 90 
186 325 445 101 119 139 
237 65 383 90 73 55 
306 140 436 87 74 80 
242 215 323 89 56 56 
169 530 459 130 136 147 
289 295 318 114 116 121 
205 627 481 178 121 107 
152 190 342 130 61 0 
158 693 472 121 127 170 
267 578 302 129 127 131 
266 333 298 121 133 157 
83 676 504 167 118 97 
165 479 452 75 103 132 
247 130 439 180 87 30 
212 529 284 94 114 136 
152 818 372 125 105 92 
215 805 280 139 103 66 
143 350 383 157 141 129 
331 319 434 165 136 103 
312 584 369 83 118 149 
234 949 378 86 70 58 
209 524 267 109 135 162 
78 652 490 87 75 64 
227 414 440 128 129 136 
296 296 307 134 98 72 
327 412 432 135 102 53 
326 428 381 55 77 111 
158 955 338 89 68 49 
316 780 254 195 168 144 
256 590 304 62 77 90 
191 295 430 107 125 145 
152 900 365 94 64 42 
120 706 480 191 183 184 
238 665 445 162 164 174 
358 185 511 96 55 59 
138 709 395 137 140 155 
333 696 367 161 63 65 
239 70 381 93 75 57 
129 753 468 118 129 177 
193 572 278 142 139 140 
174 602 394 137 131 133 
154 291 352 121 124 135 
288 624 276 91 114 137 
83 667 505 156 115 90 
255 814 347 216 151 129 
242 562 273 102 111 124 
146 798 366 160 146 136 
324 519 396 165 174 192 
168 558 454 149 153 166 
316 517 427 141 162 188 
331 385 418 168 140 109 
355 695 310 119 160 196 
143 196 355 111 80 93 
381 705 234 86 120 199 
196 613 329 73 115 148 
276 515 282 144 162 189 
210 133 315 105 97 92 
177 807 327 148 132 120 
214 299 301 174 138 99 
204 131 417 111 74 15 
236 940 391 106 84 68 
159 579 395 119 138 161 
148 680 478 135 151 179 
236 759 260 137 123 112 
257 278 386 90 94 101 
235 74 382 90 72 54 
229 607 473 135 107 87 
321 379 388 81 79 80 
263 788 378 209 150 124 
183 394 456 153 67 10 
165 460 349 90 111 147 
329 233 423 64 83 100 
165 940 426 173 134 107 
232 79 381 90 73 55 
160 766 350 112 75 61 
353 231 425 71 90 108 
203 772 438 160 169 183 
359 717 278 75 122 177 
314 748 357 150 144 144 
299 680 404 163 119 73 
215 333 302 126 139 161 
171 838 343 179 134 105 
206 161 462 104 36 36 
210 404 442 50 73 112 
228 773 423 169 152 144 
235 79 380 92 74 55 
214 835 374 173 122 99 
266 246 310 98 111 127 
372 649 247 151 159 174 
160 286 350 123 126 137 
249 741 444 200 51 73 
217 415 445 77 95 121 
367 267 488 165 166 175 
144 807 380 139 118 98 
188 200 390 90 78 86 
269 653 430 130 130 135 
217 622 257 165 165 174 
347 236 436 79 60 82 
161 531 354 81 102 154 
268 278 347 84 94 105 
237 503 264 71 96 185 
382 667 262 116 142 169 
171 466 335 159 161 171 
146 202 356 135 78 76 
163 632 326 74 79 97 
327 632 248 36 61 81 
169 869 368 150 117 87 
151 290 382 75 109 138 
244 374 433 50 91 124 
174 611 310 141 144 153 
275 634 261 55 75 91 
237 928 367 159 98 78 
355 623 265 85 110 134 
204 167 411 98 81 67 
262 496 424 108 124 145 
284 205 437 69 56 62 
357 152 498 147 61 6 
312 335 405 66 55 52 
239 76 376 96 78 60 
342 337 402 101 120 141 
314 578 383 75 109 154 
240 266 287 96 133 168 
292 252 440 129 129 134 
260 801 364 212 151 129 
193 810 406 160 142 132 
238 77 379 93 76 59 
208 368 441 98 108 138 
211 518 268 89 129 162 
363 639 322 12 59 119 
270 662 435 112 99 106 
373 659 325 98 128 162 
375 712 239 151 177 217 
141 479 413 142 152 173 
364 725 245 178 207 240 
286 136 435 128 104 93 
225 949 339 114 93 76 
236 76 380 91 74 54 
207 588 266 121 145 171 
178 215 440 58 64 92 
314 353 325 50 88 132 
177 173 429 81 31 41 
314 622 259 88 112 133 
215 680 253 191 190 197 
234 347 296 106 121 138 
271 298 373 76 92 109 
213 576 259 156 156 164 
142 510 411 128 135 149 
252 786 392 198 153 121 
272 567 427 103 123 145 
162 581 427 125 138 158 
205 544 284 80 107 133 
359 283 487 133 144 162 
315 440 420 74 71 73 
231 817 375 204 135 117 
170 707 459 142 162 188 
182 341 459 191 164 137 
319 668 392 189 155 118 
288 664 423 94 64 58 
208 625 272 148 149 159 
210 484 480 120 141 173 
141 495 418 150 158 174 
189 294 444 73 113 144 
299 486 281 113 128 150 
224 140 388 117 90 54 
187 362 447 174 146 116 
136 703 395 96 111 162 
199 202 293 148 130 126 
208 518 262 107 137 166 
330 671 383 117 98 84 
377 683 265 78 104 172 
331 213 428 108 31 29 
337 447 430 122 136 153 
162 936 424 174 136 109 
220 159 323 102 61 49 
212 407 443 83 97 119 
169 564 362 122 130 146 
165 932 326 83 64 45 
185 659 298 134 154 181 
146 258 390 59 101 133 
184 167 382 127 58 6 
297 510 422 178 179 187 
315 605 285 70 109 139 
143 298 363 154 152 157 
296 772 246 201 180 160 
230 428 268 141 139 142 
207 559 477 124 138 168 
174 934 325 76 60 43 
353 292 486 175 175 184 
168 639 335 100 107 118 
231 85 354 111 91 69 
317 659 392 89 52 55 
336 345 469 166 160 161 
214 426 295 99 121 150 
334 155 439 30 47 64 
221 451 279 122 137 157 
194 999 330 133 100 62 
174 400 326 102 121 146 
347 692 340 178 79 81 
314 490 320 92 115 164 
318 211 416 94 79 76 
161 270 394 60 73 89 
139 717 376 102 120 166 
177 716 332 125 143 164 
253 556 443 162 154 154 
327 228 414 69 102 129 
179 723 450 137 157 180 
272 269 319 101 114 129 
185 396 452 156 77 9 
335 655 236 93 105 119 
352 261 475 78 94 109 
256 765 406 218 178 133 
169 872 354 152 118 87 
225 962 392 113 85 69 
190 632 287 181 180 188 
312 228 419 55 79 98 
166 573 451 101 121 146 
209 458 466 96 106 142 
216 217 288 152 85 35 
274 450 427 53 79 138 
240 315 448 157 115 56 
175 303 333 123 101 106 
307 581 342 105 103 105 
273 517 414 105 110 128 
316 368 300 82 114 147 
231 90 354 106 88 70 
169 423 343 118 132 149 
168 985 370 105 78 53 
159 807 347 181 155 132 
144 317 373 145 150 160 
180 304 329 135 95 107 
309 368 431 46 69 92 
329 615 261 7 71 115 
250 229 318 113 110 112 
273 300 371 63 65 70 
150 241 364 86 85 102 
229 94 353 100 82 61 
251 346 296 64 92 122 
210 357 436 111 113 134 
177 550 466 102 116 139 
147 191 348 137 61 35 
294 333 288 104 124 156 
321 712 381 182 73 24 
161 578 390 121 140 164 
298 155 425 78 76 75 
273 313 289 132 140 163 
147 652 495 174 114 91 
295 621 406 146 139 138 
273 435 431 71 100 146 
189 667 448 25 54 95 
203 440 472 94 121 163 
170 490 339 154 159 171 
204 380 442 81 99 141 
317 364 304 57 100 137 
200 175 454 126 50 33 
232 83 355 114 93 70 
235 214 361 91 38 18 
367 646 326 105 127 148 
346 635 241 83 107 129 
313 461 346 110 129 157 
232 82 356 116 94 71 
353 640 236 56 94 128 
181 397 432 157 131 105 
171 1001 369 140 105 74 
311 510 353 123 127 158 
247 808 269 186 128 85 
144 287 359 73 108 137 
137 683 379 140 148 165 
173 901 427 187 144 123 
229 954 346 98 72 49 
276 158 429 116 78 39 
174 188 307 99 75 93 
206 746 453 92 110 136 
258 330 299 106 119 137 
347 145 444 129 117 105 
320 410 381 58 76 93 
382 680 257 117 128 175 
307 387 430 54 70 91 
354 171 457 115 29 25 
364 641 281 90 78 66 
333 684 380 182 156 130 
244 642 451 176 124 113 
169 492 340 106 126 154 
201 791 293 130 105 84 
189 158 426 44 52 59 
286 228 447 142 136 138 
232 85 356 113 93 72 
140 712 392 150 151 159 
199 868 328 164 119 80 
233 85 356 113 93 71 
276 800 327 221 163 129 
226 134 473 170 81 10 
182 374 316 78 104 131 
178 157 299 140 61 64 
256 277 383 80 92 106 
351 672 328 118 159 196 
308 483 429 107 127 159 
190 292 439 78 114 145 
152 404 418 174 148 122 
234 84 358 108 89 68 
339 282 476 112 117 126 
235 84 359 104 86 67 
303 763 346 150 117 98 
206 408 308 140 148 163 
269 168 450 116 69 67 
192 282 429 127 131 141 
324 677 388 139 116 108 
246 251 388 72 53 45 
216 519 281 83 107 147 
159 708 465 149 160 180 
325 702 227 99 117 139 
159 529 357 117 131 151 
213 974 394 111 87 69 
221 493 295 113 122 146 
235 86 360 100 83 65 
261 778 390 205 182 165 
307 600 358 110 107 110 
178 174 434 97 40 40 
230 422 441 150 147 149 
222 486 298 140 145 155 
192 631 346 98 101 107 
67 678 469 136 148 165 
196 180 422 71 38 45 
207 159 397 105 85 76 
330 329 445 169 139 106 
321 741 302 99 89 82 
247 317 452 151 84 107 
151 194 330 106 104 106 
258 791 261 174 137 109 
160 430 434 148 123 95 
296 339 362 126 108 93 
150 366 370 117 120 129 
191 596 357 95 114 135 
298 624 268 80 107 132 
198 257 411 95 82 101 
262 275 362 111 112 117 
286 282 310 105 98 94 
328 152 428 82 79 76 
154 415 369 105 117 141 
179 881 329 117 88 66 
327 380 439 124 52 51 
343 228 466 86 41 45 
303 396 293 110 131 164 
148 453 389 106 124 147 
313 596 347 51 63 75 
239 82 364 105 87 69 
239 82 365 106 87 68 
314 436 293 125 141 163 
218 806 398 184 135 112 
233 534 460 147 151 160 
169 604 425 76 87 123 
99 740 434 115 125 172 
261 249 292 88 117 146 
305 529 321 83 108 132 
153 139 344 51 58 67 
264 288 392 107 105 106 
178 978 320 130 97 56 
160 823 354 113 123 136 
208 825 295 192 138 105 
260 439 424 105 122 146 
233 210 393 71 43 50 
153 139 327 78 86 94 
358 207 460 98 22 51 
175 588 458 62 104 135 
152 486 441 100 124 152 
208 521 302 86 112 142 
141 461 408 104 121 149 
337 386 415 173 145 117 
114 694 494 101 120 162 
336 639 356 54 81 118 
237 87 362 96 80 64 
300 623 399 83 76 101 
253 249 352 69 88 107 
225 955 402 137 107 87 
314 728 379 194 175 163 
167 894 422 154 115 90 
216 760 443 168 117 139 
148 541 429 85 93 147 
249 229 320 115 108 103 
234 309 434 133 116 99 
228 962 373 92 73 60 
339 244 458 120 122 128 
179 461 454 56 87 128 
204 597 272 127 139 159 
326 621 339 120 85 66 
324 360 392 121 111 102 
186 539 473 178 172 173 
353 263 420 153 151 152 
379 664 231 185 186 194 
228 964 351 110 85 60 
374 228 497 105 91 118 
176 984 392 140 117 96 
177 264 327 150 147 150 
353 297 465 108 125 145 
221 237 286 137 149 169 
196 848 386 168 127 98 
338 295 406 142 133 131 
232 91 355 105 87 68 
255 821 314 214 157 128 
144 911 352 111 92 72 
222 169 337 99 54 38 
355 192 510 96 83 98 
106 693 418 133 149 173 
108 683 415 143 154 173 
250 830 287 246 181 142 
153 158 357 82 46 46 
159 937 420 167 131 105 
82 678 503 165 118 95 
272 585 305 76 81 88 
241 208 314 101 51 68 
338 756 247 205 172 134 
321 759 289 156 129 101 
175 959 328 78 66 54 
144 271 356 131 62 81 
354 154 488 149 61 7 
311 417 294 123 141 162 
363 640 264 165 165 173 
304 673 408 150 101 39 
105 641 495 98 82 66 
151 460 431 122 109 100 
136 797 444 125 60 124 
195 178 444 41 53 77 
239 428 270 77 105 130 
291 682 424 124 128 137 
278 731 406 149 104 106 
352 291 423 82 108 131 
308 623 262 109 119 132 
339 403 405 189 84 7 
218 975 387 109 91 77 
168 621 490 117 97 76 
220 459 281 50 78 132 
246 363 439 69 90 130 
67 672 494 173 120 104 
157 573 393 140 143 154 
324 211 416 68 87 105 
233 94 357 102 84 66 
320 472 325 85 110 159 
245 327 450 143 66 98 
153 550 376 94 119 158 
331 352 464 169 163 164 
191 260 314 116 133 155 
143 276 349 89 104 115 
267 693 446 136 151 170 
205 864 426 154 121 99 
197 615 490 144 111 93 
244 562 453 112 68 79 
197 213 433 92 22 31 
160 829 363 122 107 96 
223 847 337 187 139 112 
314 355 390 96 99 104 
266 653 436 63 65 71 
150 297 383 75 112 142 
356 264 476 83 104 123 
366 718 260 144 180 217 
332 651 369 89 108 141 
270 173 463 135 48 68 
265 317 294 174 172 178 
360 161 458 105 85 74 
144 906 371 153 99 82 
257 763 407 208 177 146 
201 234 411 129 82 70 
132 192 365 114 129 146 
175 613 405 103 104 109 
186 224 441 129 104 85 
191 132 367 94 78 61 
264 13 362 157 136 122 
95 722 483 100 117 193 
304 356 369 102 107 115 
170 790 447 152 38 63 
246 254 381 94 85 76 
385 158 519 143 112 91 
244 202 458 43 47 78 
313 757 330 185 171 165 
374 232 496 116 76 118 
176 644 371 52 63 76 
289 224 431 96 86 89 
157 749 357 65 44 59 
307 605 305 103 89 76 
235 93 364 100 83 67 
333 361 445 153 125 94 
336 223 417 76 85 95 
256 478 425 118 127 140 
222 880 417 158 122 92 
212 923 321 100 77 52 
250 569 300 139 136 139 
283 753 391 186 168 155 
346 142 444 163 114 93 
189 339 423 129 1 51 
323 521 424 98 122 188 
221 753 273 135 121 112 
284 270 302 144 143 146 
184 602 293 158 159 168 
185 598 367 57 97 130 
145 487 406 108 124 145 
350 211 472 94 58 70 
224 911 351 77 60 50 
145 795 450 79 47 130 
271 272 324 99 109 122 
279 805 313 198 149 112 
234 823 284 239 173 130 
213 866 396 137 108 74 
152 255 370 125 91 82 
344 225 454 80 34 32 
134 629 475 79 75 73 
353 175 472 88 35 33 
294 248 424 79 79 87 
176 680 326 101 126 163 
177 227 319 115 71 78 
241 242 286 94 112 131 
237 90 365 101 84 66 
354 216 479 86 58 78 
208 518 261 98 131 161 
270 597 309 75 74 75 
325 715 370 160 120 75 
297 631 262 42 83 132 
237 91 367 102 84 66 
238 88 366 103 85 68 
238 88 367 103 85 68 
166 453 444 113 102 91 
316 282 398 124 131 142 
271 250 404 91 59 61 
251 219 456 104 56 76 
163 900 419 166 124 101 
133 801 423 191 60 54 
220 785 275 149 138 131 
276 246 406 90 57 62 
169 327 346 147 78 82 
273 345 298 76 121 161 
204 213 291 120 135 152 
224 827 367 171 108 89 
286 594 320 84 80 79 
328 606 288 61 90 114 
314 353 306 69 103 135 
231 832 347 195 144 119 
185 259 437 128 124 124 
156 569 407 169 170 179 
135 626 488 93 80 68 
208 519 261 104 134 162 
270 755 236 160 138 120 
314 408 294 117 136 158 
295 142 437 75 62 51 
309 319 431 69 69 71 
215 898 334 85 66 54 
190 339 439 106 121 138 
297 327 391 70 86 103 
210 504 313 60 86 109 
168 500 457 69 95 130 
227 82 382 93 75 58 
233 427 268 121 129 141 
157 576 401 140 150 165 
137 648 395 75 102 139 
332 303 404 97 111 127 
205 596 272 114 133 158 
255 714 451 129 159 189 
212 378 302 128 136 150 
234 396 425 111 123 139 
155 913 338 85 69 56 
149 654 471 80 80 101 
173 612 313 136 142 154 
148 633 415 48 99 143 
114 774 439 134 166 197 
183 984 403 116 92 72 
178 192 437 95 56 78 
353 701 307 104 137 167 
198 298 434 73 111 142 
355 631 300 115 95 73 
226 87 381 92 74 56 
151 722 466 78 97 166 
227 87 381 93 76 57 
193 568 304 142 151 166 
274 312 288 119 131 161 
311 699 390 88 67 53 
296 299 298 141 117 95 
297 768 340 176 129 97 
339 693 315 172 52 63 
188 246 313 126 140 158 
228 83 382 93 76 58 
249 231 324 73 80 89 
185 425 448 144 125 105 
181 297 405 105 94 96 
173 256 391 95 63 71 
141 131 350 91 82 75 
325 389 388 89 94 101 
291 237 428 67 79 93 
199 191 393 93 90 92 
248 677 450 151 161 177 
282 162 428 114 57 17 
344 232 494 19 44 90 
169 601 404 88 111 136 
373 677 312 168 190 217 
307 578 408 173 182 198 
321 275 405 119 122 127 
166 433 358 58 81 115 
228 84 382 93 75 57 
216 430 288 152 159 173 
148 240 347 107 82 84 
255 775 251 179 149 118 
191 768 315 126 114 105 
230 84 381 95 76 58 
355 685 218 78 97 116 
194 601 356 61 100 131 
222 441 268 112 128 150 
223 152 400 114 52 7 
175 812 415 168 140 110 
190 375 457 138 120 103 
338 143 445 112 95 74 
155 683 475 116 130 168 
234 816 374 206 137 119 
149 297 388 73 113 147 
214 589 258 108 139 173 
187 643 363 46 61 76 
342 426 436 118 129 147 
180 616 463 50 49 50 
164 537 452 58 82 148 
225 90 381 91 74 56 
196 796 418 179 156 136 
245 714 455 137 157 180 
161 884 396 144 112 82 
329 475 386 144 153 168 
213 658 447 126 134 181 
181 258 322 115 128 143 
223 890 369 142 108 77 
273 191 460 44 74 106 
265 770 394 161 154 154 
311 543 353 96 115 157 
329 481 399 106 129 178 
296 279 403 69 96 120 
218 213 461 87 46 44 
206 529 259 111 131 156 
170 784 449 173 141 109 
255 662 445 86 98 134 
162 525 352 154 163 177 
322 439 316 119 140 162 
177 782 449 146 116 104 
337 405 397 173 76 11 
320 420 364 120 135 154 
172 516 342 91 108 148 
163 586 424 116 126 149 
226 95 381 91 76 63 
306 577 339 119 116 118 
187 142 454 82 28 36 
160 933 329 83 62 42 
270 702 232 114 123 134 
250 412 426 119 124 137 
218 723 275 126 30 61 
265 336 299 129 139 157 
229 89 380 90 72 57 
301 286 427 80 86 95 
251 255 395 97 91 86 
363 220 489 98 64 63 
172 522 343 101 117 136 
292 309 291 142 111 82 
221 164 312 92 60 50 
210 985 350 133 106 76 
230 89 380 89 71 57 
218 862 366 168 127 96 
198 598 342 97 28 53 
266 189 459 52 34 61 
244 303 452 144 117 96 
328 487 391 155 168 188 
245 672 448 87 113 157 
283 799 314 207 152 114 
298 615 281 91 113 135 
216 850 321 201 146 108 
214 699 447 135 150 169 
205 621 486 181 129 116 
153 706 470 116 129 180 
300 802 270 211 163 119 
214 367 428 71 103 130 
347 208 428 101 25 36 
232 804 388 204 144 120 
325 385 420 144 117 85 
284 288 319 104 24 36 
324 440 414 105 93 80 
261 189 419 45 58 83 
337 178 426 131 108 89 
228 94 381 92 78 64 
147 629 493 116 95 73 
336 430 431 117 110 108 
282 601 429 87 122 150 
151 387 411 139 29 66 
230 92 380 86 70 53 
186 989 391 92 72 58 
339 373 444 129 85 66 
186 938 321 71 57 42 
74 703 474 142 166 194 
254 499 437 109 124 151 
233 950 380 86 65 53 
178 961 322 87 73 60 
146 167 345 123 110 99 
196 833 313 185 137 107 
375 668 271 148 162 181 
140 808 411 123 101 74 
169 797 444 47 61 83 
154 647 349 59 89 112 
316 566 372 109 126 145 
156 648 450 96 102 123 
358 719 275 140 167 191 
253 265 372 116 113 114 
183 626 326 100 116 134 
170 616 484 97 85 74 
360 691 306 147 181 215 
210 511 257 39 97 140 
226 526 269 160 162 174 
197 737 449 143 42 55 
238 920 365 170 102 77 
315 176 422 94 73 62 
320 743 231 181 14 31 
276 167 427 127 56 5 
107 714 422 88 125 164 
306 166 432 44 38 47 
224 129 476 165 74 9 
335 667 376 85 79 75 
348 628 324 21 61 81 
144 520 426 112 135 169 
160 800 447 171 90 91 
165 733 353 120 128 139 
220 662 445 161 169 191 
210 276 299 177 171 173 
183 618 440 28 49 66 
169 332 409 111 29 56 
216 494 268 105 132 163 
323 476 370 96 118 144 
148 242 334 132 48 85 
376 704 219 164 185 236 
204 864 426 154 121 99 
313 478 354 92 115 148 
213 976 392 109 85 66 
318 504 332 125 141 162 
144 368 394 131 77 97 
338 302 444 92 103 130 
183 131 446 135 63 22 
177 935 435 182 139 116 
324 732 337 47 45 57 
165 303 402 112 113 120 
330 314 402 116 111 110 
280 221 411 121 44 12 
237 815 372 209 142 121 
253 563 444 161 155 157 
182 614 474 77 73 72 
168 164 306 107 60 26 
368 649 327 95 125 154 
262 472 419 92 109 131 
250 156 427 143 56 9 
275 296 453 130 126 129 
150 340 401 127 133 144 
237 86 373 98 80 60 
229 915 403 175 127 97 
348 371 447 178 149 118 
228 963 351 107 83 66 
208 883 429 130 63 66 
245 226 291 105 120 137 
274 324 454 161 76 111 
294 187 422 93 62 42 
262 761 241 150 135 124 
185 957 428 212 166 147 
145 497 381 47 80 140 
205 436 314 136 144 158 
218 759 443 149 65 86 
223 876 408 156 116 83 
187 417 322 55 87 152 
361 695 301 140 177 214 
221 463 262 157 160 171 
222 815 281 179 129 92 
261 164 427 149 60 4 
149 721 467 95 120 168 
267 399 438 72 98 154 
161 495 452 86 106 138 
199 569 265 92 142 183 
265 652 437 67 64 65 
180 235 319 159 156 161 
124 642 501 124 98 69 
250 710 453 134 154 176 
336 699 316 128 88 94 
209 961 419 201 150 126 
158 646 349 30 55 73 
236 252 461 94 126 153 
169 889 340 75 62 53 
157 137 315 59 81 108 
253 495 270 39 75 116 
197 149 296 103 98 97 
294 578 416 110 125 148 
195 214 296 147 143 146 
235 82 380 93 75 56 
286 267 442 74 109 137 
188 870 327 170 123 81 
285 786 339 208 152 119 
221 940 418 187 143 116 
283 318 287 178 178 189 
142 760 378 152 98 106 
296 445 431 87 102 147 
218 538 266 75 118 152 
161 348 361 127 99 76 
290 777 249 177 152 132 
202 398 447 66 81 133 
220 105 471 111 93 75 
156 564 427 127 135 155 
312 226 419 55 76 94 
330 600 337 129 109 92 
212 572 475 104 130 164 
241 769 420 41 33 54 
252 405 429 71 87 126 
331 371 420 160 32 79 
375 663 275 137 155 188 
257 333 453 166 75 109 
233 84 381 93 75 56 
102 679 420 92 120 154 
339 250 414 108 73 74 
272 563 297 115 129 149 
196 182 292 77 95 115 
164 619 467 72 68 66 
326 484 419 80 109 153 
143 938 385 86 72 60 
313 598 336 101 93 89 
343 357 449 174 140 108 
255 584 445 80 114 143 
236 81 379 92 75 57 
340 390 440 151 104 63 
258 252 456 123 122 126 
174 265 394 97 60 72 
237 119 474 124 111 100 
352 337 476 177 172 175 
183 959 427 204 156 135 
101 705 492 145 150 191 
284 686 226 96 116 141 
281 816 305 206 150 119 
335 605 320 110 100 92 
311 619 393 159 112 102 
150 548 416 109 119 134 
216 435 292 166 165 173 
351 670 225 93 109 126 
133 167 363 99 88 84 
281 661 425 49 95 128 
227 939 404 146 108 84 
232 185 306 91 81 73 
169 335 348 153 102 46 
81 653 494 99 82 63 
203 672 300 149 75 94 
382 680 259 153 162 200 
216 342 302 99 116 135 
171 379 354 73 105 135 
346 145 438 142 121 106 
231 202 392 83 40 40 
236 86 376 93 76 57 
219 425 278 99 114 146 
147 358 398 142 23 68 
205 533 309 102 120 141 
335 362 466 141 143 151 
184 206 430 112 64 48 
240 217 399 46 36 35 
186 255 444 108 101 96 
223 319 300 115 131 161 
170 676 468 98 116 156 
138 727 387 121 124 157 
167 729 351 132 134 142 
147 786 362 133 124 122 
167 718 457 123 143 168 
181 321 410 106 114 126 
179 602 306 148 150 158 
177 153 299 131 70 72 
265 479 273 62 93 124 
286 624 277 70 102 128 
289 571 312 95 102 113 
296 721 226 152 57 69 
291 342 384 106 106 111 
293 483 427 182 183 192 
126 627 449 75 91 108 
298 309 316 122 86 94 
181 646 456 23 47 87 
295 779 311 155 106 80 
285 611 427 69 112 147 
211 322 432 145 142 146 
200 747 451 145 45 53 
280 625 283 102 113 127 
283 615 430 96 126 150 
202 899 441 146 111 87 
189 504 468 114 121 132 
216 577 474 76 86 107 
338 713 325 124 69 76 
244 248 284 152 150 153 
344 231 482 21 50 99 
303 352 438 95 104 124 
237 878 364 145 114 86 
328 299 432 103 113 130 
291 546 413 58 84 113 
321 623 355 109 77 66 
235 92 373 95 78 61 
230 900 388 156 115 83 
193 913 318 80 60 44 
203 542 294 118 119 126 
256 34 381 100 76 60 
259 339 298 83 102 127 
290 429 296 124 135 150 
156 260 393 75 41 58 
187 129 460 142 65 7 
168 306 403 119 119 124 
227 614 263 145 152 164 
298 272 433 61 91 115 
154 536 371 109 125 151 
186 544 333 115 124 142 
263 389 292 87 103 123 
323 352 456 160 152 150 
277 806 265 215 145 102 
179 412 437 161 135 108 
237 89 370 101 83 62 
237 89 371 99 81 62 
164 826 392 166 132 108 
356 238 444 122 82 88 
179 361 332 67 97 128 
328 719 342 119 114 113 
186 708 310 157 164 177 
178 245 440 136 119 107 
177 676 322 112 135 162 
172 644 377 55 72 90 
188 164 295 139 85 77 
319 603 366 75 72 72 
166 704 462 104 133 176 
376 202 501 100 98 104 
268 524 284 165 172 194 
290 540 412 60 86 108 
233 343 297 76 99 124 
159 626 439 46 83 116 
162 309 404 87 99 113 
293 364 446 74 100 143 
202 169 415 68 68 71 
280 430 434 139 152 172 
145 244 388 131 81 60 
339 441 439 123 142 183 
185 305 409 122 122 127 
163 724 457 169 180 195 
189 530 474 88 107 143 
142 233 376 148 67 77 
232 89 379 89 72 56 
200 933 434 181 138 113 
142 503 403 152 151 157 
155 928 334 79 64 53 
230 838 323 215 161 132 
232 90 379 88 71 54 
97 645 471 67 68 70 
251 614 456 106 94 89 
319 735 349 139 120 105 
308 309 421 71 75 81 
160 343 361 130 86 34 
220 897 351 86 64 52 
284 177 425 76 75 91 
184 674 457 111 120 146 
378 677 275 117 134 166 
133 757 402 51 55 93 
288 279 302 99 114 130 
150 257 359 144 105 89 
321 430 310 86 116 165 
202 901 442 170 130 108 
151 387 413 138 18 62 
256 266 285 119 140 163 
203 261 302 154 150 152 
135 733 470 116 119 168 
293 324 288 149 154 166 
195 577 338 132 133 139 
213 679 270 80 134 175 
147 530 387 130 139 166 
169 842 349 177 136 105 
360 725 261 166 98 117 
232 92 378 91 73 55 
153 183 371 86 82 82 
195 149 296 104 95 91 
203 325 309 136 78 50 
260 642 438 89 66 64 
314 169 424 110 48 10 
169 842 367 188 140 107 
288 304 332 113 105 103 
149 242 366 86 81 103 
367 207 494 121 52 66 
119 781 438 178 192 213 
280 776 374 209 149 123 
234 92 376 94 77 59 
183 297 325 129 119 127 
191 230 429 68 73 81 
240 64 357 133 109 87 
203 146 388 82 73 65 
210 787 419 195 171 153 
240 65 358 130 105 82 
160 669 337 180 178 196 
368 714 262 167 191 221 
243 408 425 55 80 126 
320 307 397 75 99 130 
354 333 475 165 162 168 
279 309 369 99 104 113 
175 696 336 114 135 159 
193 499 468 125 128 138 
220 872 363 157 118 85 
269 803 264 168 117 79 
194 929 319 67 51 39 
289 512 281 89 121 173 
240 69 358 125 98 74 
263 767 395 127 115 109 
344 228 492 33 42 68 
256 569 302 129 132 139 
242 418 275 106 118 135 
310 503 320 120 140 170 
284 303 340 121 103 86 
203 723 303 139 33 30 
205 871 327 164 116 78 
279 586 427 106 127 150 
262 467 271 123 132 147 
342 147 447 110 47 22 
317 155 427 79 76 74 
259 300 292 167 168 178 
315 398 353 116 133 153 
258 786 384 203 148 122 
234 942 359 74 60 51 
302 518 310 151 159 175 
286 248 405 83 63 74 
174 982 394 97 75 59 
290 611 326 54 63 73 
292 609 322 77 77 79 
306 520 319 115 135 160 
364 147 495 140 85 38 
241 68 360 120 96 71 
273 11 402 104 88 74 
279 599 431 86 127 160 
352 631 334 118 127 141 
314 349 311 103 125 149 
231 536 465 79 102 143 
175 651 317 133 78 84 
345 629 342 76 92 109 
244 393 427 93 104 127 
356 178 474 53 50 62 
239 211 462 92 55 79 
223 227 461 92 126 152 
183 451 461 157 155 159 
183 759 321 131 118 110 
120 765 419 143 150 165 
144 406 403 176 150 124 
212 775 429 76 62 73 
303 357 373 94 99 107 
203 201 455 102 35 59 
275 217 452 138 24 75 
192 414 320 63 97 149 
345 132 457 128 79 53 
300 722 389 118 130 153 
325 491 434 169 180 198 
298 583 330 126 123 126 
313 575 346 149 146 150 
160 410 364 104 121 147 
230 119 479 128 114 103 
240 197 407 59 40 34 
261 292 456 136 37 64 
296 228 421 83 77 73 
325 742 293 137 137 143 
294 376 443 85 121 151 
334 733 291 190 175 165 
264 651 439 88 73 75 
251 235 326 69 65 66 
244 66 363 112 92 70 
320 384 327 69 108 147 
136 629 491 102 86 71 
252 416 280 109 124 143 
110 753 424 116 121 160 
227 201 369 65 42 50 
210 820 289 188 137 102 
259 594 303 55 73 89 
378 656 233 136 149 167 
245 65 366 108 87 66 
250 135 439 171 93 43 
171 637 332 107 113 124 
311 590 373 142 147 158 
232 448 448 122 132 147 
260 241 293 91 105 120 
199 455 320 78 107 152 
328 732 328 102 98 101 
148 457 401 107 109 118 
208 399 304 84 114 145 
330 450 386 56 91 138 
259 802 265 110 87 71 
245 67 367 108 87 65 
198 475 323 116 134 159 
273 367 299 100 118 141 
334 335 401 68 94 119 
178 208 311 84 130 165 
279 321 289 158 155 162 
259 290 457 127 72 81 
329 201 417 90 90 92 
236 680 446 141 146 160 
300 451 290 104 121 139 
183 388 459 169 84 15 
185 370 313 100 117 137 
176 798 438 136 118 104 
149 518 433 126 136 152 
189 651 292 142 156 182 
214 848 375 163 120 90 
303 507 305 125 140 163 
244 70 366 112 89 67 
300 601 403 173 181 196 
268 185 461 62 44 71 
188 991 321 170 131 92 
240 72 360 130 102 78 
320 384 310 81 113 149 
283 766 384 105 129 152 
296 316 327 109 116 125 
96 729 436 148 153 167 
348 644 349 82 108 134 
145 255 346 95 93 109 
240 610 287 76 107 135 
246 821 351 206 146 127 
236 758 434 110 119 134 
278 593 432 93 98 114 
177 749 328 164 111 46 
241 74 363 127 102 78 
382 701 219 223 228 247 
168 240 387 50 60 75 
325 631 250 67 82 96 
179 258 450 90 120 149 
219 846 364 178 134 104 
187 275 319 99 110 125 
318 420 355 74 104 148 
266 273 398 83 88 95 
342 231 420 94 88 95 
188 269 444 111 125 143 
363 708 282 179 155 174 
278 536 414 98 118 140 
250 524 439 105 116 131 
321 431 367 62 100 134 
349 218 472 79 52 75 
241 611 470 161 104 98 
199 878 432 157 104 102 
227 895 363 125 95 68 
157 409 428 162 137 112 
307 437 291 132 145 164 
260 33 370 150 130 115 
202 753 452 156 32 46 
158 380 421 151 127 102 
150 916 341 97 80 68 
315 708 388 100 51 33 
191 219 426 73 75 80 
242 75 366 120 96 73 
347 261 422 119 120 127 
181 312 329 118 128 142 
243 74 367 114 92 69 
202 643 291 103 135 182 
279 396 299 99 117 140 
105 688 500 163 113 95 
187 502 331 102 114 129 
153 185 318 140 66 5 
322 363 433 146 93 80 
137 748 384 137 149 165 
187 351 424 125 27 43 
305 372 290 114 138 187 
235 120 455 125 102 86 
302 798 292 199 145 114 
257 602 293 93 76 81 
319 752 304 178 144 107 
358 188 477 52 37 36 
267 185 461 61 41 70 
221 235 459 77 115 147 
320 527 382 126 144 165 
329 190 420 120 96 68 
300 203 422 46 66 83 
350 634 343 85 117 162 
188 158 382 118 53 9 
210 835 380 178 127 100 
298 513 291 70 97 163 
187 983 406 107 88 71 
152 148 330 131 113 95 
301 540 318 106 122 143 
158 142 337 58 61 66 
375 655 274 120 138 162 
149 173 344 115 102 88 
298 664 234 99 109 123 
296 303 441 100 112 128 
65 673 487 176 124 108 
190 952 320 104 85 69 
263 618 279 74 97 129 
219 887 350 128 95 72 
309 662 403 129 65 57 
228 727 256 159 16 42 
338 413 401 125 111 93 
240 229 362 77 30 37 
242 239 384 89 49 33 
190 674 299 89 144 188 
369 670 220 105 122 142 
288 601 324 70 86 105 
181 246 321 160 155 158 
255 192 455 51 41 54 
187 212 305 154 150 152 
142 510 392 51 87 123 
341 680 358 95 123 162 
97 651 503 122 98 71 
197 920 318 71 57 44 
147 283 394 76 115 147 
319 522 414 109 128 156 
273 753 397 128 100 62 
191 426 321 73 105 148 
259 632 272 67 88 106 
289 371 446 60 111 146 
314 130 441 125 70 27 
365 636 245 123 135 151 
319 301 412 71 68 67 
250 268 458 122 121 125 
101 665 425 146 148 156 
211 654 261 171 171 180 
131 186 364 153 66 0 
298 143 431 90 106 122 
258 732 235 172 96 17 
229 911 401 167 120 89 
301 145 436 87 67 44 
163 677 346 178 178 196 
162 374 363 97 120 147 
184 579 352 163 152 146 
160 992 330 160 127 96 
289 435 434 104 122 156 
287 559 303 132 142 159 
223 137 406 88 80 72 
236 872 359 149 116 86 
239 197 407 58 40 34 
252 668 447 100 126 161 
254 646 446 169 113 104 
205 942 432 189 138 113 
180 704 455 111 134 160 
270 226 410 82 67 80 
160 397 364 98 116 145 
244 69 368 110 89 67 
165 385 360 81 114 144 
314 568 345 146 143 147 
226 187 389 76 47 45 
299 719 389 112 96 81 
218 104 473 112 92 72 
142 641 388 54 98 137 
351 252 423 122 65 75 
216 965 405 138 102 86 
160 921 328 87 69 54 
302 609 395 63 67 112 
375 671 315 88 123 173 
226 799 274 89 111 131 
269 266 324 122 125 132 
181 230 393 99 46 70 
155 288 399 78 99 119 
358 232 481 72 62 65 
292 494 425 96 116 162 
160 145 336 45 54 63 
345 226 452 69 25 21 
193 661 443 25 55 126 
212 928 321 68 49 33 
243 205 459 45 48 87 
350 238 457 109 42 64 
277 222 410 124 47 21 
335 305 440 98 120 144 
279 155 430 103 90 80 
244 69 375 106 85 65 
363 287 473 167 166 172 
265 561 431 112 133 155 
276 169 427 120 68 50 
160 320 357 153 99 13 
210 375 433 66 96 120 
242 597 458 73 112 141 
265 280 361 103 107 115 
244 246 388 75 72 64 
259 32 379 159 144 136 
104 640 477 86 77 69 
153 390 418 138 20 62 
123 647 408 74 100 157 
132 651 402 110 126 169 
219 853 362 173 130 99 
306 452 429 79 99 147 
149 942 401 98 80 68 
161 958 412 151 118 98 
247 572 298 135 132 134 
347 306 483 86 141 181 
312 596 383 101 124 146 
126 698 409 66 102 157 
189 183 424 80 42 48 
206 462 317 152 153 161 
323 467 369 87 108 141 
362 639 323 9 51 124 
240 67 382 94 77 60 
197 299 434 76 115 146 
303 225 410 117 64 27 
166 885 379 145 113 87 
327 293 425 90 85 88 
324 715 375 147 96 99 
317 755 237 195 140 76 
149 247 368 104 84 105 
223 797 275 115 98 81 
353 721 224 163 179 213 
208 538 281 108 126 147 
235 421 270 100 112 127 
227 108 449 90 80 73 
189 678 300 76 138 186 
344 230 466 68 41 59 
290 332 289 108 123 159 
227 817 379 199 131 111 
277 294 345 97 106 118 
203 848 319 211 144 106 
352 184 496 80 29 31 
221 474 276 107 127 155 
184 949 325 108 87 64 
220 826 374 186 125 108 
217 911 327 77 56 49 
193 251 423 90 47 66 
263 153 449 105 79 75 
273 433 431 94 116 157 
361 160 513 154 65 7 
90 677 505 167 124 102 
227 271 453 91 114 139 
334 469 429 141 162 190 
256 253 286 95 120 147 
148 299 390 75 118 151 
163 813 345 152 139 133 
256 235 294 140 138 141 
220 131 408 100 90 82 
66 683 485 89 115 160 
302 557 324 90 109 129 
167 164 306 101 80 54 
254 210 454 55 50 93 
346 226 472 46 33 61 
300 160 435 37 52 72 
326 193 418 121 94 57 
329 312 457 102 115 131 
360 729 241 184 207 236 
211 421 301 110 132 158 
139 144 358 62 43 29 
199 396 315 119 135 156 
322 404 385 66 76 89 
290 641 255 121 125 133 
270 140 443 96 68 67 
263 257 400 92 80 79 
249 698 243 113 127 143 
245 65 376 107 85 64 
197 773 305 123 112 105 
244 64 378 105 83 63 
328 196 418 118 90 56 
244 65 378 103 82 61 
244 65 379 104 83 63 
174 614 431 38 53 71 
358 698 216 139 149 181 
199 236 415 127 65 75 
285 575 309 98 105 116 
243 72 369 110 89 67 
325 661 236 64 53 97 
218 940 424 190 143 116 
142 513 394 124 129 140 
338 690 307 39 59 153 
216 966 340 129 102 78 
183 659 448 60 105 137 
154 622 471 69 68 69 
141 499 417 97 116 148 
215 724 452 120 149 177 
243 74 369 109 88 68 
372 206 514 170 109 99 
215 413 288 143 148 161 
221 179 292 123 85 53 
145 791 366 138 113 95 
349 201 499 134 53 53 
196 599 351 62 104 135 
194 624 282 177 173 179 
276 194 425 44 46 54 
186 622 381 48 65 80 
181 637 343 66 85 103 
190 312 415 127 128 134 
291 550 413 63 88 111 
234 528 455 165 160 162 
243 72 373 105 85 65 
139 940 360 98 77 63 
206 783 289 107 107 110 
273 715 421 72 62 79 
228 762 267 173 157 147 
193 330 314 114 107 123 
314 181 425 110 54 48 
310 517 323 96 120 147 
243 72 375 103 84 63 
234 200 330 35 66 87 
182 746 447 160 78 80 
207 375 439 57 91 132 
150 485 438 65 98 142 
218 673 254 94 45 63 
184 557 342 142 136 136 
197 988 396 108 88 73 
222 849 328 207 159 127 
352 621 265 132 138 149 
104 641 491 97 82 67 
297 354 387 98 98 102 
361 246 497 141 97 92 
170 461 335 154 155 163 
244 468 441 132 136 149 
196 804 299 153 132 112 
240 79 370 102 83 64 
246 536 264 161 163 172 
194 626 346 98 99 104 
216 494 469 109 118 132 
241 79 370 102 82 63 
341 265 420 103 115 129 
387 689 221 88 103 122 
181 340 453 176 148 117 
318 520 366 123 130 145 
298 317 443 132 88 23 
366 691 298 151 181 213 
156 415 428 158 134 108 
173 384 426 118 21 51 
141 485 421 140 150 169 
308 268 401 120 136 154 
355 638 272 83 77 73 
216 293 298 132 149 169 
323 490 403 72 99 171 
340 631 352 75 99 126 
185 949 433 209 167 146 
211 415 300 103 124 148 
291 528 288 120 143 174 
261 144 457 59 73 87 
196 361 452 105 92 79 
328 753 279 135 123 117 
189 872 327 166 121 83 
240 79 373 104 84 65 
243 723 455 147 168 192 
322 421 369 42 82 133 
227 202 462 144 46 26 
180 210 310 91 121 146 
247 133 479 156 77 7 
251 320 454 143 38 83 
263 488 269 65 100 137 
273 762 394 180 163 148 
175 620 311 64 109 144 
290 597 425 112 141 171 
197 826 307 178 132 98 
241 73 376 101 82 62 
310 535 328 102 114 131 
240 818 364 211 143 123 
173 150 301 124 65 64 
240 73 378 97 79 59 
162 744 454 138 150 166 
293 469 429 77 99 163 
320 754 295 154 126 98 
240 75 376 97 79 61 
348 688 342 130 84 92 
161 969 400 99 79 66 
111 662 413 85 122 154 
354 257 437 87 131 165 
163 883 393 138 109 79 
242 73 376 102 83 64 
347 237 436 75 71 92 
170 484 339 145 145 152 
271 680 243 55 63 71 
315 480 316 159 164 176 
156 763 354 127 92 47 
169 660 338 64 127 170 
154 823 379 165 151 142 
379 704 220 178 188 236 
84 710 448 153 155 165 
161 674 344 171 173 196 
158 402 365 93 114 143 
228 234 461 87 129 162 
218 361 302 57 99 146 
338 300 437 86 111 141 
285 736 228 199 154 89 
190 908 316 80 63 43 
320 525 398 161 171 188 
105 669 416 95 111 149 
208 379 434 47 70 115 
373 710 223 182 201 234 
247 226 326 70 96 118 
257 724 233 128 42 31 
148 477 377 162 161 167 
253 540 286 137 152 177 
315 619 261 112 125 140 
242 551 453 177 165 159 
130 664 405 105 128 156 
224 99 350 101 80 57 
139 723 387 109 107 133 
225 99 350 102 79 56 
291 695 225 141 155 174 
128 791 421 184 31 51 
319 467 321 117 140 168 
236 214 462 101 47 73 
170 834 380 179 132 105 
188 641 380 53 57 62 
256 10 369 134 112 92 
336 293 420 91 106 125 
281 508 279 76 114 178 
383 161 516 150 92 66 
192 269 404 75 62 76 
272 544 428 167 163 166 
240 810 375 209 142 122 
307 323 410 91 82 74 
343 368 469 209 177 141 
171 722 345 113 130 150 
204 969 337 125 101 77 
305 668 235 133 128 128 
223 416 444 100 109 124 
66 682 477 106 127 176 
235 896 364 128 99 73 
335 431 446 148 166 189 
360 181 444 75 83 94 
292 302 447 98 95 96 
309 551 359 153 152 157 
226 102 351 109 88 64 
272 581 303 92 92 96 
162 669 339 135 135 159 
316 416 442 71 84 121 
348 263 470 118 41 57 
243 354 292 79 100 121 
201 618 281 120 139 174 
271 280 452 129 134 144 
293 250 406 97 24 68 
196 282 416 95 44 51 
205 487 320 142 139 142 
184 426 445 134 84 24 
149 547 413 160 167 180 
276 820 305 214 157 126 
161 978 362 117 94 70 
188 288 448 69 110 146 
186 161 426 37 44 50 
338 626 329 38 48 67 
164 486 452 87 106 136 
177 182 429 94 21 40 
230 664 445 91 111 170 
354 347 458 151 24 40 
310 588 368 78 105 130 
164 878 408 152 115 85 
226 102 352 111 89 65 
147 414 377 75 101 139 
316 524 404 118 142 183 
160 304 354 105 123 145 
227 420 443 118 124 136 
165 283 341 105 118 136 
307 179 422 93 63 62 
228 97 352 107 85 62 
313 525 362 143 142 147 
139 154 349 151 69 43 
228 937 403 156 119 92 
219 795 408 179 169 166 
141 636 404 69 113 153 
280 719 411 210 73 19 
238 286 291 170 159 158 
90 653 446 60 95 132 
302 284 401 41 90 123 
224 175 298 89 93 98 
307 333 323 86 110 132 
200 582 330 153 150 155 
200 343 450 103 91 83 
152 200 334 104 90 103 
177 571 465 70 101 131 
186 398 318 75 107 152 
319 475 323 141 154 172 
236 222 364 64 27 23 
253 236 456 83 119 148 
198 209 293 160 156 159 
237 213 462 84 38 74 
317 542 368 106 122 141 
183 595 311 101 125 151 
152 726 464 143 147 166 
230 99 356 106 86 64 
279 732 403 102 89 85 
231 98 357 106 86 64 
134 800 412 208 138 107 
174 292 333 134 28 50 
131 170 360 113 102 94 
192 565 301 139 150 167 
254 441 274 120 131 146 
156 138 318 57 75 114 
228 680 444 176 172 176 
163 801 445 133 129 145 
342 666 364 92 137 174 
318 247 408 106 96 94 
352 264 437 83 125 160 
376 699 254 157 164 209 
122 762 416 121 142 164 
188 891 431 183 135 117 
201 972 416 102 77 63 
194 204 394 84 71 81 
202 989 360 111 79 53 
219 860 337 180 137 105 
246 165 423 118 80 53 
204 862 411 114 88 57 
311 552 335 100 110 125 
193 965 423 166 124 108 
315 433 342 111 129 152 
246 293 292 156 157 169 
222 671 443 74 92 162 
217 104 473 112 91 69 
237 266 287 106 128 156 
338 429 432 102 95 96 
210 636 265 121 146 175 
319 526 341 164 166 176 
297 621 421 171 170 177 
222 864 345 179 136 106 
159 289 398 100 102 107 
323 444 418 71 67 63 
179 203 435 89 67 67 
184 804 419 188 159 130 
189 789 433 113 101 99 
278 300 453 83 112 140 
231 103 359 105 85 64 
151 409 417 173 147 121 
163 639 454 47 68 88 
225 104 352 110 89 68 
161 829 382 152 145 143 
225 106 352 108 88 69 
200 197 452 50 52 71 
183 392 458 159 66 10 
171 440 442 115 95 66 
299 318 324 106 124 144 
138 686 373 167 168 177 
377 159 516 143 97 77 
353 690 314 113 146 178 
193 341 311 118 128 144 
272 423 434 114 133 161 
313 473 353 174 172 177 
130 734 472 131 145 178 
140 750 375 158 165 179 
147 538 414 119 128 159 
201 357 454 126 68 69 
326 712 372 197 78 38 
274 510 413 105 116 131 
359 730 258 211 152 150 
313 378 364 86 107 128 
189 586 282 88 129 163 
188 357 427 150 126 101 
224 257 457 154 152 158 
193 778 439 226 196 167 
251 443 271 102 117 134 
231 330 300 145 147 154 
351 168 436 113 109 108 
328 184 424 97 38 43 
175 637 314 78 121 154 
287 286 445 107 116 130 
196 977 322 134 107 76 
373 701 262 167 187 213 
175 861 379 155 116 87 
165 1002 360 167 138 110 
340 271 475 143 64 11 
304 341 333 149 103 117 
275 638 428 179 169 168 
354 731 263 202 116 123 
350 293 485 179 179 186 
353 348 459 184 151 112 
180 629 492 174 122 103 
133 794 400 177 49 65 
228 104 354 109 87 66 
194 307 426 100 119 140 
98 742 457 94 113 199 
298 406 435 89 97 136 
310 373 340 59 104 138 
142 718 360 98 122 181 
236 573 261 82 120 151 
314 434 345 107 124 153 
194 865 427 165 128 111 
115 743 472 203 199 203 
227 922 350 75 62 52 
177 350 336 118 127 142 
374 651 234 103 116 132 
156 823 370 183 166 155 
182 134 301 91 85 82 
337 299 406 139 133 132 
142 682 359 81 107 132 
210 237 291 163 160 164 
242 145 427 111 101 90 
132 666 399 94 109 126 
230 104 358 106 85 64 
165 202 318 125 25 41 
367 717 229 157 164 219 
167 877 360 138 107 78 
297 703 402 136 118 115 
246 761 255 153 136 123 
182 439 449 100 87 72 
256 776 395 125 103 85 
331 325 430 182 151 116 
309 139 437 79 78 84 
177 498 337 106 119 139 
324 699 383 196 70 15 
283 608 430 76 119 156 
142 427 407 163 71 0 
276 185 443 56 70 91 
278 314 287 141 155 188 
192 610 477 80 76 74 
112 638 429 62 91 114 
149 496 436 82 112 148 
220 74 464 93 78 63 
229 108 359 107 86 67 
189 311 448 148 147 153 
272 797 351 220 155 129 
181 684 315 159 155 159 
243 370 287 34 80 117 
201 547 294 69 88 108 
349 216 427 110 53 59 
248 818 275 219 154 117 
300 350 359 113 112 114 
285 593 318 75 81 88 
186 1001 330 110 82 49 
289 401 298 91 121 158 
196 307 314 140 80 86 
322 360 453 119 121 130 
197 275 311 109 125 147 
329 601 330 121 112 106 
177 626 441 46 57 70 
152 256 364 131 104 101 
336 628 340 84 91 101 
209 858 387 151 118 86 
165 216 326 99 60 73 
192 318 420 130 134 143 
239 776 264 159 128 91 
230 107 362 103 85 68 
184 668 455 100 124 149 
164 528 454 118 132 154 
372 187 503 123 86 57 
249 527 265 120 144 172 
284 150 431 105 95 86 
258 440 423 69 90 135 
173 751 335 144 30 49 
284 521 413 115 122 134 
181 736 322 159 38 47 
205 689 301 127 149 174 
196 616 331 71 114 147 
136 688 479 182 181 190 
318 641 376 84 99 152 
241 694 245 97 111 127 
172 655 325 76 64 82 
330 715 300 200 120 129 
183 1006 355 116 93 69 
282 449 430 82 108 158 
325 159 434 40 49 65 
158 892 374 85 66 47 
313 690 391 73 67 66 
326 325 453 77 108 133 
161 973 393 97 79 63 
170 264 332 153 150 153 
322 728 345 77 65 91 
293 332 451 156 94 42 
152 375 412 161 135 107 
180 423 323 80 110 159 
133 754 401 49 61 81 
281 439 432 94 122 162 
159 631 495 132 102 76 
176 347 338 150 150 157 
