ply
format ascii 1.0
comment Created by CloudCompare v2.11.1 (Anoia)
comment Created 2/28/22 9:39 PM
obj_info Generated by CloudCompare!
element vertex 2010
property float x
property float y
property float z
property uchar red
property uchar green
property uchar blue
end_header
334 257 442 79 102 124 
157 569 410 113 130 160 
237 276 298 89 144 191 
130 682 495 86 60 79 
186 869 329 168 123 86 
226 179 334 77 36 41 
252 123 458 119 89 68 
192 1000 340 154 121 91 
228 154 409 103 59 33 
203 71 447 95 81 67 
137 198 384 100 79 62 
242 545 261 151 154 164 
243 344 430 109 120 135 
225 190 367 30 45 57 
290 174 420 92 91 91 
276 801 255 216 178 137 
205 70 447 91 78 64 
280 191 455 48 71 92 
198 328 434 170 148 127 
231 732 451 76 123 162 
159 941 420 169 132 106 
219 280 301 170 166 171 
155 396 418 169 143 116 
160 579 409 135 141 153 
216 953 413 191 144 115 
144 652 389 71 110 156 
247 519 259 111 134 161 
243 426 425 125 131 143 
206 553 271 133 140 153 
245 523 446 105 120 144 
160 827 379 172 144 126 
227 259 452 151 147 150 
327 633 234 42 89 118 
288 630 420 179 174 177 
309 617 252 107 127 147 
367 203 510 131 99 117 
257 235 326 83 101 120 
294 729 385 153 146 144 
266 449 265 113 128 146 
255 194 410 80 41 57 
149 275 354 146 25 56 
360 188 518 62 92 120 
327 476 371 83 102 126 
297 303 319 126 62 80 
225 961 349 104 79 63 
213 416 456 89 105 142 
231 543 472 127 145 166 
263 22 360 150 137 129 
210 650 262 165 166 175 
148 990 339 91 63 76 
360 193 500 80 65 78 
238 637 257 86 80 74 
203 76 445 97 82 67 
202 785 284 139 131 127 
134 158 364 106 47 12 
312 349 308 71 103 133 
256 545 438 110 126 146 
181 337 332 75 103 134 
189 685 296 84 144 188 
226 929 346 67 55 50 
266 147 448 114 92 87 
203 761 449 178 105 68 
204 73 446 96 81 66 
339 235 414 83 62 73 
318 300 404 60 66 77 
172 591 383 157 151 154 
243 454 440 153 149 153 
297 235 434 82 90 101 
185 381 322 62 93 135 
181 203 313 137 39 83 
162 993 370 195 167 143 
175 811 326 127 117 111 
300 703 388 110 110 117 
355 724 230 155 186 218 
214 836 374 174 125 99 
198 392 311 131 144 164 
313 657 389 189 132 45 
194 615 326 67 111 146 
327 378 431 120 18 61 
192 594 350 95 100 124 
148 355 401 142 19 68 
344 683 326 120 72 79 
164 573 436 124 130 147 
294 763 362 199 182 172 
356 261 421 88 126 157 
212 477 475 154 166 186 
280 335 295 112 126 149 
327 202 416 71 29 33 
199 592 261 170 171 181 
233 698 449 131 143 160 
211 573 250 128 134 147 
287 814 280 210 151 120 
135 750 473 119 133 186 
326 353 416 166 136 104 
206 79 446 92 78 64 
122 715 427 88 115 143 
195 620 360 89 95 104 
334 305 423 116 135 155 
184 280 329 152 123 84 
244 202 305 92 53 56 
211 516 250 111 138 164 
143 153 369 84 45 27 
366 673 291 154 183 214 
217 873 376 169 128 97 
302 536 315 102 118 139 
200 552 304 125 141 162 
341 367 409 158 46 78 
292 178 423 76 41 41 
366 658 250 129 135 145 
229 318 298 114 124 139 
175 730 329 81 72 114 
265 276 358 92 99 109 
300 142 423 87 103 118 
188 287 440 76 117 149 
228 691 239 123 153 184 
191 988 391 133 106 75 
325 488 371 75 91 109 
183 264 398 118 18 60 
152 673 345 82 93 110 
350 207 442 95 25 33 
148 627 460 62 81 98 
263 754 412 181 152 126 
175 693 329 126 135 151 
193 84 440 97 83 68 
271 795 346 221 158 133 
353 136 463 106 81 64 
232 830 345 200 145 120 
193 86 440 98 83 68 
351 663 317 135 162 190 
196 905 305 74 58 42 
343 259 465 86 107 126 
118 709 431 69 105 139 
156 486 444 91 116 147 
298 680 221 94 103 116 
259 811 325 224 165 136 
172 495 457 104 121 146 
305 521 410 113 128 164 
144 471 380 93 111 142 
236 526 459 151 151 159 
212 311 432 129 129 133 
181 771 321 139 130 126 
196 80 442 97 83 68 
269 491 410 75 91 127 
182 813 408 185 170 161 
319 388 377 68 76 86 
171 1002 365 83 51 40 
311 665 229 64 67 87 
345 198 481 109 35 35 
160 477 368 88 105 134 
343 201 497 139 53 55 
211 493 308 101 109 122 
221 631 468 182 123 113 
198 80 443 98 83 68 
234 601 465 62 66 72 
355 633 308 71 108 136 
306 636 373 122 84 77 
269 703 219 135 145 159 
163 941 424 177 138 112 
200 146 386 89 79 70 
200 549 476 106 119 148 
254 592 299 65 65 69 
316 459 344 81 110 148 
364 658 320 59 102 171 
333 383 432 135 90 64 
353 633 318 113 132 153 
331 645 357 114 138 166 
317 310 415 68 59 62 
177 833 382 171 122 96 
176 737 326 140 26 40 
158 656 338 118 125 136 
347 221 472 83 69 90 
142 234 352 118 81 79 
180 611 436 66 98 123 
203 862 404 114 88 55 
295 517 300 143 151 166 
354 180 459 88 35 29 
360 649 320 82 118 148 
321 521 395 100 125 179 
280 781 244 195 154 101 
309 357 379 100 100 102 
199 87 442 94 79 63 
315 145 427 71 75 87 
340 628 337 91 106 124 
179 616 399 86 94 104 
152 377 411 137 24 67 
230 686 236 136 155 182 
271 791 351 219 159 129 
309 169 416 97 57 13 
211 137 313 92 85 81 
257 708 448 143 158 178 
269 247 317 126 127 132 
309 332 382 100 101 106 
163 673 481 70 82 142 
318 476 424 110 129 183 
315 276 390 136 138 143 
334 704 324 157 70 71 
193 92 439 93 77 60 
129 169 368 120 108 96 
151 719 393 108 119 138 
190 451 455 154 151 153 
327 397 449 146 123 99 
97 699 504 88 123 189 
358 186 427 81 85 94 
292 267 393 93 102 114 
146 315 365 95 133 167 
210 399 447 71 82 141 
232 213 369 90 34 17 
203 755 287 123 108 95 
337 404 404 180 68 3 
184 937 321 71 56 42 
160 651 472 113 103 107 
204 891 330 88 67 54 
239 203 295 125 119 116 
293 257 437 79 78 92 
296 644 406 137 110 81 
299 684 405 189 139 61 
226 942 404 139 110 87 
361 160 459 141 44 49 
169 515 456 77 95 142 
169 539 453 56 91 145 
146 485 412 123 129 142 
104 744 460 142 143 188 
141 915 355 114 94 74 
171 862 344 142 113 83 
346 357 395 141 0 65 
309 764 292 174 164 161 
320 395 323 106 124 152 
194 90 440 94 79 62 
226 511 241 94 119 143 
165 558 446 103 120 144 
236 161 412 126 58 22 
160 532 359 125 134 150 
191 952 321 131 96 64 
329 375 433 123 17 51 
283 402 295 88 108 129 
192 831 311 186 137 107 
325 732 279 194 174 159 
196 91 440 93 78 60 
147 261 388 44 82 108 
230 563 250 78 118 153 
137 788 394 141 84 58 
327 633 235 46 90 120 
164 642 354 73 83 96 
238 250 460 92 61 78 
231 160 410 112 56 22 
273 625 271 117 122 132 
224 467 283 79 101 145 
245 787 393 137 139 145 
359 161 502 156 65 16 
209 642 267 112 130 150 
342 238 432 48 65 83 
242 494 251 64 96 130 
188 327 449 109 125 145 
266 584 300 72 80 89 
196 229 313 159 159 167 
244 546 265 79 111 140 
165 466 445 107 95 85 
275 741 223 166 129 96 
228 897 402 165 116 87 
181 704 310 162 163 172 
324 637 357 108 123 143 
183 356 321 100 119 142 
140 288 365 108 73 82 
195 997 337 154 128 101 
202 554 252 117 144 171 
165 649 483 155 104 87 
360 219 435 55 38 58 
324 526 381 139 153 172 
246 231 289 145 142 144 
109 688 507 172 122 102 
233 196 396 49 43 51 
310 570 403 179 192 211 
207 792 277 126 125 129 
330 636 350 76 99 136 
340 232 491 48 76 105 
148 195 385 70 48 37 
187 862 408 105 82 55 
160 247 341 78 60 69 
263 286 374 74 65 59 
349 656 332 117 154 187 
223 216 287 174 76 0 
316 731 365 180 158 139 
175 645 310 112 60 78 
194 906 314 68 53 35 
244 615 465 178 112 110 
214 379 437 67 90 129 
203 83 444 92 78 64 
148 895 379 161 113 90 
136 931 371 81 66 54 
203 774 283 159 133 107 
333 726 215 167 189 217 
328 325 451 76 105 128 
307 361 291 68 112 160 
238 697 232 140 152 169 
326 760 242 94 91 103 
201 86 443 93 78 63 
202 350 316 64 96 123 
150 383 410 124 116 131 
181 551 339 121 128 142 
143 782 461 118 158 194 
329 269 400 74 84 100 
241 204 324 61 64 69 
203 723 295 73 62 97 
203 87 443 91 77 62 
216 542 479 78 105 170 
199 607 336 66 111 146 
321 646 232 26 68 108 
171 628 321 117 129 146 
262 652 441 91 92 134 
182 787 447 66 50 87 
151 303 362 114 134 161 
149 956 393 104 86 72 
319 514 338 97 122 158 
346 337 395 146 142 143 
286 415 295 88 105 123 
221 962 391 116 91 71 
274 361 296 102 119 138 
204 322 441 136 135 139 
171 874 416 147 112 85 
181 611 386 85 97 113 
267 679 225 107 117 132 
331 302 449 86 107 128 
352 301 412 160 161 169 
201 258 430 109 109 115 
244 580 289 86 97 110 
207 81 446 90 77 64 
147 947 398 86 70 58 
266 534 427 121 141 165 
220 668 447 108 123 144 
165 269 338 154 150 153 
334 432 434 128 146 179 
184 403 434 151 127 102 
205 609 266 87 114 147 
292 561 309 98 107 121 
161 424 433 156 131 104 
364 673 204 107 128 151 
362 711 236 127 169 215 
370 161 529 130 114 103 
316 735 326 179 166 159 
113 756 442 100 134 192 
347 135 447 129 64 2 
205 86 444 89 75 61 
316 556 404 116 141 189 
193 1000 341 146 113 79 
262 429 421 89 106 135 
194 326 441 107 122 141 
174 485 338 145 146 152 
352 170 492 131 60 53 
370 675 264 121 143 171 
272 719 420 171 90 93 
186 213 313 164 158 156 
226 523 473 116 126 139 
197 577 271 79 118 151 
159 417 366 111 127 153 
265 260 337 77 65 54 
242 588 454 77 110 139 
300 324 331 139 80 104 
147 798 367 153 135 120 
175 384 339 68 102 144 
193 414 318 77 106 150 
295 800 283 202 148 118 
148 764 371 113 48 82 
176 609 311 141 146 157 
325 708 343 113 123 135 
238 924 375 143 92 75 
224 840 340 188 141 117 
333 273 441 102 116 132 
322 620 322 117 81 64 
214 634 462 155 110 98 
338 612 313 141 114 89 
205 679 463 63 97 142 
297 330 354 134 114 96 
282 379 297 59 93 133 
212 495 479 125 142 169 
336 673 215 102 118 136 
149 434 417 161 81 13 
322 721 328 159 132 126 
275 779 245 210 167 105 
221 510 291 104 132 159 
200 93 441 92 76 59 
199 509 316 39 71 110 
217 741 262 85 96 111 
314 599 348 45 51 57 
200 94 440 92 76 58 
162 267 340 142 140 144 
312 622 379 164 109 104 
220 874 351 145 110 81 
343 268 461 126 103 90 
202 92 441 91 76 59 
184 325 455 127 143 164 
283 264 307 129 133 141 
203 92 442 90 75 59 
346 191 502 91 87 97 
345 219 480 113 67 68 
213 665 449 87 105 135 
269 687 222 127 127 133 
166 277 399 69 74 87 
301 654 410 62 38 88 
213 977 355 85 62 55 
107 638 448 73 95 116 
205 89 443 89 75 61 
209 616 264 93 115 137 
135 651 396 92 126 168 
170 577 371 189 172 163 
357 150 441 134 75 7 
174 661 474 145 140 143 
309 708 216 146 152 164 
101 727 482 219 214 219 
340 270 401 85 114 143 
168 639 399 42 75 101 
206 88 444 88 74 60 
205 852 384 153 113 80 
138 795 391 55 33 52 
260 283 380 105 102 103 
151 987 332 167 138 111 
205 791 418 180 155 131 
271 310 455 145 39 76 
165 682 481 158 170 191 
259 412 423 77 96 120 
318 380 310 87 118 150 
204 92 442 90 75 60 
271 370 292 78 106 132 
313 525 346 137 149 167 
169 592 430 153 150 153 
290 547 304 107 118 133 
141 640 394 59 102 142 
172 561 356 100 121 144 
206 186 291 139 92 71 
346 276 403 88 126 159 
319 552 364 140 156 180 
265 342 295 84 108 131 
347 297 400 142 142 146 
191 171 437 91 42 36 
243 204 322 71 62 56 
328 313 427 149 123 93 
261 605 290 62 88 117 
321 295 408 67 68 81 
342 225 408 106 104 107 
206 95 442 90 76 60 
343 320 418 148 3 60 
350 188 488 43 49 64 
354 696 278 152 183 215 
155 359 367 132 131 138 
307 464 293 107 135 167 
340 696 294 153 55 47 
262 238 323 101 98 99 
146 534 409 114 121 163 
143 235 344 118 57 73 
328 705 360 194 77 34 
229 446 250 105 119 135 
307 580 395 178 190 208 
121 755 470 128 145 201 
205 641 278 79 104 153 
224 604 473 116 99 85 
208 620 253 171 173 184 
208 729 451 142 164 190 
209 621 250 159 161 171 
176 149 308 119 58 71 
170 260 396 86 27 45 
175 811 327 115 100 87 
178 848 376 163 117 89 
301 312 313 108 126 146 
302 236 404 81 97 112 
262 233 304 112 120 130 
217 485 467 75 98 133 
201 594 461 74 101 141 
249 336 290 98 110 126 
313 287 419 66 73 83 
273 566 423 151 152 161 
240 231 372 96 35 18 
248 388 425 68 88 118 
196 222 431 98 92 92 
164 512 359 99 119 141 
179 403 432 143 118 92 
343 627 325 90 100 112 
167 633 419 34 72 108 
297 772 311 120 82 59 
184 800 430 176 168 165 
182 999 329 105 78 46 
218 369 432 57 95 129 
337 255 471 104 110 120 
217 548 478 173 181 199 
300 660 413 60 52 52 
272 417 284 91 110 132 
191 309 413 123 123 130 
210 89 446 87 74 60 
271 427 427 50 74 127 
311 155 426 29 46 61 
319 403 331 98 119 144 
173 644 476 134 95 82 
262 821 268 247 177 146 
154 665 375 159 160 168 
313 566 391 36 82 118 
323 373 379 110 103 97 
239 150 465 136 43 57 
219 849 329 203 153 123 
208 94 443 89 75 60 
234 801 387 203 142 119 
200 316 441 142 140 144 
318 617 363 154 110 95 
174 131 309 114 96 79 
219 162 334 103 63 51 
296 641 406 95 82 84 
282 548 292 104 127 152 
305 476 296 131 148 172 
147 155 369 75 39 37 
134 758 470 109 129 186 
189 943 433 195 154 131 
143 217 346 110 108 110 
298 626 248 82 110 135 
284 530 287 117 131 152 
143 806 419 111 105 107 
285 498 275 84 113 142 
202 696 297 151 162 179 
101 708 439 65 96 147 
265 348 292 50 88 119 
202 413 464 88 99 119 
221 604 474 113 97 84 
149 782 461 158 64 81 
212 697 276 153 167 186 
164 145 316 51 71 95 
333 409 443 165 145 121 
187 977 415 94 77 66 
157 143 351 76 62 59 
344 143 441 94 91 89 
147 730 385 157 155 161 
268 638 250 70 100 125 
256 262 362 109 106 107 
167 488 359 139 142 153 
309 626 377 109 83 103 
222 902 348 81 64 51 
245 189 406 76 37 45 
251 351 436 137 136 142 
343 186 425 30 46 68 
247 764 248 32 24 28 
248 330 436 141 102 56 
213 93 446 87 74 61 
354 633 294 99 112 127 
263 539 428 110 131 154 
160 135 344 85 69 60 
360 201 446 108 16 54 
240 144 421 114 97 82 
299 628 394 161 110 97 
322 608 293 90 89 91 
268 156 457 87 90 97 
261 153 424 114 97 78 
322 721 356 144 127 120 
181 336 414 117 30 57 
270 195 453 32 54 88 
88 706 456 132 132 160 
159 700 478 144 150 177 
303 678 222 22 56 97 
202 297 433 61 104 137 
321 310 422 96 82 91 
203 994 346 152 127 108 
359 209 494 75 81 86 
262 260 284 102 129 152 
313 352 436 82 87 99 
284 786 325 205 149 116 
288 668 222 84 97 113 
198 309 441 74 83 96 
320 400 326 128 144 165 
258 801 360 212 150 128 
204 127 415 104 94 86 
306 343 292 83 114 144 
178 997 374 136 106 75 
344 334 394 122 125 134 
364 171 447 109 55 54 
352 194 450 29 37 66 
172 571 364 145 134 128 
157 909 413 172 131 106 
207 124 415 102 93 84 
233 208 390 48 36 44 
206 398 306 86 117 151 
207 126 412 101 92 84 
288 280 314 123 90 66 
312 432 430 59 85 126 
238 550 461 131 142 158 
213 955 417 196 145 119 
228 270 448 83 85 100 
210 123 384 86 70 52 
236 767 257 157 137 119 
196 139 376 92 76 59 
98 656 445 143 147 159 
121 773 447 179 183 196 
259 240 294 101 103 107 
342 252 454 117 106 112 
321 462 331 150 159 173 
347 680 205 85 103 121 
333 341 416 175 140 95 
209 126 384 84 68 51 
173 416 349 150 149 155 
343 185 418 69 79 91 
164 202 329 144 16 50 
203 993 340 132 102 75 
161 178 378 87 56 34 
225 368 280 34 76 107 
228 658 448 139 158 199 
191 593 278 100 121 145 
259 818 265 233 163 122 
215 491 252 92 123 152 
301 683 220 71 74 81 
203 211 415 107 72 84 
359 210 446 120 46 56 
254 759 418 185 159 151 
333 470 388 151 166 186 
221 466 264 149 157 171 
326 392 427 158 132 106 
214 530 480 152 166 187 
302 133 429 103 73 42 
85 667 460 87 111 134 
161 727 361 100 107 117 
160 982 363 116 90 64 
280 500 410 119 125 136 
247 507 441 123 132 153 
203 223 405 91 93 104 
272 435 425 53 78 127 
226 603 255 155 161 174 
267 268 286 123 143 166 
259 29 388 116 84 105 
262 578 439 125 140 160 
338 680 359 160 78 84 
335 683 341 195 48 81 
222 843 339 183 138 113 
316 312 421 63 55 56 
324 610 254 71 102 128 
244 577 290 95 101 109 
177 691 321 128 148 172 
339 141 423 157 128 78 
178 692 318 146 156 174 
185 499 463 80 104 129 
238 189 403 84 32 17 
128 633 434 59 106 142 
242 392 421 84 100 125 
304 215 405 94 51 49 
277 221 403 116 53 8 
180 677 308 71 121 162 
250 640 444 161 113 100 
184 145 370 89 74 59 
213 576 470 60 63 85 
229 816 376 201 132 112 
328 699 302 133 60 80 
286 678 420 155 169 188 
333 419 422 121 100 75 
217 968 388 104 80 64 
156 748 359 83 80 85 
296 223 405 116 75 24 
321 292 409 80 58 71 
238 170 410 92 65 55 
216 765 436 131 130 146 
166 207 384 104 52 49 
309 468 297 175 174 182 
202 809 403 123 106 122 
286 188 414 46 63 78 
215 126 387 75 66 59 
143 489 418 103 120 141 
319 189 411 115 70 37 
227 730 250 155 104 55 
275 239 398 84 59 60 
155 653 331 135 131 134 
336 244 443 111 113 120 
213 127 388 79 69 61 
207 644 459 173 179 200 
246 687 231 133 130 132 
194 664 465 64 96 126 
222 182 354 54 51 55 
346 193 425 38 37 37 
101 647 476 45 62 75 
278 556 421 151 155 165 
330 693 301 152 72 66 
120 684 504 170 116 90 
343 375 405 114 138 164 
364 676 290 184 201 224 
216 123 385 72 60 48 
281 453 279 138 142 152 
340 263 487 143 146 156 
351 312 404 175 174 182 
323 493 402 85 119 170 
174 523 340 88 108 128 
171 883 422 148 111 84 
176 629 428 36 56 76 
195 852 323 161 117 79 
212 883 425 126 71 64 
249 460 428 141 144 154 
146 697 478 88 103 157 
258 803 356 216 155 132 
148 762 468 170 178 194 
317 602 308 114 106 103 
331 397 428 143 117 87 
305 175 421 91 39 48 
159 956 332 83 64 41 
355 165 487 116 59 76 
169 329 348 153 92 106 
270 606 297 62 75 90 
364 667 219 87 107 132 
259 9 384 121 105 96 
126 751 473 148 154 183 
334 288 456 97 112 130 
186 437 325 62 98 142 
146 209 336 117 118 123 
248 341 438 158 115 57 
154 739 471 131 142 182 
229 552 474 103 134 167 
228 205 385 84 50 34 
218 623 478 179 123 108 
180 468 331 102 120 143 
337 256 424 104 101 105 
173 570 455 136 141 153 
217 127 391 85 75 66 
215 897 425 159 123 96 
292 744 381 157 127 92 
288 306 384 72 84 97 
172 311 406 89 100 115 
215 418 445 56 79 112 
174 668 325 133 140 155 
220 124 384 80 68 58 
194 417 450 148 111 76 
227 334 296 129 129 134 
159 282 348 129 139 154 
169 743 459 139 149 164 
322 321 437 87 81 77 
220 126 386 85 75 67 
155 759 465 154 170 191 
274 265 391 94 90 95 
149 437 387 72 95 142 
178 635 333 70 88 105 
165 878 394 132 107 79 
328 325 454 89 99 121 
132 136 357 159 78 0 
158 903 347 83 67 57 
261 807 340 223 162 136 
346 627 288 113 93 72 
152 315 404 154 155 163 
350 270 485 165 167 176 
226 131 375 86 78 73 
323 745 272 109 105 103 
192 774 303 132 116 103 
295 709 393 62 51 50 
322 757 261 56 54 66 
147 232 358 51 86 112 
305 375 436 81 110 139 
337 319 418 146 12 55 
113 712 493 173 178 195 
327 444 366 101 119 157 
220 588 247 188 191 203 
172 252 332 152 150 154 
338 241 438 91 90 93 
182 962 424 178 134 116 
205 403 307 108 129 158 
172 420 353 141 140 145 
303 738 375 147 115 82 
146 811 408 146 132 124 
319 488 330 160 163 175 
306 311 440 116 90 60 
75 690 479 134 138 182 
192 626 275 183 180 186 
194 591 314 143 147 159 
147 363 373 126 130 141 
161 540 441 71 92 135 
308 439 424 65 87 134 
230 303 302 113 123 137 
210 125 414 102 91 83 
332 345 439 164 135 103 
288 172 420 99 70 51 
243 136 429 177 88 40 
337 295 447 123 125 131 
240 365 277 58 89 115 
196 788 430 154 157 165 
228 891 390 159 120 89 
229 198 360 66 43 41 
255 196 409 82 41 55 
188 963 424 170 133 117 
246 570 455 102 80 89 
144 242 357 94 96 102 
248 729 448 125 156 186 
192 429 448 123 110 100 
176 899 322 82 66 51 
167 905 424 189 147 123 
222 430 284 104 131 157 
157 569 388 167 169 181 
162 513 450 77 105 154 
206 622 271 83 108 139 
177 878 330 120 89 59 
179 633 325 124 129 139 
264 463 263 133 153 181 
207 708 454 143 164 188 
232 161 409 112 58 24 
346 341 394 128 132 141 
213 126 413 100 90 81 
151 759 467 149 167 189 
214 748 267 135 109 81 
197 386 446 179 154 132 
172 199 383 68 69 78 
185 423 442 148 56 3 
356 185 442 80 30 34 
274 470 416 111 129 154 
84 695 459 170 166 171 
225 267 446 59 102 134 
181 380 426 119 28 48 
214 127 412 100 89 80 
175 438 340 157 158 167 
280 313 289 123 123 133 
195 361 447 170 142 112 
232 588 464 63 61 70 
217 125 413 99 87 77 
349 222 424 46 28 26 
217 154 346 78 63 61 
191 396 319 71 100 139 
330 154 428 33 47 63 
188 616 466 52 51 52 
189 465 460 96 120 148 
237 227 288 103 116 133 
222 733 451 154 118 131 
189 248 437 125 115 107 
149 177 328 160 65 0 
276 14 402 112 93 77 
278 552 292 178 172 174 
144 358 395 128 134 143 
308 285 423 56 61 70 
95 701 503 91 132 195 
352 653 215 105 117 131 
179 381 326 72 96 140 
224 476 284 90 117 154 
335 284 399 137 136 139 
221 695 453 134 158 184 
271 408 430 59 85 137 
184 780 317 154 129 103 
241 151 466 109 39 46 
300 174 416 102 70 52 
330 290 439 103 111 123 
252 829 279 254 182 142 
95 678 443 118 133 160 
319 681 221 91 105 121 
175 463 451 119 110 101 
220 705 245 161 54 53 
198 111 431 97 86 75 
155 533 438 134 139 151 
333 270 441 82 110 135 
160 646 322 86 145 189 
227 799 268 114 105 103 
340 740 250 184 89 75 
194 388 438 153 127 100 
353 148 503 112 99 92 
173 275 334 128 133 144 
331 291 438 108 112 120 
337 700 207 76 111 153 
130 128 360 140 82 3 
238 726 451 166 83 94 
149 221 370 101 105 114 
186 622 492 135 107 82 
260 664 237 43 56 68 
174 719 336 141 151 166 
326 626 330 102 98 98 
345 628 295 112 89 62 
342 217 444 93 26 36 
227 744 449 159 147 156 
278 133 432 122 80 46 
170 678 342 162 163 178 
268 160 453 92 88 86 
194 97 438 92 75 56 
347 320 447 114 95 99 
234 415 431 119 126 139 
322 759 233 155 119 94 
278 502 271 83 117 176 
170 699 347 126 136 160 
316 703 217 91 111 138 
211 887 427 167 129 99 
204 150 391 121 55 7 
220 170 367 61 30 30 
176 458 338 133 137 148 
177 440 443 102 89 73 
327 246 413 54 63 73 
188 279 404 59 95 123 
192 102 437 94 78 61 
289 316 382 68 84 99 
144 780 376 116 77 71 
180 435 330 76 99 136 
252 235 291 139 140 145 
159 640 392 53 98 132 
268 583 300 69 78 87 
179 541 337 141 153 172 
298 428 426 153 154 162 
246 207 400 40 44 54 
150 351 370 123 130 143 
208 717 452 154 170 193 
202 134 321 114 95 86 
149 274 399 141 95 106 
175 1004 359 105 71 40 
174 809 431 72 62 71 
179 684 477 57 98 160 
195 281 408 60 84 112 
156 899 400 145 106 78 
86 712 471 192 191 199 
327 618 326 121 86 70 
283 632 251 109 118 130 
299 763 337 150 119 98 
235 808 266 179 126 88 
238 416 257 98 115 134 
320 396 357 50 93 123 
237 152 464 114 23 37 
305 704 380 53 67 79 
162 141 316 68 95 120 
284 488 275 108 120 138 
279 424 289 87 107 130 
333 279 446 108 110 114 
152 955 402 116 92 75 
152 149 355 42 42 47 
158 567 424 170 167 172 
287 735 390 123 112 104 
195 357 430 161 147 137 
340 371 455 194 84 18 
292 313 450 169 128 70 
245 232 388 69 40 33 
170 182 317 105 93 97 
119 648 412 108 132 179 
297 342 448 169 94 116 
140 753 392 132 142 157 
223 826 367 182 121 102 
291 153 431 43 49 57 
200 620 272 137 157 193 
254 762 414 140 139 148 
334 282 474 78 112 142 
325 327 443 78 96 112 
163 886 355 95 76 58 
327 326 428 163 133 98 
316 311 420 63 53 57 
329 738 268 191 175 166 
161 958 330 91 70 43 
317 597 339 97 89 83 
176 900 320 72 55 45 
163 178 324 111 64 75 
275 542 424 134 146 164 
298 596 403 138 154 176 
233 893 369 123 100 82 
221 626 251 161 163 172 
173 200 383 95 70 72 
296 620 403 136 129 128 
303 345 355 106 105 107 
280 668 421 107 123 142 
181 245 449 121 108 94 
173 714 337 108 131 159 
294 222 407 119 76 37 
315 598 318 113 106 102 
281 694 420 75 116 148 
227 468 245 83 115 146 
209 547 269 140 148 161 
245 524 446 107 122 147 
317 659 383 151 111 61 
344 398 434 164 142 127 
162 620 489 103 88 74 
321 542 362 99 125 157 
193 110 435 95 83 71 
299 145 428 72 63 56 
112 757 445 98 139 187 
193 799 418 191 162 134 
220 873 412 157 121 88 
230 244 289 122 145 171 
332 735 219 204 143 158 
170 635 410 37 63 89 
345 635 259 41 50 65 
257 121 465 105 85 68 
247 267 291 105 147 183 
225 165 401 96 72 63 
232 193 466 97 44 75 
267 235 312 128 127 130 
216 793 272 104 94 87 
268 557 291 99 122 147 
216 388 288 125 130 151 
231 346 426 126 128 136 
95 661 448 112 126 148 
221 503 268 65 103 149 
337 316 396 110 126 144 
306 587 391 110 133 180 
237 798 388 207 149 124 
240 121 450 111 94 81 
254 397 425 88 103 120 
300 647 237 68 97 126 
167 824 398 158 140 128 
169 643 461 50 71 96 
316 148 421 85 95 107 
185 607 374 62 98 126 
199 106 435 94 80 66 
160 306 408 114 119 129 
180 403 326 73 106 150 
194 321 448 151 151 159 
163 1000 366 141 110 78 
189 761 451 125 88 96 
235 361 280 90 106 123 
134 132 366 108 58 15 
234 189 323 40 54 66 
143 631 472 73 74 78 
148 661 386 111 133 173 
198 267 320 131 139 153 
152 949 406 113 88 71 
328 270 416 83 90 99 
147 529 388 154 158 173 
237 617 277 76 66 62 
118 633 442 64 84 103 
238 601 463 57 64 73 
147 932 340 93 76 61 
208 632 273 124 132 147 
333 148 429 62 57 73 
266 562 292 103 118 136 
217 415 294 120 141 168 
255 364 436 84 105 137 
269 795 352 220 157 131 
355 646 331 117 143 170 
222 723 251 187 58 67 
185 514 327 142 144 152 
240 193 403 85 41 25 
216 963 340 127 96 59 
261 271 457 154 151 155 
139 783 461 189 211 238 
299 338 288 104 127 165 
182 615 294 158 159 169 
162 429 434 159 129 91 
203 240 417 129 51 82 
195 229 431 85 93 103 
349 182 420 55 88 116 
204 210 409 77 90 111 
181 965 317 102 76 40 
281 515 278 94 122 167 
176 842 375 177 127 100 
303 675 396 151 104 48 
127 678 501 171 111 91 
318 485 325 154 157 166 
292 310 451 168 124 66 
319 386 327 82 114 148 
187 638 284 173 171 178 
307 774 285 157 101 95 
201 101 438 92 78 62 
235 217 387 68 47 39 
200 103 437 93 79 64 
295 469 422 71 94 158 
189 690 468 58 95 174 
234 735 244 136 38 80 
212 667 243 94 99 106 
134 628 449 45 64 81 
217 974 366 106 86 70 
233 120 479 132 116 106 
203 100 439 92 78 63 
158 790 454 204 131 129 
267 233 398 79 56 61 
146 773 465 157 177 201 
354 215 446 53 34 50 
336 305 473 80 131 170 
238 892 368 136 107 81 
141 715 478 161 169 184 
317 743 280 173 156 144 
172 524 342 74 106 137 
328 333 453 133 124 121 
335 674 365 76 78 83 
144 702 408 45 81 147 
150 338 401 84 103 124 
299 162 426 43 51 60 
164 339 414 126 101 82 
175 1003 359 110 78 46 
285 634 249 106 116 130 
187 609 372 68 99 124 
236 389 422 77 94 123 
269 799 342 219 157 131 
310 760 286 124 95 69 
352 293 420 153 155 163 
142 733 411 42 61 132 
191 155 428 51 50 52 
369 684 246 117 154 189 
170 739 343 123 52 54 
333 456 427 183 185 198 
209 893 428 186 134 113 
295 662 230 127 124 126 
164 711 358 169 170 187 
152 420 371 80 105 146 
171 360 420 133 113 92 
361 642 282 71 96 117 
175 859 336 151 107 78 
183 322 411 100 111 125 
202 97 440 92 77 60 
200 560 314 93 109 138 
128 781 451 194 203 221 
223 422 269 94 118 151 
148 275 394 137 71 92 
355 304 464 136 155 178 
174 210 386 113 56 50 
204 97 441 91 76 61 
298 366 442 76 109 150 
311 187 418 94 40 34 
253 567 449 72 119 155 
329 146 428 47 64 90 
242 553 262 132 147 166 
356 156 449 125 27 20 
208 312 313 168 117 48 
255 231 296 123 124 128 
145 971 346 121 102 85 
161 637 325 69 106 135 
200 402 463 113 97 95 
255 573 447 79 126 163 
208 841 307 237 168 124 
159 644 499 165 114 85 
154 944 336 80 61 45 
206 99 440 91 77 62 
336 445 427 176 180 193 
315 490 345 99 116 155 
164 241 393 34 35 43 
201 737 299 140 70 55 
163 976 392 94 77 68 
191 280 327 131 129 133 
316 380 435 93 98 123 
163 579 428 123 140 160 
180 779 322 140 121 105 
232 345 426 116 120 129 
301 788 249 218 197 181 
184 799 432 51 47 60 
221 800 401 149 157 170 
141 432 403 129 111 92 
245 392 268 58 91 124 
107 663 432 61 89 132 
250 476 437 164 157 157 
336 666 217 81 104 129 
318 621 330 104 68 64 
221 165 468 88 38 36 
168 489 355 159 154 157 
269 579 431 118 118 136 
328 345 455 159 150 148 
216 874 419 171 131 107 
176 535 340 72 98 132 
244 446 433 93 107 143 
168 875 413 149 113 85 
184 590 359 110 30 45 
238 776 258 167 140 114 
187 943 434 196 154 130 
200 108 433 95 82 69 
232 627 266 72 106 142 
349 270 429 122 119 127 
116 704 433 91 118 150 
260 639 251 47 74 97 
115 734 483 131 144 187 
208 388 300 133 146 164 
147 470 389 53 85 139 
233 356 424 73 89 125 
246 338 437 152 112 57 
289 393 297 112 124 142 
213 606 477 87 77 71 
199 257 430 120 123 132 
256 522 276 164 168 188 
202 110 432 96 84 72 
182 951 325 125 98 73 
185 279 402 65 96 121 
360 150 468 170 66 9 
172 830 336 171 129 97 
223 468 276 93 119 150 
192 807 409 205 189 180 
254 741 237 86 75 108 
202 812 286 177 129 93 
334 442 379 130 142 160 
123 755 471 113 125 195 
164 369 421 147 126 106 
171 402 353 114 127 145 
201 355 452 113 99 85 
263 150 471 74 96 118 
193 818 301 168 124 90 
338 424 431 120 131 168 
155 496 443 83 112 149 
215 444 459 95 103 135 
153 966 390 91 73 62 
300 393 296 123 138 162 
335 435 432 111 138 177 
330 758 250 127 128 134 
226 690 451 166 162 165 
228 947 348 100 79 64 
265 731 430 179 55 63 
98 684 438 106 119 161 
222 719 249 162 33 44 
270 132 444 148 79 8 
205 108 435 94 82 70 
327 703 334 183 137 92 
273 267 290 118 126 137 
237 195 297 95 45 40 
201 143 385 82 73 66 
134 689 412 99 128 160 
207 780 278 149 136 126 
191 215 312 171 164 165 
144 806 428 195 156 134 
301 793 259 120 141 163 
349 186 479 68 46 67 
167 535 450 103 121 154 
200 803 409 111 105 107 
171 862 343 139 111 82 
186 334 415 121 17 53 
290 213 437 84 52 52 
149 174 353 102 92 83 
174 674 327 159 157 165 
309 592 339 64 77 91 
197 612 466 63 63 65 
215 357 299 86 108 128 
177 935 435 184 140 117 
350 200 486 115 29 50 
194 115 430 100 90 81 
356 299 468 121 149 177 
309 522 322 52 83 133 
259 814 312 226 169 136 
345 699 292 129 161 192 
230 769 424 144 127 116 
208 644 251 174 176 188 
163 633 419 35 79 119 
145 977 332 126 101 77 
336 746 253 163 65 87 
103 742 448 152 170 195 
300 306 385 85 95 110 
312 353 380 97 100 106 
191 568 470 49 55 74 
263 469 264 142 145 155 
193 117 430 105 95 87 
235 477 454 164 160 164 
358 701 204 166 186 224 
193 398 453 161 71 8 
265 310 296 115 132 157 
165 688 348 182 182 203 
259 170 462 152 66 67 
291 785 245 177 117 58 
194 610 323 67 106 141 
261 480 414 134 135 144 
243 472 444 129 135 147 
308 269 413 56 70 84 
193 589 269 105 78 87 
154 747 469 119 136 180 
302 197 412 61 69 79 
311 372 293 69 106 143 
244 548 270 88 115 143 
243 379 424 45 73 105 
258 716 447 113 155 192 
309 749 360 150 145 146 
178 466 452 61 88 122 
327 375 451 127 103 74 
331 278 435 114 120 131 
209 222 294 133 142 158 
180 129 308 118 97 75 
209 669 254 71 129 173 
343 252 453 115 93 99 
196 115 428 101 91 82 
98 726 445 145 155 172 
271 468 415 76 98 142 
148 201 360 125 47 73 
231 925 356 90 67 54 
339 228 458 75 23 59 
189 462 459 97 120 149 
355 209 420 126 56 66 
169 869 344 115 92 71 
140 358 388 112 127 144 
345 350 440 176 144 107 
213 493 305 119 125 136 
157 636 500 144 108 81 
304 651 233 53 85 117 
144 246 358 98 101 110 
355 181 424 73 103 130 
321 518 392 149 155 171 
348 209 484 116 36 52 
342 215 475 77 32 49 
183 803 427 195 170 168 
320 608 283 71 84 97 
214 240 448 140 132 131 
195 816 401 160 149 144 
197 116 427 101 91 83 
294 308 450 164 123 70 
181 797 440 99 90 91 
323 462 402 85 111 160 
169 281 398 65 73 84 
264 614 275 84 112 134 
221 136 467 166 67 9 
318 731 354 151 128 106 
145 969 339 129 103 75 
190 635 360 76 86 98 
161 892 359 78 63 47 
172 469 348 152 149 152 
297 566 319 76 94 113 
151 633 421 41 88 132 
199 557 289 91 108 127 
319 395 309 66 102 142 
344 382 446 184 127 107 
226 630 468 185 129 115 
199 974 329 119 95 72 
292 621 419 148 152 164 
318 519 356 91 112 134 
199 119 424 103 94 85 
342 158 417 159 72 8 
265 805 336 224 163 135 
168 417 434 144 122 99 
304 533 318 92 108 126 
121 668 511 156 114 85 
311 228 411 55 73 88 
195 256 404 86 70 78 
75 688 490 125 153 188 
253 128 452 133 88 55 
80 701 473 112 119 175 
224 454 457 146 143 146 
336 293 397 143 138 138 
240 230 369 94 36 21 
143 979 334 152 131 113 
199 123 421 105 96 88 
291 193 409 49 59 74 
92 712 451 182 172 171 
154 971 367 69 47 40 
146 534 411 111 120 161 
197 124 422 105 95 87 
323 494 397 135 144 159 
143 681 489 108 127 172 
269 207 449 108 80 106 
149 307 386 149 150 157 
193 226 430 57 74 91 
198 124 421 105 95 88 
163 514 451 120 142 170 
212 789 417 166 137 106 
176 452 339 105 123 149 
208 222 295 127 139 156 
317 598 340 96 87 80 
219 162 299 98 79 74 
174 610 405 93 108 127 
248 557 453 173 165 165 
223 416 270 167 167 175 
317 321 433 72 65 62 
301 550 318 133 135 143 
188 614 372 64 84 103 
221 843 319 218 162 129 
190 861 421 122 100 76 
202 300 435 71 108 140 
161 335 413 115 68 77 
149 310 387 141 143 151 
338 695 207 64 105 140 
282 716 411 159 45 39 
256 132 441 176 77 28 
192 403 457 130 77 35 
289 471 421 74 94 153 
183 867 422 154 122 96 
194 388 453 158 80 17 
310 372 349 73 99 125 
211 540 276 107 123 143 
191 160 440 89 42 64 
221 759 442 160 121 119 
299 126 431 108 69 22 
356 259 417 141 130 126 
343 687 329 160 137 142 
286 408 433 71 88 149 
273 286 286 127 140 158 
306 241 411 82 85 91 
243 231 387 65 41 30 
160 829 372 135 134 137 
324 395 425 167 138 107 
194 341 456 135 103 84 
299 773 240 178 154 135 
151 553 401 218 200 191 
162 489 449 100 122 146 
321 169 422 83 24 28 
96 650 470 84 100 116 
235 151 463 140 31 48 
179 776 324 69 67 68 
179 238 328 156 152 155 
216 348 300 60 96 125 
172 925 433 146 121 98 
263 801 256 178 135 87 
221 870 344 175 132 101 
361 224 488 105 99 99 
222 238 455 105 34 59 
143 920 350 91 72 60 
139 703 413 77 106 169 
127 631 445 61 83 103 
228 896 402 166 117 88 
309 339 311 74 102 127 
76 675 471 87 103 141 
250 559 292 146 141 142 
178 301 335 136 112 116 
107 687 509 179 125 104 
209 395 300 165 166 175 
189 301 410 116 118 124 
186 317 412 99 106 118 
186 589 307 94 124 153 
342 272 401 92 129 164 
95 676 445 115 129 161 
241 196 317 66 61 66 
232 941 356 78 60 51 
109 668 512 167 123 99 
161 664 329 175 166 170 
152 272 353 119 73 94 
161 456 365 105 122 145 
249 424 263 116 129 146 
148 181 332 136 58 0 
256 299 296 157 157 165 
179 632 297 93 139 175 
158 568 416 160 159 167 
289 282 315 108 51 45 
196 127 425 114 79 50 
197 126 424 111 83 58 
328 142 421 149 87 59 
327 760 254 101 86 115 
254 206 456 32 56 98 
329 449 372 50 79 112 
202 119 422 103 94 85 
348 342 462 117 128 145 
220 928 334 89 68 55 
177 459 450 100 87 75 
237 119 451 105 91 81 
156 631 427 32 79 122 
291 779 302 160 113 81 
165 505 453 165 159 161 
138 760 398 144 153 169 
293 572 418 68 108 157 
353 240 437 126 38 72 
156 737 470 90 122 172 
209 650 257 146 155 172 
251 203 404 69 44 47 
200 589 260 142 145 156 
314 740 358 172 131 94 
209 593 462 101 121 146 
239 428 254 81 108 134 
320 553 380 80 117 180 
175 686 327 95 127 157 
199 531 312 89 110 134 
292 375 297 90 119 152 
243 515 250 147 162 185 
101 689 508 183 131 113 
143 141 349 147 127 106 
124 731 423 92 114 139 
316 529 334 132 137 152 
166 542 353 157 159 168 
242 562 270 100 121 144 
238 160 415 138 55 10 
350 680 305 126 157 188 
158 559 374 223 207 200 
200 113 429 99 88 78 
258 410 272 125 135 150 
342 195 415 94 86 80 
177 633 304 78 127 165 
235 598 460 55 86 110 
177 629 304 87 125 157 
180 780 450 173 130 68 
260 255 391 85 67 67 
128 695 422 54 87 156 
285 426 429 117 133 165 
216 867 413 147 117 85 
122 771 454 180 197 220 
340 676 211 95 111 130 
322 376 422 134 17 61 
162 247 339 98 105 116 
209 659 282 57 110 145 
131 719 481 46 52 114 
172 684 338 145 147 156 
193 415 447 164 72 7 
329 603 310 117 110 105 
254 353 440 136 135 140 
347 218 412 111 73 66 
257 646 253 98 102 110 
258 810 342 225 163 139 
237 568 259 84 76 92 
228 903 395 158 110 77 
186 630 331 96 106 119 
197 704 301 147 165 188 
297 610 417 130 148 169 
208 724 279 134 71 74 
213 513 256 79 113 151 
197 988 324 135 102 71 
272 307 377 69 86 102 
212 174 292 142 111 77 
319 465 323 161 161 167 
196 771 297 133 117 104 
201 317 440 125 126 133 
195 501 467 157 153 156 
189 136 452 106 90 89 
271 634 428 133 137 162 
215 375 439 53 86 134 
188 156 380 100 85 70 
266 257 289 86 89 93 
286 627 422 199 136 144 
247 698 449 153 169 191 
352 652 336 104 139 176 
361 664 314 142 166 198 
241 690 447 135 155 178 
167 300 340 133 120 121 
162 650 494 175 118 94 
207 114 427 101 89 79 
188 214 313 167 163 166 
184 639 350 83 93 105 
278 179 419 89 50 62 
172 696 341 97 105 148 
307 208 409 81 54 58 
188 700 465 85 122 176 
263 247 455 114 83 77 
310 633 367 137 98 87 
191 777 305 160 132 102 
153 685 368 118 138 163 
296 313 450 171 129 72 
163 688 480 196 193 199 
189 623 447 40 46 53 
340 293 451 105 119 136 
206 182 406 98 82 87 
236 749 250 171 137 97 
290 797 293 195 144 114 
231 790 403 113 123 135 
252 518 271 134 152 178 
206 114 428 100 89 78 
273 274 454 97 120 145 
303 327 448 167 129 74 
142 802 433 185 76 87 
219 207 459 140 35 19 
271 622 433 83 89 107 
254 491 437 111 125 148 
323 656 228 93 109 127 
232 717 240 166 22 44 
206 116 425 102 92 82 
185 574 347 175 161 153 
310 742 220 183 15 35 
345 367 405 114 144 173 
297 620 418 186 181 186 
343 389 400 191 164 136 
275 620 277 76 96 116 
343 246 406 122 93 82 
188 825 392 147 109 81 
220 172 379 73 37 28 
212 698 455 138 163 194 
192 589 279 84 122 153 
198 481 467 80 100 139 
202 658 451 105 120 142 
337 247 437 89 92 97 
108 751 450 134 141 188 
186 540 468 95 113 141 
364 648 276 48 93 128 
119 683 427 151 161 181 
223 333 428 113 120 133 
196 472 467 163 161 166 
173 477 342 138 142 152 
325 384 428 155 128 98 
258 561 440 146 144 148 
299 346 368 75 88 102 
349 264 487 165 164 171 
352 235 498 103 101 127 
233 350 287 95 108 123 
144 729 372 139 154 174 
176 477 335 156 151 153 
202 121 420 103 94 85 
179 896 429 176 135 112 
151 630 495 113 92 70 
217 639 457 103 75 84 
277 175 441 72 60 68 
322 437 414 64 64 67 
265 572 296 99 112 128 
211 466 309 141 141 146 
114 685 507 173 115 95 
234 305 427 117 123 134 
273 13 375 159 136 123 
161 893 413 154 114 87 
150 443 403 72 81 104 
247 132 479 162 83 4 
178 835 381 170 123 96 
313 371 357 124 128 136 
206 228 300 112 128 150 
230 185 467 105 58 77 
152 272 401 120 42 70 
329 419 420 117 67 44 
278 587 425 121 99 102 
348 177 500 95 56 52 
174 524 339 112 116 126 
150 983 329 106 83 65 
179 344 415 138 119 98 
205 259 429 110 111 117 
183 769 319 87 81 79 
297 496 417 127 139 161 
165 209 384 108 50 45 
309 783 265 170 161 158 
309 353 437 94 102 121 
196 496 467 114 123 139 
235 832 294 245 190 156 
220 172 352 50 54 63 
279 258 311 89 111 133 
318 402 333 131 146 167 
249 548 448 170 159 153 
175 430 439 136 64 0 
284 483 277 97 114 134 
160 915 332 72 56 44 
320 399 418 148 124 99 
159 709 358 120 150 192 
274 222 402 99 56 60 
223 843 334 185 137 113 
149 760 369 113 38 41 
220 463 252 80 114 144 
180 859 384 154 116 91 
283 817 277 228 165 132 
194 373 460 143 96 56 
262 564 436 147 143 146 
183 890 323 88 70 59 
218 410 462 50 81 134 
169 678 481 143 147 158 
262 204 407 85 49 41 
341 231 408 98 94 99 
198 270 321 140 143 153 
283 755 227 85 107 127 
340 409 428 125 100 64 
277 530 412 122 133 150 
211 231 444 118 111 109 
177 877 424 154 120 96 
340 657 345 125 155 184 
205 120 420 104 94 85 
123 639 471 43 53 64 
314 747 304 164 137 108 
319 430 311 121 142 165 
181 644 394 43 58 73 
312 595 372 106 124 147 
320 146 421 84 84 86 
319 770 261 215 180 150 
352 304 473 80 128 165 
153 142 343 47 66 82 
349 293 402 133 134 141 
296 782 292 173 126 94 
142 932 349 91 75 59 
106 644 466 79 93 108 
279 616 428 175 108 108 
298 249 398 74 67 83 
214 856 327 185 141 108 
223 390 273 149 155 166 
191 638 473 126 90 85 
220 732 257 149 122 90 
108 742 471 223 216 221 
212 149 302 99 100 106 
219 389 431 76 95 128 
106 643 484 88 78 68 
206 134 307 128 116 108 
136 916 361 89 74 58 
181 610 387 83 88 99 
298 650 410 75 87 101 
205 983 375 113 93 76 
214 951 331 76 56 48 
178 620 419 38 50 62 
190 368 321 88 113 139 
170 866 375 152 119 88 
238 907 368 138 94 72 
196 112 432 97 86 75 
353 685 293 145 168 194 
245 566 292 112 111 114 
189 644 462 46 55 106 
208 102 439 91 78 65 
353 189 434 34 37 55 
215 916 327 68 50 43 
279 540 286 110 124 154 
216 380 451 85 101 144 
136 710 416 76 104 154 
185 797 433 136 130 129 
267 156 422 133 103 71 
365 148 510 127 112 101 
231 803 267 156 110 75 
179 182 381 42 44 64 
206 828 382 171 122 97 
229 268 451 84 108 132 
226 515 470 33 75 114 
255 815 325 226 169 142 
315 553 399 136 152 174 
161 959 411 141 108 92 
203 430 464 62 80 117 
162 357 365 153 153 159 
242 356 425 57 76 104 
301 222 404 110 48 49 
299 368 292 74 113 155 
284 540 414 117 127 142 
349 302 476 100 140 173 
167 586 387 109 127 155 
253 429 266 125 132 145 
98 651 448 105 119 136 
310 358 378 100 100 102 
306 359 349 141 140 145 
314 380 337 72 115 149 
219 368 429 44 82 124 
262 585 438 81 110 136 
321 544 380 173 176 187 
152 684 480 140 152 178 
265 538 282 133 148 173 
284 699 216 110 125 150 
207 686 285 122 136 156 
270 419 280 93 115 141 
296 479 420 148 158 174 
209 102 440 90 77 64 
210 100 441 89 76 62 
236 503 248 87 114 139 
210 101 441 89 76 63 
211 100 441 89 76 63 
200 559 306 123 139 160 
357 639 279 138 146 160 
190 460 459 96 114 149 
210 103 440 90 77 64 
329 137 431 110 99 102 
77 686 498 118 103 139 
150 515 434 157 154 159 
209 447 310 152 159 173 
235 188 318 53 68 82 
265 330 451 153 46 92 
231 178 311 46 59 72 
357 672 306 134 159 186 
200 290 419 139 140 147 
278 548 423 168 165 171 
291 275 442 107 90 87 
322 436 330 110 127 155 
362 154 460 121 116 121 
190 592 351 120 123 131 
154 910 348 85 70 61 
170 594 391 139 142 153 
199 560 319 97 110 126 
195 285 433 130 136 148 
357 186 459 128 41 40 
344 240 460 133 0 67 
217 723 451 142 163 188 
203 409 464 77 90 119 
283 607 301 83 80 80 
185 892 430 169 124 105 
317 622 357 151 96 89 
369 681 255 107 130 171 
278 645 419 143 130 125 
226 913 350 76 61 50 
255 215 401 74 44 44 
162 882 403 154 116 87 
172 501 340 111 123 143 
150 772 464 171 183 203 
301 631 392 162 106 99 
148 258 367 142 105 82 
183 326 412 127 118 113 
172 748 338 146 25 43 
151 191 352 102 112 123 
174 567 456 84 110 148 
164 310 408 102 102 105 
164 257 397 75 47 63 
278 142 431 93 94 98 
317 387 357 77 109 137 
195 813 297 167 120 89 
220 494 296 126 132 142 
177 373 331 66 95 146 
185 841 324 174 131 101 
308 341 444 141 104 105 
189 875 429 155 124 101 
144 395 382 123 127 139 
323 390 377 78 70 66 
352 170 490 126 44 42 
178 405 432 141 118 95 
315 400 432 74 89 125 
313 152 428 31 53 73 
131 643 505 124 98 70 
98 709 498 145 168 215 
158 503 446 94 114 145 
195 600 320 102 125 153 
346 387 437 199 84 12 
224 924 412 179 136 109 
339 257 488 142 6 69 
345 667 318 118 151 182 
268 388 287 89 106 127 
221 868 362 151 116 89 
221 258 295 91 131 164 
257 634 442 149 98 92 
189 229 396 77 63 80 
172 957 329 73 62 49 
319 649 376 84 88 123 
336 441 429 140 152 177 
320 215 417 85 26 34 
315 361 323 104 123 145 
152 968 353 65 42 34 
200 226 306 113 134 157 
219 837 366 170 122 97 
362 173 454 104 44 52 
175 466 340 148 148 156 
289 459 423 132 144 163 
89 713 483 156 167 207 
210 471 470 113 134 168 
336 618 314 147 103 86 
273 691 441 144 158 177 
285 306 354 116 115 118 
308 251 400 85 58 73 
324 713 365 142 79 37 
292 332 368 104 107 113 
208 110 433 96 84 73 
310 474 303 144 155 173 
199 310 426 115 129 148 
173 684 333 119 134 153 
317 493 325 115 132 153 
359 144 488 104 88 73 
157 930 417 165 130 102 
244 781 254 136 116 97 
289 699 216 151 155 166 
260 625 260 114 122 132 
164 771 345 80 77 77 
200 819 293 184 134 101 
211 110 433 97 84 72 
216 145 324 83 87 93 
211 111 433 97 84 72 
117 647 507 121 96 68 
160 821 354 118 123 133 
113 638 435 84 103 122 
332 688 296 20 56 143 
211 109 436 93 80 68 
331 437 402 155 46 91 
194 401 316 110 128 153 
144 366 377 147 134 125 
213 104 439 90 77 64 
359 648 238 175 177 187 
210 132 466 163 72 7 
213 107 437 91 78 66 
220 131 399 89 80 72 
213 106 438 91 78 65 
352 195 472 105 35 57 
351 654 332 125 153 182 
262 638 247 80 109 134 
160 214 337 132 57 76 
314 373 340 70 110 142 
92 649 489 85 75 67 
152 528 377 101 113 136 
236 210 353 80 41 39 
328 177 422 86 38 31 
232 421 439 155 150 151 
221 480 264 104 130 160 
149 433 386 70 93 141 
160 651 345 74 78 86 
161 685 345 128 144 165 
315 389 339 59 97 140 
249 510 440 90 102 138 
219 166 345 77 57 60 
160 268 342 146 145 149 
342 389 389 155 151 153 
221 701 243 144 143 155 
220 822 285 199 145 112 
368 163 533 132 116 101 
114 639 494 95 81 67 
262 282 457 149 144 146 
199 392 461 138 119 98 
214 129 469 166 63 7 
149 264 375 136 108 101 
178 339 337 92 112 135 
343 714 281 139 90 92 
196 669 289 181 178 187 
213 108 437 92 79 67 
176 990 380 97 75 57 
244 746 246 136 122 114 
188 560 335 155 148 148 
214 109 437 92 79 67 
290 680 416 85 101 118 
146 253 347 49 83 112 
284 282 449 116 123 135 
227 838 309 233 175 138 
219 167 353 69 55 66 
184 850 382 154 111 85 
269 642 427 138 92 80 
252 376 430 42 73 115 
317 483 342 117 135 161 
311 667 386 141 90 37 
321 427 319 136 153 174 
224 462 281 153 158 169 
194 747 306 61 48 76 
244 235 462 98 81 87 
173 756 332 125 110 100 
193 840 316 193 144 112 
298 688 396 128 92 63 
257 226 456 78 100 116 
163 832 360 185 142 111 
276 567 420 120 136 156 
205 982 351 113 87 64 
147 270 370 132 59 88 
314 369 298 66 105 137 
143 925 349 77 63 54 
217 99 445 86 73 61 
217 98 446 86 74 61 
110 740 474 195 192 210 
123 638 471 40 50 61 
170 233 332 88 109 130 
241 576 287 95 98 105 
308 743 366 181 157 137 
275 343 297 84 115 143 
376 697 203 190 208 243 
146 413 378 70 99 143 
304 473 292 99 122 159 
229 658 243 88 111 134 
298 610 415 122 141 163 
269 622 276 49 83 110 
170 907 324 70 58 46 
230 440 448 97 110 136 
317 299 405 64 75 88 
291 359 295 126 145 172 
214 199 289 140 45 62 
280 260 309 94 113 133 
163 643 362 69 86 103 
216 101 444 88 75 62 
186 464 327 93 116 149 
265 367 287 86 108 132 
253 817 320 228 172 141 
217 102 444 89 76 62 
304 432 292 71 101 129 
232 653 452 138 168 201 
167 828 344 182 138 108 
317 250 400 98 94 96 
199 579 323 99 120 143 
248 822 323 207 147 119 
312 473 308 176 176 184 
190 527 321 120 136 158 
224 470 285 126 135 153 
171 998 372 147 108 75 
246 491 253 64 96 130 
275 606 428 101 72 82 
294 296 387 102 107 117 
239 439 251 48 84 111 
290 573 312 115 110 108 
209 715 278 138 92 102 
183 629 402 35 45 54 
266 589 437 64 103 134 
221 507 295 41 77 125 
303 400 295 92 120 156 
276 192 416 53 59 68 
172 986 377 118 94 70 
174 338 414 114 54 54 
191 329 445 136 137 145 
234 194 328 37 52 64 
318 407 302 82 113 153 
150 319 394 142 146 155 
304 755 356 164 154 152 
228 901 397 161 114 80 
346 370 399 204 176 146 
245 791 258 154 143 136 
332 656 222 78 104 131 
354 301 458 97 124 151 
180 329 334 89 110 136 
304 353 345 98 117 136 
241 447 250 95 116 136 
172 641 455 25 51 70 
333 458 425 152 167 190 
289 301 332 106 87 94 
180 877 330 130 92 63 
343 246 422 53 74 97 
147 175 347 91 79 72 
272 608 313 57 77 97 
216 108 438 90 77 65 
333 737 220 215 103 122 
173 350 350 148 147 152 
209 829 294 200 141 112 
281 475 418 140 147 158 
210 782 275 152 139 130 
181 326 412 133 121 111 
138 916 380 88 65 49 
282 594 313 54 44 43 
192 278 435 120 132 148 
242 302 442 119 108 101 
204 731 451 130 150 173 
292 407 433 90 104 162 
188 501 465 100 118 140 
174 491 457 78 105 139 
249 731 447 87 117 160 
229 433 254 75 96 120 
317 597 336 99 90 84 
144 161 356 96 89 85 
303 693 386 121 98 94 
317 482 347 141 144 154 
289 305 384 75 86 99 
218 110 438 93 79 65 
230 816 376 202 133 113 
208 606 478 85 78 74 
338 235 486 19 54 88 
153 728 474 138 160 185 
177 641 355 89 95 104 
327 184 419 85 31 30 
301 438 291 94 115 137 
197 985 322 140 110 79 
130 132 361 157 78 24 
221 579 471 59 75 90 
219 233 454 86 105 122 
151 282 356 153 153 163 
171 218 328 78 124 159 
195 145 300 105 109 116 
325 340 419 153 129 103 
321 178 415 95 68 49 
321 650 374 89 108 127 
227 465 246 120 132 150 
196 612 473 76 74 74 
149 485 376 92 112 148 
212 788 417 170 141 112 
74 686 479 133 142 175 
104 743 449 144 164 193 
362 200 441 128 30 56 
322 614 350 150 103 91 
151 182 351 128 47 7 
187 170 438 84 37 34 
219 105 443 88 76 64 
147 401 376 80 108 141 
208 642 256 93 125 169 
132 759 470 143 161 184 
208 861 419 122 97 70 
241 192 310 83 70 67 
232 518 464 123 132 151 
281 607 291 80 77 78 
181 688 307 168 163 165 
219 200 459 141 36 23 
230 925 354 87 64 53 
139 911 359 112 92 74 
272 167 457 119 69 63 
162 678 338 184 184 202 
242 574 290 95 99 106 
250 677 445 98 122 159 
193 602 355 63 100 130 
263 370 285 97 118 140 
205 804 406 132 128 130 
156 923 332 92 73 57 
220 104 444 88 75 63 
344 700 291 111 143 171 
324 297 429 69 71 81 
197 725 305 105 44 53 
221 105 444 88 75 63 
225 380 274 56 88 115 
185 202 442 88 37 40 
251 585 301 64 78 92 
329 214 407 80 84 93 
223 105 445 86 74 62 
262 244 455 83 96 110 
223 104 446 86 73 61 
158 690 344 85 140 186 
223 105 446 86 74 62 
