ply
format ascii 1.0
comment Created by CloudCompare v2.11.1 (Anoia)
comment Created 2/28/22 9:39 PM
obj_info Generated by CloudCompare!
element vertex 2009
property float x
property float y
property float z
property uchar red
property uchar green
property uchar blue
end_header
283 536 291 94 117 142 
146 239 376 112 100 111 
183 873 328 145 107 74 
236 220 288 135 140 151 
248 680 211 88 104 122 
206 97 377 97 78 59 
207 96 377 94 75 58 
134 936 369 72 61 51 
317 505 339 80 105 142 
355 660 226 0 48 72 
243 534 251 118 140 166 
172 894 326 89 68 53 
207 98 377 97 78 59 
159 307 356 150 129 114 
268 773 236 166 144 126 
232 692 460 168 177 194 
124 753 472 110 127 191 
193 626 435 28 46 62 
153 477 372 99 117 156 
351 195 493 101 84 98 
227 919 397 180 131 101 
280 300 350 86 95 106 
249 325 428 175 142 104 
251 122 455 111 96 84 
207 100 378 96 78 58 
211 811 397 120 123 129 
332 269 466 76 107 133 
167 715 357 137 135 140 
229 363 429 33 74 124 
235 519 228 141 163 195 
242 808 366 210 141 123 
218 162 362 95 28 28 
188 700 478 71 105 179 
245 546 267 101 120 140 
191 709 470 130 155 186 
311 294 437 99 101 108 
250 251 460 94 91 104 
196 855 320 158 124 100 
231 598 461 124 136 158 
259 524 429 142 146 156 
329 641 344 91 109 143 
184 573 343 142 141 146 
81 676 485 114 135 159 
200 429 458 140 101 90 
255 598 446 82 68 73 
246 139 474 170 83 16 
344 241 436 96 78 106 
202 104 374 98 78 58 
257 262 379 101 100 101 
312 589 362 68 97 141 
340 281 390 149 143 142 
161 256 343 142 140 144 
316 372 327 90 125 155 
276 11 392 109 96 90 
153 325 403 147 152 163 
202 107 374 96 78 58 
339 365 376 155 134 112 
220 569 240 74 114 146 
178 625 450 57 61 68 
143 643 391 84 109 132 
297 301 329 99 98 106 
103 728 453 148 156 172 
291 739 374 169 143 117 
113 645 485 82 74 68 
159 954 333 67 52 38 
298 151 420 54 45 38 
227 357 440 117 116 142 
299 686 210 77 95 113 
315 657 216 79 105 128 
272 255 329 77 72 70 
202 109 374 95 77 58 
326 650 354 115 115 118 
229 389 258 97 115 141 
171 709 479 152 165 185 
182 736 313 129 37 57 
156 544 436 103 117 161 
313 237 407 70 66 67 
82 681 499 60 101 164 
186 911 316 87 69 49 
201 523 304 78 101 126 
320 547 377 73 89 151 
148 808 405 164 154 151 
288 745 375 162 128 104 
116 693 513 101 120 152 
247 805 255 163 115 72 
218 865 359 158 119 88 
358 665 276 54 68 132 
205 105 376 99 80 61 
289 530 294 100 123 149 
313 603 291 107 100 95 
151 365 367 163 159 162 
314 557 395 102 134 178 
325 524 366 175 176 187 
154 245 351 78 73 82 
199 748 286 172 149 126 
206 104 377 97 79 60 
155 306 408 91 49 70 
299 674 213 52 82 121 
163 377 420 139 68 66 
342 212 474 147 83 67 
221 563 238 63 106 138 
167 869 352 139 110 80 
338 248 443 91 96 105 
154 975 321 121 92 65 
222 178 387 65 35 38 
207 106 378 97 78 60 
345 213 458 105 77 94 
173 243 337 143 141 144 
194 589 286 73 103 128 
197 535 308 129 136 148 
193 660 463 30 71 97 
205 109 376 96 78 60 
152 227 401 95 35 47 
156 821 378 205 186 173 
162 416 429 166 138 110 
244 602 274 65 91 117 
267 261 381 98 92 93 
191 606 361 63 96 123 
250 793 249 156 146 145 
227 442 265 118 134 155 
297 306 298 128 75 88 
218 154 470 51 45 61 
160 515 367 104 116 132 
342 711 244 167 76 83 
199 554 471 120 128 142 
193 449 322 113 131 156 
341 424 383 152 137 131 
258 633 243 31 57 75 
307 626 371 109 75 76 
332 290 446 94 106 120 
192 112 352 86 70 52 
349 293 451 132 141 156 
226 371 447 67 88 140 
328 460 358 48 80 128 
193 113 352 85 70 54 
145 777 382 125 51 51 
344 656 304 133 159 187 
221 503 232 101 126 153 
219 896 352 91 70 55 
192 115 353 83 69 54 
227 594 239 175 176 185 
188 577 339 160 151 148 
136 781 419 160 31 46 
337 397 418 149 81 25 
217 701 235 169 188 212 
308 335 371 98 99 104 
146 128 365 115 71 44 
167 995 338 119 84 53 
132 635 439 60 107 143 
229 504 476 123 143 174 
157 516 370 107 121 139 
160 399 363 117 131 150 
354 688 186 144 161 192 
167 975 402 91 78 68 
193 113 356 87 72 57 
356 650 308 145 162 182 
252 323 428 166 134 96 
260 123 472 113 103 94 
260 690 444 148 162 182 
143 318 388 133 140 153 
183 576 347 163 152 148 
188 159 443 92 44 59 
188 184 434 97 43 51 
352 145 491 109 97 88 
170 641 500 162 112 83 
264 146 421 88 82 74 
145 676 416 122 144 179 
131 733 427 99 114 131 
314 498 316 105 123 154 
119 755 466 135 147 201 
237 730 448 119 154 186 
210 807 273 158 114 77 
170 849 361 169 128 95 
194 113 359 85 71 56 
350 686 261 170 191 218 
153 983 326 135 96 62 
323 524 379 169 176 190 
305 638 227 41 60 77 
233 666 457 123 133 149 
175 650 456 41 56 112 
261 272 458 154 152 158 
265 744 420 160 105 123 
152 484 434 91 114 143 
222 383 431 102 118 136 
333 191 406 100 92 95 
213 309 317 170 140 107 
176 924 433 128 105 86 
165 977 390 101 84 71 
290 229 443 152 146 148 
194 113 360 85 71 55 
250 665 218 86 97 111 
219 847 348 176 134 105 
262 237 330 71 90 107 
343 393 423 147 124 103 
362 145 441 125 61 0 
177 407 352 67 94 131 
195 113 362 86 71 55 
289 794 280 193 144 106 
281 15 389 94 68 52 
210 411 303 167 168 177 
282 667 216 138 132 131 
227 630 241 78 100 128 
327 362 372 140 124 108 
237 402 422 38 67 126 
210 447 305 108 127 150 
305 520 310 48 88 122 
144 937 341 82 63 50 
230 336 280 103 115 130 
207 266 415 71 102 128 
205 662 244 62 121 168 
356 157 486 169 65 10 
286 287 334 90 99 109 
208 735 251 154 127 100 
235 216 365 86 37 18 
347 341 447 202 167 130 
181 603 307 126 134 148 
327 699 194 63 110 158 
121 653 514 129 101 73 
114 714 445 83 107 133 
195 115 366 90 74 57 
234 213 377 59 45 42 
182 270 337 137 142 153 
257 350 279 51 91 123 
260 580 440 75 125 162 
159 937 423 172 134 108 
147 217 375 99 102 112 
259 564 441 96 69 86 
210 537 242 83 129 164 
333 234 483 56 77 102 
234 533 471 119 129 143 
181 180 315 139 106 93 
322 449 342 101 117 137 
213 293 433 76 120 153 
274 160 455 92 79 80 
194 970 331 110 84 55 
199 144 424 94 85 78 
155 636 421 45 96 141 
240 754 243 152 130 110 
195 178 390 90 80 83 
165 888 419 149 110 84 
146 354 371 118 128 145 
253 442 415 61 80 122 
329 659 355 67 67 70 
338 132 423 132 70 2 
193 118 364 88 72 56 
282 752 378 201 181 167 
327 430 403 93 83 73 
217 287 431 93 122 149 
224 625 244 55 96 126 
322 200 401 89 86 87 
230 784 408 160 131 101 
209 322 440 135 135 142 
318 119 423 100 84 68 
316 354 436 101 109 130 
317 746 253 154 138 133 
135 916 376 102 80 65 
236 739 237 95 81 82 
336 283 439 124 134 148 
156 551 427 91 111 146 
172 266 338 142 143 151 
173 626 449 54 68 84 
314 262 428 58 56 57 
209 618 251 137 143 154 
174 603 400 129 134 146 
180 944 432 201 160 138 
218 412 464 90 113 143 
316 384 334 74 114 146 
257 440 414 141 140 146 
189 982 318 158 125 90 
294 289 308 110 92 96 
329 140 413 138 105 75 
316 492 317 178 179 188 
304 638 379 80 68 76 
339 232 430 79 51 57 
317 723 309 196 165 166 
204 177 424 78 57 66 
174 325 344 105 118 138 
186 1003 350 109 81 56 
319 484 326 114 129 155 
285 553 298 98 102 110 
268 141 426 138 107 71 
300 486 411 56 81 139 
193 121 366 90 74 58 
280 251 453 131 125 125 
154 898 397 143 106 77 
149 501 381 46 96 153 
353 313 404 136 147 163 
194 367 322 91 113 136 
153 272 407 127 25 73 
154 664 501 170 113 89 
313 727 285 137 130 131 
187 560 465 60 90 116 
262 539 427 113 135 159 
196 950 429 197 147 123 
147 457 376 52 79 132 
144 657 393 85 122 184 
220 275 430 71 112 144 
146 475 386 88 110 141 
275 485 406 58 78 114 
219 175 369 66 34 27 
331 679 332 124 101 116 
208 166 399 114 52 66 
208 211 410 62 95 122 
355 658 300 108 130 197 
165 801 342 126 99 75 
237 239 293 129 144 166 
217 148 347 73 39 36 
103 725 483 208 206 214 
276 739 392 130 118 112 
252 155 416 117 69 13 
195 114 372 95 78 60 
130 700 439 84 102 153 
174 921 431 123 99 78 
333 305 385 93 108 126 
198 981 390 127 109 93 
239 826 317 225 167 137 
162 637 373 54 68 90 
292 793 277 195 142 112 
339 201 469 92 34 33 
291 683 409 74 77 84 
220 155 384 100 62 31 
177 647 478 124 85 77 
303 761 275 196 168 141 
293 586 411 133 148 168 
147 792 453 152 51 117 
84 692 490 126 132 184 
221 214 295 177 79 0 
184 164 381 110 54 8 
192 983 321 148 118 88 
243 600 267 65 90 112 
194 119 370 95 77 59 
166 950 333 108 78 47 
311 552 329 123 133 150 
296 228 396 116 78 34 
168 261 340 144 140 141 
147 743 379 130 148 170 
252 228 386 66 30 35 
311 336 444 168 96 121 
184 636 290 160 159 164 
308 367 294 76 110 146 
224 502 259 60 103 154 
145 633 437 56 101 139 
202 764 450 165 73 70 
228 429 446 81 101 127 
226 413 272 119 136 157 
185 615 479 79 73 68 
247 244 365 74 50 51 
192 354 327 82 108 135 
115 752 458 161 157 197 
187 994 371 167 135 102 
225 458 253 107 127 152 
179 499 459 95 112 142 
186 681 290 83 143 187 
307 483 413 102 123 159 
201 981 355 90 68 53 
202 352 446 154 105 78 
153 899 358 78 64 51 
269 446 414 25 59 112 
262 278 365 87 93 100 
128 634 453 65 86 105 
140 789 405 178 149 112 
209 568 262 80 124 158 
199 112 373 92 74 55 
235 825 273 217 163 131 
275 560 294 86 95 106 
302 211 415 36 43 51 
134 131 378 104 63 18 
259 255 381 82 63 63 
218 638 455 68 53 58 
175 868 385 142 110 83 
334 248 466 79 81 88 
360 659 268 75 112 169 
170 635 501 144 106 78 
180 820 322 168 128 96 
288 519 290 78 110 148 
198 801 413 191 157 122 
329 384 418 172 138 99 
153 174 336 178 72 0 
188 319 329 137 89 92 
349 156 495 147 71 8 
162 576 416 125 144 167 
173 755 331 123 108 97 
225 819 272 204 145 108 
338 353 452 197 165 133 
351 637 294 40 73 127 
157 943 334 90 65 41 
198 116 374 91 73 54 
200 413 458 123 109 99 
198 117 375 91 73 54 
178 175 382 87 81 80 
320 752 221 181 147 107 
275 771 371 133 120 108 
269 418 419 76 96 129 
175 636 337 102 110 121 
193 619 270 130 138 151 
215 578 466 61 66 96 
348 321 407 155 27 71 
201 430 312 83 109 138 
312 154 419 37 50 63 
298 747 215 179 23 46 
317 635 221 68 90 118 
193 121 370 95 77 59 
248 748 432 217 172 161 
192 613 319 73 113 148 
186 673 483 119 138 163 
165 567 435 117 132 155 
196 757 453 83 57 67 
283 147 422 92 75 64 
221 865 332 140 100 71 
345 194 512 130 107 103 
209 224 305 131 129 132 
236 744 444 67 67 133 
194 120 369 94 77 59 
338 216 421 74 32 45 
218 779 257 183 150 117 
214 773 255 158 129 96 
203 981 375 116 97 83 
194 122 371 96 79 60 
174 194 387 70 71 78 
250 819 262 235 166 129 
220 851 357 172 128 97 
167 175 384 97 51 16 
163 572 379 153 163 180 
143 958 365 77 62 50 
168 763 341 55 43 80 
153 554 409 149 156 171 
169 849 354 164 125 93 
151 177 391 103 46 15 
195 123 372 94 76 57 
211 876 336 132 94 70 
205 213 305 131 142 158 
196 547 312 100 112 131 
304 696 369 161 148 144 
161 718 363 166 164 175 
216 149 329 90 81 75 
262 607 295 57 74 92 
120 684 443 106 130 164 
145 497 397 155 152 156 
268 231 457 72 98 121 
329 352 416 162 135 105 
195 223 320 163 158 161 
196 457 456 139 145 157 
269 758 383 143 123 105 
249 435 416 116 123 138 
167 648 357 78 85 103 
253 312 433 154 120 78 
193 127 371 94 77 58 
263 642 240 65 106 137 
225 468 465 84 100 142 
205 176 296 133 105 79 
107 732 480 49 61 132 
152 926 412 160 126 97 
283 244 445 139 131 130 
151 153 382 49 44 38 
205 203 436 118 23 34 
309 516 311 116 129 147 
331 489 372 101 130 172 
203 223 429 100 70 70 
111 647 470 80 98 115 
174 268 338 116 126 141 
259 33 366 155 129 106 
326 694 356 196 86 25 
288 229 396 91 74 52 
159 711 378 123 128 149 
165 655 491 164 109 86 
314 580 362 101 119 151 
160 135 326 109 94 90 
327 137 422 102 90 83 
319 446 319 117 136 159 
168 511 356 55 84 107 
293 580 317 100 98 99 
227 437 272 161 161 168 
158 631 438 16 72 122 
340 667 194 103 118 136 
270 447 260 138 144 157 
182 867 329 163 120 79 
193 295 441 70 109 138 
263 622 442 121 71 75 
141 399 406 182 155 128 
291 229 443 151 146 148 
281 504 277 99 116 147 
198 120 375 90 73 54 
153 788 458 129 157 185 
178 517 460 119 128 148 
173 620 318 109 125 145 
192 134 372 93 77 60 
157 322 410 139 144 155 
162 818 419 199 177 161 
134 193 383 113 63 94 
201 240 434 117 75 62 
299 787 254 159 139 123 
333 247 474 113 6 47 
187 628 377 50 68 85 
165 806 445 177 142 152 
152 965 325 124 99 71 
131 138 378 140 73 6 
347 216 446 93 63 78 
263 128 441 138 89 62 
168 764 341 64 49 76 
114 723 495 110 131 196 
282 153 420 86 79 75 
297 681 211 50 89 123 
331 325 429 150 129 110 
136 705 491 173 170 178 
199 120 376 90 74 55 
192 512 316 18 62 113 
321 395 358 34 67 92 
330 494 368 104 124 169 
266 669 439 76 110 140 
314 619 360 163 115 101 
247 787 249 167 159 159 
170 211 390 100 36 37 
237 207 390 38 39 48 
218 162 382 70 50 50 
212 583 249 118 138 163 
250 252 368 62 50 45 
179 793 320 152 144 142 
188 943 432 199 155 130 
216 512 237 148 153 166 
220 965 349 136 105 75 
297 602 398 120 135 155 
261 642 234 67 101 130 
241 747 240 164 140 124 
244 770 244 164 139 115 
356 193 429 87 35 35 
160 673 491 129 147 179 
190 365 424 140 119 97 
193 136 427 106 50 19 
170 632 347 92 106 122 
199 127 379 89 73 56 
129 170 385 107 96 88 
182 312 409 81 94 109 
197 593 459 73 110 145 
225 836 311 223 168 135 
247 199 307 84 51 56 
159 921 326 74 58 49 
178 620 467 56 55 56 
196 318 444 135 136 143 
245 400 249 133 134 140 
230 537 474 91 118 149 
271 515 425 125 138 156 
194 394 320 91 109 137 
192 139 428 100 55 19 
208 558 252 104 136 166 
215 863 322 142 111 85 
185 998 371 159 126 92 
184 264 443 124 129 138 
294 580 319 87 84 84 
200 116 375 91 74 55 
306 428 419 39 63 115 
348 357 388 142 107 127 
329 720 266 177 107 54 
291 643 229 106 118 132 
197 189 439 71 43 67 
273 266 336 110 108 110 
187 391 430 117 10 51 
296 436 293 96 117 140 
200 117 376 91 74 55 
272 701 437 128 157 188 
247 196 314 65 65 66 
344 252 430 114 95 106 
156 797 355 152 136 125 
170 729 346 131 138 151 
353 223 490 119 84 90 
102 656 514 115 93 69 
282 699 422 138 163 191 
313 421 301 99 127 156 
243 307 291 111 118 129 
144 632 468 34 62 82 
220 774 254 184 147 102 
171 893 426 175 132 111 
171 928 433 147 124 106 
356 232 424 106 61 104 
176 823 328 162 125 93 
161 826 383 162 123 99 
293 630 408 184 181 188 
182 195 442 103 65 79 
200 743 284 83 82 83 
192 947 321 122 91 59 
176 603 427 88 101 129 
342 284 390 141 142 148 
191 614 442 84 92 104 
305 326 448 160 70 106 
205 112 378 97 78 59 
338 622 282 112 91 68 
204 114 376 94 76 56 
328 677 198 93 108 126 
93 656 509 103 83 63 
220 540 477 185 184 196 
278 558 415 90 113 141 
145 289 365 156 158 169 
153 216 398 51 39 43 
206 112 378 96 78 58 
174 942 326 101 76 52 
228 266 307 111 132 154 
218 330 300 99 108 120 
316 510 330 113 134 162 
165 221 391 70 24 34 
329 406 436 135 99 135 
231 812 263 188 132 97 
328 643 210 77 108 134 
296 492 294 73 104 136 
243 563 454 160 155 158 
358 685 236 129 137 185 
96 718 470 86 106 171 
150 925 335 84 67 56 
175 598 386 157 152 156 
178 814 320 153 116 81 
154 725 404 134 131 134 
152 201 394 51 65 79 
349 190 408 110 113 120 
303 761 278 108 93 81 
205 119 379 91 74 56 
142 918 351 86 64 56 
218 598 458 86 103 123 
280 374 437 74 102 157 
312 304 379 87 113 146 
280 729 403 128 116 113 
315 724 314 119 114 115 
267 804 251 225 160 115 
239 284 432 138 138 144 
344 649 203 130 137 149 
305 593 328 83 91 103 
328 385 404 165 139 113 
281 527 416 175 170 172 
218 830 366 174 121 102 
267 269 380 89 90 94 
201 194 395 91 63 77 
307 537 317 118 125 137 
174 546 454 164 163 169 
159 639 405 51 94 134 
208 191 410 85 88 101 
241 584 452 123 125 134 
256 599 446 68 53 56 
327 695 336 188 99 79 
201 123 378 90 73 56 
209 446 466 133 140 153 
299 779 237 225 189 152 
237 412 425 151 145 147 
190 431 445 124 66 11 
316 647 218 62 93 124 
235 413 430 145 141 144 
327 171 412 81 30 38 
205 222 308 108 129 153 
269 328 295 83 105 127 
163 525 354 117 124 136 
211 416 302 49 82 127 
270 363 286 95 114 137 
199 309 450 139 141 150 
169 708 479 110 126 176 
201 124 378 90 73 55 
153 314 362 163 119 70 
154 557 385 103 125 164 
192 845 384 162 122 94 
300 723 207 154 169 190 
313 545 333 83 107 148 
167 649 340 109 64 71 
315 357 323 76 106 134 
101 727 473 57 81 173 
203 124 379 88 72 55 
360 662 227 83 92 105 
299 617 410 176 173 179 
198 304 330 156 125 84 
185 423 342 91 116 148 
192 626 358 78 92 108 
182 982 316 130 94 63 
202 127 380 89 73 56 
324 492 395 75 105 157 
292 729 379 129 123 122 
204 120 378 90 73 56 
324 149 411 58 65 72 
302 533 402 40 76 148 
314 334 373 105 107 113 
214 161 466 99 35 60 
313 472 309 106 125 157 
185 812 408 197 177 163 
282 456 276 135 144 159 
293 350 445 152 151 159 
200 366 453 171 145 119 
236 194 328 38 45 59 
191 200 312 116 108 114 
222 827 363 167 107 88 
209 686 234 159 172 193 
225 724 235 147 41 35 
215 329 305 108 113 121 
178 781 321 123 110 99 
220 522 288 83 96 112 
239 576 459 123 125 133 
297 333 448 146 68 102 
157 526 369 126 135 150 
148 350 404 164 141 117 
358 154 508 148 113 83 
237 615 265 90 99 110 
310 629 356 147 105 95 
184 792 310 142 134 131 
204 124 379 88 72 55 
295 407 295 97 117 141 
228 636 237 88 67 46 
174 738 332 120 123 141 
318 701 276 168 43 88 
182 446 446 125 114 108 
204 126 380 88 72 55 
284 297 345 114 115 120 
159 633 430 34 83 128 
229 832 333 203 151 127 
326 486 357 130 144 165 
247 219 387 46 39 38 
235 705 221 147 140 143 
194 959 330 119 86 58 
215 399 297 93 120 150 
187 899 432 163 116 102 
307 591 349 75 95 114 
242 222 345 66 31 34 
255 631 245 63 72 82 
315 745 258 151 135 126 
208 733 455 151 139 148 
266 374 278 97 117 137 
130 662 516 160 116 88 
215 542 476 112 133 170 
190 288 452 74 115 150 
206 127 383 85 70 53 
321 455 333 123 140 162 
268 22 365 148 129 119 
94 691 510 135 95 81 
319 387 363 92 102 115 
186 487 329 81 105 140 
341 220 474 101 91 95 
325 359 371 133 118 105 
318 377 341 56 103 137 
178 542 337 122 140 165 
80 676 492 130 151 177 
169 809 334 131 120 116 
350 198 512 132 127 130 
196 587 286 75 105 130 
240 327 430 95 118 141 
268 820 264 229 157 125 
175 526 335 142 147 161 
187 617 470 70 67 67 
338 141 414 148 137 128 
348 206 484 132 52 72 
317 607 246 16 76 115 
205 203 424 85 60 66 
285 262 385 95 83 89 
176 700 330 124 140 161 
267 211 450 44 69 107 
192 989 369 161 133 104 
194 670 279 177 179 189 
188 899 314 88 66 45 
193 547 317 116 123 136 
160 563 376 193 186 188 
229 336 282 103 117 133 
308 569 394 121 144 172 
114 694 514 109 126 162 
276 160 438 87 56 53 
209 156 409 80 84 93 
199 312 416 126 125 130 
140 297 370 164 163 171 
278 329 296 153 155 163 
160 560 429 146 151 164 
184 519 323 103 118 135 
316 373 345 80 102 124 
148 523 427 161 157 162 
169 867 343 109 84 63 
208 101 378 96 78 59 
196 595 336 137 137 144 
180 432 441 134 59 0 
180 814 415 175 137 105 
228 793 258 118 94 67 
217 891 423 161 125 98 
294 484 413 152 158 171 
353 249 421 67 116 149 
339 431 372 125 72 85 
227 781 413 195 167 142 
168 815 336 84 95 108 
339 657 199 95 114 134 
164 894 339 72 59 50 
329 389 368 118 94 79 
285 446 282 64 102 133 
217 152 350 72 42 35 
211 538 247 105 49 74 
267 701 208 126 143 165 
158 894 409 154 114 86 
210 248 311 93 106 122 
153 257 405 50 87 113 
319 163 407 100 57 21 
225 398 273 75 112 143 
141 791 402 200 165 125 
275 820 274 230 163 133 
312 467 418 106 130 168 
227 895 376 125 93 67 
226 403 271 124 140 161 
212 98 380 92 75 56 
216 133 342 99 104 112 
284 787 239 233 190 134 
175 343 347 78 105 135 
146 905 379 119 76 55 
142 192 350 78 69 79 
262 743 221 121 113 108 
340 320 408 147 75 59 
196 609 266 99 128 158 
95 709 464 143 142 172 
220 178 357 38 48 57 
210 399 461 88 86 111 
233 199 340 62 40 51 
103 730 471 84 125 179 
289 272 450 103 115 131 
331 677 290 110 138 180 
329 384 400 186 157 128 
118 754 461 161 158 201 
141 943 350 124 99 75 
236 209 347 74 37 45 
144 217 362 109 79 95 
213 103 381 92 74 56 
263 482 410 154 149 151 
223 779 255 180 149 118 
323 522 379 176 181 195 
250 237 383 69 36 35 
316 731 337 179 163 151 
215 101 382 90 73 56 
167 764 342 72 52 80 
169 849 356 166 128 95 
207 975 390 110 87 67 
237 918 379 134 105 81 
313 741 264 160 145 143 
194 764 452 80 85 134 
184 147 437 33 64 92 
93 659 473 64 91 116 
209 718 459 141 165 194 
319 518 387 108 129 176 
338 266 445 151 123 115 
242 328 281 100 109 120 
246 346 274 70 95 117 
179 644 463 71 89 109 
210 106 379 96 78 58 
165 923 322 97 78 58 
138 291 377 125 122 124 
219 164 361 89 32 33 
153 950 409 134 102 85 
211 461 466 83 103 137 
319 201 408 61 41 40 
210 106 380 95 77 58 
234 917 362 174 104 79 
210 406 464 84 98 124 
227 599 461 73 84 111 
194 619 356 93 100 111 
218 753 448 172 69 89 
222 367 453 91 108 137 
315 249 393 86 88 93 
261 173 413 117 34 16 
209 109 378 95 77 58 
169 638 316 83 104 132 
114 737 440 116 136 166 
155 708 412 94 112 143 
242 186 314 52 63 74 
155 719 366 96 118 152 
180 980 404 109 87 73 
149 966 381 90 74 61 
278 513 401 125 128 137 
322 619 316 101 74 52 
198 696 472 110 132 161 
338 192 414 34 38 50 
286 456 282 89 120 149 
339 295 442 80 107 132 
114 646 474 67 92 114 
222 475 289 100 121 149 
222 839 361 181 135 105 
315 376 431 68 82 101 
87 698 483 133 147 189 
287 485 284 89 112 142 
146 805 394 194 155 115 
299 463 293 122 139 163 
365 199 421 125 50 62 
226 283 429 78 115 144 
255 451 242 88 113 140 
212 106 381 93 76 57 
290 362 296 97 121 146 
281 132 427 118 70 8 
321 689 283 91 71 97 
253 519 440 100 114 142 
295 379 296 59 96 130 
149 637 505 121 97 71 
181 194 440 118 55 55 
296 590 321 48 68 87 
251 463 426 94 108 140 
321 320 439 80 68 54 
328 418 363 51 77 100 
298 646 224 41 67 110 
214 106 382 90 72 53 
154 757 473 171 177 192 
131 755 424 111 121 144 
167 797 338 148 120 92 
362 676 254 114 147 190 
149 808 386 182 165 153 
347 718 209 191 186 225 
264 191 453 72 38 39 
285 599 416 70 119 156 
293 423 293 80 109 149 
255 806 349 217 154 130 
190 129 446 135 56 7 
212 111 380 92 74 55 
188 630 356 62 80 99 
317 712 199 121 134 176 
248 284 447 109 124 143 
363 677 232 129 148 201 
184 727 467 132 166 198 
268 142 463 62 75 87 
199 460 464 117 130 148 
185 644 484 164 111 91 
215 109 383 87 70 52 
311 170 414 74 35 41 
354 305 401 168 168 176 
241 633 456 183 123 117 
247 526 450 129 136 149 
194 443 450 127 113 98 
280 771 231 201 173 149 
305 254 390 77 88 91 
316 688 204 118 127 141 
231 307 295 126 129 136 
280 20 389 140 103 80 
150 540 421 105 117 156 
200 824 387 166 117 94 
302 619 404 178 174 180 
273 651 423 66 68 71 
200 884 326 102 74 55 
122 647 511 113 92 68 
292 461 288 102 127 157 
221 267 309 90 128 161 
218 97 382 87 71 55 
330 403 415 139 86 30 
180 403 347 66 98 139 
133 779 454 198 204 219 
133 155 381 128 62 30 
162 641 360 68 94 129 
279 698 432 151 172 197 
236 225 289 133 135 143 
342 390 431 146 122 96 
362 148 443 145 74 8 
246 319 286 120 123 130 
202 244 425 94 54 68 
265 271 379 85 88 94 
190 908 436 180 132 117 
212 627 257 100 120 142 
196 631 268 147 160 181 
327 402 404 164 132 100 
222 695 233 175 186 207 
245 237 365 79 17 32 
227 431 262 161 162 171 
310 770 243 189 164 142 
157 562 416 132 138 153 
329 496 382 172 178 192 
162 484 368 111 117 149 
282 142 426 92 95 100 
324 744 251 105 101 102 
185 220 327 149 148 155 
136 784 422 85 79 127 
188 481 328 85 107 132 
349 304 445 117 134 153 
311 357 338 123 132 145 
221 97 383 90 73 56 
237 246 455 149 146 149 
173 1002 364 129 94 60 
214 148 469 102 44 27 
147 395 384 82 108 145 
269 609 308 53 75 94 
318 488 410 177 185 200 
224 878 406 160 117 86 
225 837 334 192 144 120 
189 759 304 144 105 68 
244 480 447 103 113 146 
198 973 332 101 80 59 
245 396 251 83 105 124 
218 545 266 146 150 161 
289 350 296 68 108 142 
223 99 383 88 72 56 
196 430 318 70 104 148 
325 689 359 191 86 13 
160 150 330 78 63 84 
218 617 237 103 113 127 
283 731 386 144 122 105 
334 664 351 82 98 115 
163 584 407 177 175 182 
203 212 306 165 161 165 
222 100 383 88 73 58 
208 651 270 85 109 144 
281 453 276 139 145 158 
221 880 363 154 117 85 
307 155 411 80 76 73 
188 318 329 131 82 80 
353 293 409 150 153 162 
354 189 434 50 42 51 
318 381 340 68 111 144 
187 522 321 158 155 160 
242 763 420 164 124 93 
339 272 434 150 155 167 
310 709 366 77 75 84 
180 721 313 145 157 175 
159 411 364 139 146 162 
357 654 251 84 112 169 
137 713 431 71 54 112 
197 181 302 116 98 87 
360 663 265 114 146 182 
220 492 237 96 122 148 
224 476 285 111 130 152 
358 659 274 59 84 134 
147 380 386 115 118 126 
362 671 253 94 119 166 
256 595 441 86 105 126 
330 421 398 140 125 116 
191 317 413 98 106 117 
298 616 240 103 122 141 
332 306 456 67 110 143 
229 461 457 136 140 148 
189 728 303 99 104 135 
256 383 265 133 136 145 
216 111 383 86 70 52 
299 302 318 111 113 120 
184 625 421 35 55 71 
192 540 467 96 115 140 
254 719 220 123 44 54 
232 808 380 202 138 117 
173 819 331 154 118 86 
145 517 411 150 150 156 
209 616 243 164 164 171 
348 638 308 101 122 165 
165 677 394 84 99 157 
159 690 356 76 132 172 
272 657 218 85 107 127 
223 940 404 145 110 86 
197 894 436 136 99 76 
187 129 439 118 53 11 
272 23 392 120 75 65 
290 257 387 95 67 69 
230 206 380 79 45 34 
298 768 296 113 97 94 
150 467 427 160 160 166 
223 104 383 85 69 53 
224 445 461 62 84 140 
183 965 421 121 95 82 
228 894 399 170 118 93 
281 266 324 117 117 121 
181 340 417 125 99 82 
293 195 423 57 50 49 
159 394 419 166 143 119 
219 721 455 149 168 190 
339 252 455 81 107 130 
250 213 391 50 46 50 
216 476 466 74 98 147 
244 230 377 36 46 54 
237 791 395 167 158 156 
287 265 385 96 92 98 
265 775 379 116 120 127 
201 902 440 203 146 129 
287 778 292 153 106 73 
366 179 437 109 81 105 
323 669 205 98 116 134 
223 109 382 84 69 53 
144 961 371 93 72 56 
213 480 466 84 100 129 
131 184 381 164 73 0 
165 256 341 142 138 141 
173 225 393 85 40 50 
153 945 413 154 122 98 
216 395 295 161 159 164 
169 680 342 177 176 194 
263 196 452 42 36 43 
156 515 371 82 106 130 
171 636 343 118 123 132 
217 842 310 221 167 132 
307 722 365 57 62 67 
168 771 340 118 96 80 
353 156 522 121 109 100 
170 516 343 84 98 123 
118 744 437 158 163 176 
349 193 417 39 35 39 
265 583 432 60 104 138 
213 956 412 184 136 106 
229 599 239 155 159 170 
197 276 408 65 96 123 
244 515 247 111 130 169 
185 131 365 87 72 57 
323 747 250 128 119 113 
242 560 258 129 140 157 
198 244 429 91 59 66 
166 548 356 146 146 152 
270 183 412 5 57 95 
237 444 442 103 112 138 
323 675 365 154 120 76 
339 259 452 71 93 113 
263 280 364 73 78 85 
207 559 472 169 172 183 
252 244 352 70 87 104 
341 314 436 124 17 61 
243 308 429 117 130 148 
125 671 517 161 117 88 
195 897 312 89 68 54 
177 640 302 111 76 101 
222 122 352 114 65 35 
139 372 400 145 21 65 
222 123 353 115 63 32 
363 153 441 118 108 102 
154 557 387 160 160 172 
166 918 427 125 105 85 
197 952 427 201 149 124 
173 725 474 137 158 184 
252 641 440 177 125 116 
219 128 385 77 68 59 
147 258 399 53 96 128 
265 338 438 148 108 38 
136 786 445 185 201 220 
236 447 236 13 80 132 
318 374 433 112 95 93 
277 662 423 127 125 128 
221 124 353 117 60 3 
308 567 341 167 164 169 
322 328 377 93 111 129 
155 539 436 106 125 164 
219 360 452 125 81 106 
274 18 374 175 153 144 
334 339 459 179 173 176 
333 342 379 90 106 123 
221 127 353 119 56 4 
147 401 411 173 148 122 
128 684 509 172 114 89 
293 793 274 193 138 107 
246 169 409 107 103 101 
222 125 353 116 63 3 
270 316 297 113 119 130 
128 770 457 137 159 199 
267 548 422 133 141 156 
280 813 266 224 163 127 
350 309 456 108 137 166 
222 126 354 120 56 6 
300 759 340 182 156 129 
146 235 401 139 56 64 
217 302 312 101 118 137 
346 646 230 125 132 145 
131 637 502 95 81 66 
349 285 470 154 158 169 
258 716 216 128 147 164 
332 677 330 169 134 133 
364 687 197 75 90 107 
263 376 428 54 83 119 
187 240 438 124 89 80 
150 631 500 108 89 70 
267 669 436 66 101 142 
148 128 337 124 95 63 
292 409 294 73 106 137 
215 353 298 76 105 130 
223 267 430 77 113 142 
191 460 453 54 83 116 
311 634 357 78 59 61 
200 224 401 78 71 88 
137 156 369 131 94 61 
142 947 390 81 67 53 
334 358 451 195 166 138 
273 789 347 217 159 129 
150 789 364 126 107 91 
214 971 385 93 72 62 
278 329 449 149 44 91 
310 361 359 73 85 98 
132 781 440 163 171 186 
226 930 348 73 60 53 
360 671 260 126 158 200 
209 113 379 94 76 57 
316 420 430 50 80 139 
258 716 215 142 157 172 
248 519 261 162 167 185 
312 738 325 166 136 104 
296 643 401 69 83 98 
104 703 451 135 143 160 
328 472 390 84 112 163 
226 647 229 133 133 139 
300 471 414 132 139 156 
231 825 354 200 136 112 
169 197 329 137 60 60 
223 650 228 157 158 165 
243 506 236 123 148 185 
195 561 317 103 118 135 
261 807 324 225 168 137 
122 664 435 159 167 184 
161 627 469 32 50 70 
299 766 304 133 102 69 
176 583 365 189 173 165 
324 259 403 98 70 73 
268 824 285 226 166 136 
276 289 455 123 132 145 
295 294 311 114 98 107 
208 118 381 92 74 56 
336 619 281 117 97 75 
145 527 399 107 113 155 
333 666 299 98 140 176 
201 528 303 92 110 132 
153 551 382 188 182 183 
195 913 434 202 148 130 
183 798 445 121 133 161 
201 318 438 138 140 149 
310 365 362 80 89 99 
346 385 393 189 158 124 
361 663 227 79 92 107 
304 450 295 150 152 160 
296 497 294 88 113 141 
161 247 342 86 98 113 
207 237 313 154 149 151 
160 885 374 108 88 66 
320 233 394 92 81 73 
262 355 432 120 129 142 
171 867 400 118 95 72 
171 765 335 126 109 97 
307 748 307 74 71 76 
171 652 351 127 130 140 
265 283 363 77 84 93 
335 662 318 119 153 185 
218 859 345 180 135 106 
151 530 434 169 167 175 
283 623 420 146 96 81 
260 752 226 147 140 138 
232 509 465 89 109 138 
252 244 287 90 122 150 
241 117 457 104 94 85 
236 281 431 101 51 64 
202 611 467 65 65 68 
248 772 406 184 164 154 
309 555 339 149 151 159 
241 668 455 78 100 142 
189 636 276 168 169 180 
332 730 210 201 214 233 
229 420 254 111 128 149 
343 655 311 122 155 187 
165 638 331 65 112 146 
328 605 294 111 100 91 
186 381 331 74 106 142 
132 177 392 138 55 2 
199 379 457 139 124 111 
176 389 431 117 23 55 
172 625 311 79 131 172 
194 162 302 108 105 112 
166 751 471 169 183 205 
300 309 316 110 116 125 
336 315 463 99 75 91 
275 283 377 96 96 99 
314 242 414 70 81 95 
145 979 330 137 114 92 
175 359 350 88 108 137 
177 298 342 127 129 133 
185 388 333 79 109 150 
116 644 437 62 94 128 
169 676 382 93 116 156 
215 119 383 84 68 51 
100 658 461 112 124 140 
222 149 376 104 53 9 
185 596 364 63 113 150 
141 321 389 114 131 150 
197 613 483 102 88 76 
209 121 382 89 72 54 
353 647 315 140 160 183 
181 642 370 44 51 61 
125 763 462 157 169 203 
219 512 249 122 146 171 
226 762 248 176 154 137 
205 307 419 118 123 133 
167 687 384 121 128 156 
325 684 290 107 100 112 
162 756 353 116 27 25 
159 162 384 82 73 65 
239 534 466 156 158 167 
132 713 434 98 116 135 
156 248 347 87 43 36 
347 637 217 87 110 133 
207 462 468 146 152 164 
219 322 305 118 120 128 
219 896 349 84 64 53 
326 688 196 76 102 128 
334 294 429 103 88 113 
286 756 371 165 84 92 
193 341 419 118 20 53 
182 231 443 130 99 85 
284 460 416 114 129 150 
146 491 429 123 140 162 
276 139 426 109 86 61 
187 247 332 121 135 153 
334 413 430 80 109 164 
215 123 383 79 64 48 
158 778 464 191 79 90 
329 210 409 85 34 31 
318 711 324 168 165 168 
339 251 394 106 54 67 
159 920 423 144 110 88 
140 779 463 174 190 212 
355 179 439 86 36 43 
337 627 326 89 111 146 
235 636 455 183 127 121 
268 630 436 175 107 107 
210 780 427 120 115 116 
328 346 410 169 143 116 
185 543 326 161 159 165 
285 434 283 118 130 146 
191 863 324 155 118 85 
218 112 383 85 70 55 
154 719 412 94 106 127 
285 496 407 117 125 137 
149 492 432 89 114 146 
328 422 362 57 80 105 
323 450 342 91 116 142 
168 322 348 154 58 90 
207 146 403 128 60 1 
333 690 343 181 38 47 
225 323 434 133 131 135 
203 356 457 142 124 107 
92 661 470 62 90 116 
212 622 237 142 149 162 
295 496 410 134 144 163 
216 118 382 83 67 51 
222 318 302 102 111 124 
218 497 297 113 119 129 
200 613 463 57 54 54 
168 998 339 150 116 81 
259 202 402 78 44 47 
214 405 463 82 101 129 
165 700 353 188 188 211 
187 469 336 102 119 139 
162 878 395 138 109 80 
263 10 399 90 75 63 
251 465 233 110 131 162 
206 137 403 101 92 85 
340 419 375 125 114 105 
217 858 347 174 133 103 
251 204 315 80 62 61 
208 270 432 138 142 152 
204 232 428 109 81 78 
221 113 382 81 68 57 
226 412 465 40 71 133 
225 252 305 145 145 152 
336 250 485 129 18 57 
154 368 413 151 140 135 
356 145 494 119 106 95 
319 714 334 120 121 125 
165 629 445 45 75 106 
180 238 333 149 147 151 
147 463 376 62 92 139 
332 698 192 127 138 185 
175 677 321 111 138 169 
177 178 382 72 80 91 
273 245 307 106 117 129 
126 652 415 117 140 187 
146 398 381 73 100 137 
147 725 481 186 182 187 
338 157 408 138 69 5 
208 676 240 149 155 166 
282 265 300 123 126 134 
181 629 333 100 110 124 
221 117 382 83 67 51 
302 683 396 187 143 81 
245 276 299 91 110 129 
145 404 411 177 148 116 
307 479 302 160 161 169 
205 888 332 94 70 54 
95 672 517 161 117 98 
303 603 284 82 78 78 
223 116 381 83 68 52 
179 773 457 154 58 80 
304 237 433 58 69 81 
176 371 347 107 121 142 
174 606 403 109 123 141 
187 629 430 39 52 66 
363 687 217 104 136 192 
345 208 418 69 33 49 
180 720 314 143 159 177 
324 323 379 117 117 120 
253 258 289 78 135 183 
226 521 477 131 151 177 
225 393 273 57 94 140 
182 616 485 95 83 74 
263 30 376 175 151 141 
165 156 379 77 70 64 
217 122 383 79 64 48 
305 223 422 54 41 36 
213 132 329 53 68 84 
292 772 231 146 134 126 
130 740 484 113 127 179 
306 750 313 196 184 180 
239 464 448 108 117 137 
265 136 449 113 77 51 
189 225 326 162 158 162 
329 465 361 79 100 129 
193 306 444 129 138 151 
151 415 367 120 135 152 
205 745 268 128 138 153 
356 179 464 49 40 55 
244 542 263 137 143 156 
205 177 297 132 112 97 
181 651 453 76 89 117 
287 286 290 157 115 85 
289 188 411 64 74 86 
296 761 331 180 144 123 
197 170 301 126 84 96 
128 654 515 140 108 78 
302 534 402 49 80 152 
174 498 352 75 94 117 
161 554 438 102 114 147 
340 393 431 161 138 116 
220 121 381 80 66 50 
278 138 424 112 71 44 
148 396 371 78 104 135 
213 876 338 145 107 78 
333 622 301 59 39 48 
238 761 425 174 166 167 
145 756 474 132 146 177 
163 877 409 154 116 86 
134 640 423 60 106 148 
297 722 374 105 116 131 
151 992 356 145 114 84 
214 706 263 127 144 165 
295 209 402 91 54 47 
200 410 461 131 113 93 
302 348 369 98 99 102 
210 633 469 137 95 82 
290 725 209 168 50 55 
196 577 315 121 138 158 
268 802 307 210 151 114 
217 887 421 155 120 95 
176 625 306 71 111 144 
234 395 422 120 125 138 
180 651 298 157 159 168 
185 928 318 84 61 34 
253 121 469 112 101 91 
223 125 379 80 67 53 
344 628 228 127 135 148 
241 213 388 45 41 45 
207 185 403 105 88 84 
189 657 464 55 78 98 
309 750 264 153 138 130 
221 125 381 79 65 51 
269 12 373 164 141 131 
352 169 465 107 16 30 
292 738 211 100 34 106 
228 781 254 170 151 137 
213 818 276 229 163 124 
214 206 297 148 113 67 
221 126 382 76 65 54 
190 328 415 121 90 71 
154 808 360 168 134 95 
222 124 380 79 64 48 
243 732 445 175 57 65 
169 619 480 78 73 71 
354 696 189 178 187 218 
170 741 472 152 164 182 
337 231 421 72 44 59 
209 163 409 109 79 69 
190 388 326 77 106 137 
241 457 442 145 145 152 
199 202 427 100 50 61 
304 353 361 83 92 103 
202 714 289 89 52 104 
273 819 266 216 153 120 
144 178 340 161 77 0 
197 320 456 156 157 165 
267 162 466 109 91 105 
138 790 435 84 72 91 
313 583 372 105 135 172 
155 429 394 72 92 129 
344 677 191 76 104 128 
178 321 412 78 94 111 
307 720 205 159 168 186 
337 662 305 115 151 184 
194 499 464 88 108 140 
353 172 426 100 26 24 
215 190 449 97 33 34 
189 657 472 90 102 123 
316 672 368 186 135 60 
207 641 244 105 138 169 
93 712 475 154 158 186 
175 695 339 109 124 148 
198 590 461 59 98 136 
350 199 460 149 20 58 
155 457 367 128 138 157 
228 206 458 138 34 18 
304 171 408 95 57 27 
287 149 419 106 93 81 
188 990 373 120 94 71 
163 830 365 176 138 101 
318 156 416 29 32 35 
340 248 395 118 66 71 
177 718 325 126 118 126 
143 784 384 128 112 97 
157 321 411 135 141 153 
246 754 239 152 115 78 
195 601 321 129 137 150 
343 726 228 115 148 177 
195 605 347 61 98 127 
303 354 366 102 104 111 
333 441 409 45 71 112 
220 445 292 96 117 142 
149 258 358 108 53 46 
191 196 443 93 41 59 
137 689 432 67 94 151 
178 702 321 127 142 163 
269 819 291 213 156 123 
230 387 257 92 116 147 
234 349 427 152 146 148 
333 304 426 110 113 127 
221 508 478 133 150 173 
269 357 437 93 106 142 
200 260 428 89 67 74 
228 912 396 167 119 89 
220 495 245 91 125 158 
142 144 379 76 60 41 
288 802 274 201 148 117 
317 559 377 109 135 182 
183 319 412 71 92 113 
108 725 446 145 148 159 
212 864 388 161 130 97 
220 622 240 54 92 125 
228 67 345 132 106 82 
193 976 413 111 92 75 
153 382 414 105 111 134 
233 613 472 170 120 107 
191 173 386 99 91 91 
349 148 482 137 66 17 
159 714 393 107 114 137 
185 596 453 59 97 127 
184 621 318 111 127 147 
141 170 364 113 99 87 
310 354 299 90 115 143 
239 281 435 132 131 136 
150 423 418 157 63 1 
213 503 468 73 94 133 
231 66 348 124 101 78 
196 532 469 115 130 153 
289 194 440 50 52 61 
228 68 345 138 113 89 
202 377 463 145 104 81 
140 702 429 48 77 142 
238 825 336 214 153 130 
244 519 253 81 116 151 
248 164 412 134 43 7 
269 584 429 70 114 147 
284 452 418 101 117 146 
177 803 322 102 115 131 
247 460 435 114 123 142 
191 579 465 56 99 135 
288 425 289 68 103 134 
228 198 460 131 39 41 
229 71 347 144 118 95 
314 641 359 36 64 111 
191 807 291 164 114 83 
336 207 472 96 33 37 
321 705 197 92 123 156 
349 196 485 116 47 74 
181 622 492 116 96 75 
275 447 267 150 152 160 
244 480 228 107 130 169 
186 644 480 151 102 83 
349 283 392 79 90 105 
170 645 318 77 105 135 
186 870 426 151 117 96 
292 415 294 96 119 148 
144 399 409 129 130 136 
220 440 455 79 90 133 
155 634 427 37 88 133 
242 476 229 64 106 155 
171 718 478 103 121 171 
231 71 351 138 113 90 
268 528 275 64 90 141 
280 266 326 119 120 125 
196 387 432 144 118 88 
259 819 261 236 161 127 
298 594 395 127 148 172 
293 422 423 109 125 147 
174 855 373 158 118 88 
160 821 394 169 117 60 
228 610 241 94 52 50 
219 883 419 162 127 97 
168 822 339 170 131 101 
282 246 448 134 129 130 
177 429 440 128 75 6 
144 245 375 82 98 116 
338 199 480 139 49 54 
315 721 326 115 119 127 
215 973 379 83 66 58 
150 283 399 92 77 87 
244 180 403 81 43 40 
189 926 435 167 130 106 
231 603 243 146 149 160 
209 976 356 101 74 61 
339 245 442 84 102 120 
216 775 255 156 125 89 
319 477 333 147 153 165 
98 721 471 59 80 164 
245 556 272 79 97 116 
203 288 430 138 143 155 
186 904 431 177 135 115 
158 278 347 113 128 147 
311 654 394 59 47 82 
169 963 418 116 94 82 
346 160 487 139 72 33 
308 684 209 101 106 114 
357 165 436 108 15 20 
224 77 347 137 113 89 
146 497 412 153 151 156 
109 734 478 91 124 196 
353 317 398 166 162 166 
226 217 293 174 81 0 
316 570 362 129 143 162 
184 616 434 66 93 116 
220 364 454 120 126 138 
262 211 398 78 46 43 
257 798 249 143 132 123 
316 748 216 181 13 43 
222 137 404 92 81 71 
294 749 369 104 115 128 
220 573 468 95 97 116 
103 655 456 69 103 137 
317 721 357 81 82 95 
348 244 426 94 80 104 
174 608 418 96 106 132 
180 989 378 115 92 67 
188 790 300 140 134 133 
144 181 346 145 75 0 
290 366 440 98 119 152 
230 600 463 58 62 67 
176 796 324 130 124 122 
200 891 433 159 117 95 
227 79 351 120 99 77 
143 784 386 133 113 94 
215 683 232 189 191 207 
226 627 471 181 125 112 
131 689 505 60 89 131 
183 673 293 80 135 177 
359 151 495 153 87 17 
309 646 222 42 70 116 
140 224 351 155 82 80 
293 489 411 104 116 154 
352 282 460 155 158 168 
226 451 280 141 148 162 
335 236 396 133 107 76 
289 396 431 57 90 152 
296 343 365 104 106 110 
319 408 327 135 143 157 
221 136 404 93 82 70 
332 291 450 125 127 134 
156 450 366 146 151 165 
351 184 458 55 34 42 
163 654 376 85 100 158 
151 436 368 116 135 158 
227 483 469 75 90 133 
220 774 424 125 110 114 
256 732 440 102 69 129 
179 543 336 107 126 161 
357 648 278 97 112 160 
288 225 397 111 69 10 
166 503 451 89 115 156 
359 164 422 97 104 113 
306 344 444 158 88 114 
327 198 407 54 27 26 
239 174 404 88 57 47 
196 607 346 62 95 124 
215 313 313 86 111 135 
235 800 385 204 141 120 
164 270 406 80 64 79 
296 131 424 95 58 12 
190 986 391 115 93 75 
298 759 345 176 142 109 
126 762 432 102 112 159 
192 714 468 149 166 193 
227 193 349 66 40 29 
199 433 456 143 35 76 
213 846 313 205 151 110 
193 210 395 114 58 64 
206 147 411 125 61 4 
106 713 450 84 107 149 
299 341 358 73 86 99 
184 361 333 92 113 138 
301 314 329 124 74 72 
284 647 230 86 106 127 
166 549 357 137 142 154 
234 65 351 127 105 83 
212 849 377 153 113 82 
172 477 359 108 117 135 
234 66 350 128 106 83 
358 154 514 147 126 102 
164 364 420 159 136 112 
320 447 424 146 157 185 
329 305 434 103 107 115 
247 165 411 117 59 5 
203 228 314 106 123 144 
179 141 367 83 68 51 
164 991 330 87 64 52 
146 946 399 89 71 58 
340 417 421 115 142 170 
232 71 351 138 113 90 
312 541 340 108 127 155 
154 966 324 136 110 81 
302 243 394 73 96 124 
242 189 307 73 67 64 
181 835 322 174 130 102 
295 401 295 66 102 137 
183 139 366 85 71 55 
177 400 433 131 107 79 
290 561 305 90 104 119 
290 283 298 100 115 132 
152 378 412 112 125 141 
193 215 436 88 63 82 
313 350 327 132 139 152 
189 629 353 76 92 108 
329 370 413 133 2 54 
222 957 388 115 88 75 
158 916 330 77 61 50 
145 759 385 165 25 38 
200 804 278 140 107 83 
218 486 297 145 144 148 
192 563 325 95 109 130 
162 624 484 82 74 69 
338 436 372 100 123 153 
279 743 382 128 106 88 
297 611 393 140 131 128 
193 475 459 59 89 125 
227 168 315 80 52 42 
169 178 324 123 81 70 
187 615 475 76 73 72 
178 329 339 91 112 136 
225 84 351 113 93 72 
209 725 264 136 114 91 
186 980 409 111 92 76 
108 646 493 90 78 66 
166 676 486 79 87 134 
271 503 419 150 153 162 
233 816 368 207 139 120 
157 227 346 69 89 106 
320 292 387 92 105 119 
320 429 333 145 152 165 
249 462 429 94 105 140 
362 664 229 125 139 157 
211 339 309 79 99 119 
311 623 367 138 96 90 
266 292 296 105 132 159 
271 464 261 167 168 176 
315 619 356 153 110 96 
312 585 373 114 134 175 
196 591 460 67 105 140 
206 473 468 82 105 139 
268 664 214 96 109 125 
191 350 329 102 119 140 
207 180 296 149 115 79 
216 698 235 160 177 200 
220 731 453 153 170 194 
172 337 417 132 111 92 
346 641 316 78 116 147 
225 133 378 100 90 82 
308 632 360 143 99 89 
247 265 295 106 139 169 
316 482 412 137 155 188 
198 689 286 88 132 170 
199 714 464 156 170 191 
307 297 443 97 111 129 
260 810 255 220 145 104 
139 662 402 109 140 190 
350 290 462 158 165 179 
152 909 405 159 119 93 
324 528 375 111 130 178 
205 388 309 75 100 132 
147 338 368 144 107 66 
257 515 264 112 136 170 
248 520 449 94 113 155 
308 348 346 92 104 118 
333 471 384 163 175 193 
292 196 406 58 67 79 
176 248 336 148 144 147 
250 765 237 139 124 113 
212 628 262 119 130 146 
298 242 439 104 111 123 
291 178 423 52 33 27 
143 689 499 136 152 178 
303 781 249 152 127 104 
213 272 431 104 60 71 
317 279 424 49 64 78 
197 215 435 95 70 83 
229 79 352 121 101 79 
229 79 353 120 99 78 
201 406 313 97 126 155 
178 351 340 108 126 149 
217 384 294 88 107 140 
230 186 330 52 35 35 
231 76 353 130 108 88 
215 550 273 129 130 136 
140 360 395 121 129 141 
169 497 360 148 148 155 
145 473 425 89 117 154 
290 793 279 194 146 111 
257 156 468 109 51 54 
357 161 496 158 69 14 
204 580 263 106 68 93 
90 694 503 120 156 201 
165 656 491 162 107 85 
279 522 411 119 128 142 
294 421 293 71 104 137 
244 212 389 44 40 44 
283 638 412 173 167 169 
215 148 336 81 75 77 
256 325 287 109 115 125 
321 435 340 74 104 132 
159 966 321 106 82 55 
168 978 391 107 85 74 
186 397 334 72 99 143 
242 204 393 39 44 57 
181 1001 335 123 93 59 
291 608 412 71 116 153 
199 500 465 169 163 165 
162 754 472 170 181 199 
280 625 423 157 109 91 
218 674 469 87 121 149 
177 646 475 86 64 69 
152 493 377 112 133 169 
257 14 357 153 133 117 
152 468 429 128 138 151 
149 964 329 101 79 57 
143 224 398 125 52 77 
254 201 400 67 43 49 
171 417 436 155 134 114 
178 178 382 63 73 85 
346 709 197 200 214 241 
287 621 243 106 121 139 
334 173 416 70 22 27 
168 752 469 116 148 179 
332 328 430 156 135 116 
218 850 340 176 133 106 
218 746 450 123 86 106 
212 498 304 130 130 136 
165 664 353 141 145 156 
121 651 426 39 73 167 
190 817 401 94 105 121 
197 598 331 127 130 139 
169 229 337 75 112 143 
204 686 473 58 69 147 
313 566 381 16 70 110 
203 405 467 144 129 116 
283 196 409 41 42 58 
117 640 443 109 119 131 
320 152 414 44 56 68 
155 414 397 83 83 108 
251 428 243 147 152 163 
213 526 240 143 148 160 
304 186 405 93 70 48 
212 961 408 153 114 92 
321 201 408 54 28 28 
238 64 355 130 107 86 
238 65 355 130 106 83 
237 66 356 130 107 83 
237 67 356 130 106 82 
160 365 416 160 137 114 
185 557 464 53 63 81 
184 846 325 179 134 102 
282 373 438 89 113 158 
203 353 457 135 116 103 
251 229 336 105 100 98 
266 539 278 105 119 152 
296 319 372 68 84 100 
246 304 292 109 117 129 
186 627 440 41 53 65 
248 239 380 47 43 50 
125 648 414 91 120 157 
290 135 419 116 70 17 
183 901 315 55 44 38 
222 335 291 78 98 119 
318 478 321 116 134 160 
236 68 354 129 106 83 
152 543 377 111 130 158 
346 358 429 166 137 106 
211 619 254 122 126 136 
159 695 354 93 114 137 
245 185 402 78 41 39 
151 795 453 177 55 66 
235 568 242 79 84 92 
117 754 449 85 119 191 
257 245 343 69 88 104 
317 385 336 78 118 150 
208 725 247 179 144 111 
165 587 399 186 175 172 
155 499 376 60 87 135 
328 648 342 106 116 130 
172 605 416 128 131 143 
101 652 487 80 72 64 
326 473 393 98 114 149 
95 657 472 46 82 110 
196 163 429 49 58 68 
274 481 407 77 96 126 
229 952 352 135 110 85 
264 270 291 156 162 176 
158 709 369 69 98 156 
350 208 406 123 66 53 
152 473 399 134 141 154 
238 71 359 126 98 74 
335 151 408 126 113 101 
239 70 359 125 97 73 
207 440 308 148 150 159 
246 236 378 37 47 56 
341 194 491 142 85 70 
327 374 370 136 121 106 
315 763 237 120 103 87 
281 251 451 131 125 125 
169 982 381 137 96 66 
252 454 240 91 115 142 
216 373 296 127 144 166 
162 541 358 105 117 151 
333 677 289 86 128 164 
311 557 335 172 165 166 
285 438 284 113 126 146 
233 74 354 135 112 90 
224 755 443 195 134 83 
347 374 387 196 172 150 
233 75 355 126 104 81 
185 924 318 63 49 39 
225 894 373 130 96 68 
313 382 306 60 102 142 
157 703 361 124 144 168 
313 718 202 162 169 190 
115 678 445 170 168 176 
326 210 399 63 84 103 
201 547 472 114 130 155 
298 515 407 166 168 177 
166 675 339 190 188 199 
198 738 293 134 109 81 
189 610 366 82 76 90 
197 486 464 83 109 142 
170 598 408 132 138 153 
336 187 413 39 49 61 
137 631 455 63 77 90 
312 719 202 164 173 194 
357 171 436 78 28 38 
195 657 275 108 138 176 
232 77 355 122 100 77 
219 549 239 124 164 200 
251 181 456 101 55 43 
175 169 381 110 49 11 
172 485 359 150 146 149 
233 76 356 123 101 78 
297 375 437 76 115 155 
205 660 236 70 86 98 
207 564 279 86 103 121 
140 145 381 66 44 23 
284 498 281 88 109 136 
234 76 356 122 100 77 
337 245 460 99 46 64 
125 711 440 50 92 124 
326 745 218 155 62 96 
279 418 423 56 83 129 
219 642 454 172 166 168 
328 135 418 93 97 103 
323 492 393 86 118 169 
239 210 465 112 34 25 
284 152 419 98 87 78 
156 944 335 89 62 45 
271 200 407 83 59 51 
318 381 346 57 99 130 
337 249 432 86 95 108 
332 279 464 100 121 144 
292 563 309 89 102 118 
330 312 384 92 70 59 
187 588 295 116 133 152 
216 547 259 142 150 165 
228 362 268 24 78 113 
319 697 277 118 104 128 
252 353 273 72 99 124 
176 284 340 137 23 38 
236 74 357 125 102 77 
356 161 463 78 49 61 
185 430 344 119 133 151 
253 655 224 91 108 125 
343 368 427 128 100 76 
194 747 297 66 58 66 
205 194 437 79 30 37 
161 578 396 140 157 179 
207 742 453 67 89 129 
238 73 359 130 105 80 
316 366 434 64 94 122 
240 478 453 79 99 140 
152 814 381 152 128 105 
186 705 476 124 152 192 
235 918 367 174 118 90 
271 368 435 125 135 155 
182 597 446 70 103 131 
180 781 318 154 126 95 
221 530 278 121 127 138 
356 173 510 126 111 105 
205 227 423 109 85 81 
260 557 442 162 157 159 
239 73 361 131 106 81 
226 957 351 106 80 66 
275 248 455 117 101 97 
315 351 371 94 103 115 
213 327 312 145 141 142 
227 196 357 59 50 55 
239 75 361 123 100 75 
232 180 321 41 38 38 
263 132 459 116 62 9 
144 501 388 67 96 146 
236 78 360 116 94 71 
238 586 250 145 150 161 
163 885 378 135 107 83 
310 477 304 177 173 177 
199 995 345 144 114 85 
238 560 464 138 147 161 
140 364 394 168 137 110 
238 76 360 123 99 75 
238 76 361 121 97 73 
132 681 509 168 111 88 
308 355 351 85 94 106 
187 447 340 99 115 139 
346 674 287 168 201 237 
148 629 482 83 75 69 
