ply
format ascii 1.0
comment Created by CloudCompare v2.11.1 (Anoia)
comment Created 2/28/22 9:39 PM
obj_info Generated by CloudCompare!
element vertex 2009
property float x
property float y
property float z
property uchar red
property uchar green
property uchar blue
end_header
256 213 324 77 63 67 
289 288 332 97 102 109 
141 654 404 99 130 179 
145 690 506 56 64 99 
301 750 316 170 157 149 
256 798 355 213 154 132 
315 726 325 145 127 110 
154 899 406 154 113 86 
169 767 336 122 101 84 
339 222 391 100 100 104 
224 606 228 177 177 186 
212 80 446 101 85 69 
293 773 270 124 115 113 
307 722 286 149 109 88 
150 648 516 134 104 73 
297 329 346 91 98 107 
213 81 447 99 84 68 
182 317 413 102 102 106 
170 701 383 146 147 155 
306 755 216 204 168 129 
214 848 317 203 157 120 
295 562 405 130 144 164 
184 610 430 64 67 88 
217 289 320 135 135 140 
215 793 256 159 138 122 
106 654 496 84 76 69 
153 969 356 120 97 73 
311 127 408 108 69 22 
225 260 312 92 117 141 
215 82 447 96 82 67 
287 544 399 96 109 131 
165 490 449 38 76 131 
199 178 391 87 78 80 
212 940 422 191 143 116 
245 796 375 210 149 127 
330 714 233 145 109 115 
198 669 269 99 136 174 
307 344 303 92 116 140 
252 325 430 116 130 148 
141 196 385 133 64 83 
246 634 248 46 59 70 
143 385 411 180 153 124 
306 604 263 78 88 100 
250 591 291 70 73 80 
235 184 327 49 33 31 
165 870 358 137 106 75 
137 153 380 134 77 22 
245 671 462 100 126 156 
151 295 396 76 119 152 
263 801 308 223 166 131 
294 770 271 168 157 155 
174 265 342 133 149 169 
238 696 205 162 171 196 
105 668 463 120 134 154 
258 688 448 136 152 171 
212 548 472 126 138 159 
189 169 444 90 36 40 
286 368 433 109 122 151 
224 585 461 66 116 152 
242 626 245 93 106 122 
320 617 245 17 48 108 
226 496 470 108 126 162 
198 769 455 166 94 95 
233 650 458 93 115 145 
206 546 471 66 82 116 
195 278 341 92 109 127 
350 207 394 127 73 51 
351 236 414 145 0 62 
286 356 295 79 109 136 
275 404 256 143 147 155 
244 555 231 149 157 172 
317 746 237 110 113 120 
196 795 273 152 141 138 
161 569 415 127 139 158 
278 757 371 178 162 150 
211 89 442 100 83 66 
287 543 295 101 111 124 
337 182 501 146 93 105 
105 694 466 129 139 158 
202 615 273 106 127 149 
257 536 448 130 139 153 
211 91 442 99 82 64 
140 685 513 168 115 90 
208 92 441 101 85 67 
287 248 456 85 96 113 
233 435 444 88 105 128 
220 875 372 170 128 95 
209 354 459 169 82 24 
283 797 270 195 143 109 
280 778 290 171 120 85 
211 872 336 143 105 78 
184 824 313 182 138 107 
237 410 456 63 88 138 
312 565 341 95 120 152 
155 429 402 64 84 123 
141 320 395 108 127 148 
203 747 251 124 120 122 
282 178 457 140 57 66 
263 462 229 112 135 164 
211 95 440 99 82 63 
213 230 412 129 84 82 
206 725 263 112 46 72 
333 241 443 99 48 62 
304 678 190 106 120 137 
220 549 244 79 126 163 
102 709 474 164 167 181 
242 758 423 78 73 125 
337 216 467 58 41 61 
177 746 320 148 47 72 
260 156 463 115 36 43 
214 90 443 96 80 63 
169 701 379 99 114 146 
348 202 469 151 57 70 
275 254 301 93 110 127 
312 520 322 170 168 172 
213 88 444 97 81 64 
313 714 307 97 103 112 
164 892 336 72 58 49 
227 181 332 75 31 36 
276 707 197 143 159 179 
215 88 445 95 80 63 
190 456 344 145 144 149 
249 261 449 117 129 145 
324 677 285 136 61 86 
212 92 441 98 81 63 
239 552 224 134 161 193 
206 487 305 132 134 142 
183 567 340 101 122 145 
233 336 265 42 97 133 
200 622 256 73 107 146 
149 751 379 125 133 151 
212 94 441 99 81 62 
154 981 322 141 112 89 
263 533 267 121 129 143 
305 750 330 179 175 177 
236 515 470 80 106 145 
226 782 242 183 156 128 
214 92 443 95 79 62 
214 93 442 96 79 61 
245 196 324 40 60 79 
331 727 218 105 96 147 
290 729 199 177 102 113 
160 158 342 109 38 36 
225 136 472 160 69 5 
164 350 417 134 32 67 
263 444 408 79 97 133 
255 775 386 114 121 131 
273 647 216 70 97 121 
216 83 447 96 81 66 
289 575 310 90 87 87 
238 603 248 60 56 59 
157 938 422 175 136 110 
282 684 198 60 100 130 
223 931 397 162 120 90 
295 699 193 115 131 154 
216 87 445 95 80 64 
216 140 323 66 84 100 
189 193 391 54 73 91 
325 186 406 75 50 41 
203 639 256 39 85 138 
313 594 307 114 102 92 
266 265 346 108 107 109 
218 84 447 94 79 64 
313 205 424 52 50 50 
305 322 331 130 106 81 
161 386 421 129 36 70 
213 769 440 166 126 117 
217 948 407 165 123 100 
148 801 408 116 132 149 
172 465 359 173 170 174 
219 87 447 93 78 63 
286 189 454 88 41 57 
221 87 447 93 78 63 
307 752 241 61 49 61 
157 507 372 107 116 131 
175 199 332 143 31 84 
219 156 470 147 25 14 
202 946 427 191 141 115 
289 278 453 159 156 160 
350 142 471 113 95 82 
368 190 415 139 68 59 
138 635 493 88 77 67 
185 583 343 174 160 152 
201 366 324 99 119 140 
192 563 295 163 166 180 
218 89 445 93 78 62 
155 314 405 139 140 147 
174 825 329 162 124 94 
141 166 367 102 93 85 
341 206 449 92 24 37 
266 801 298 208 153 116 
341 270 446 73 104 133 
296 290 450 137 123 110 
233 157 471 46 49 68 
234 824 343 207 143 123 
219 90 446 93 78 63 
176 951 427 207 158 138 
216 93 442 95 78 61 
216 93 443 94 78 61 
217 92 443 94 78 61 
219 554 271 124 126 133 
269 793 321 218 159 128 
347 328 433 99 125 155 
299 354 440 117 131 155 
285 166 447 75 60 48 
287 545 392 120 131 148 
339 345 404 170 143 115 
323 426 325 142 149 163 
172 782 461 186 58 65 
359 154 434 111 51 35 
209 754 234 174 141 113 
137 765 430 141 160 182 
244 642 444 84 61 82 
226 896 407 174 125 93 
148 455 375 107 122 142 
206 130 407 98 88 81 
290 766 338 213 158 126 
217 92 444 94 78 61 
208 611 475 83 75 70 
341 201 396 100 90 91 
191 380 429 103 41 34 
154 961 402 102 82 69 
268 460 239 103 135 176 
147 475 384 111 127 149 
275 805 281 195 149 116 
244 604 289 55 76 96 
280 259 304 89 107 126 
237 412 455 82 101 149 
224 696 472 51 77 132 
264 487 251 135 151 175 
368 174 428 107 55 79 
269 462 243 103 128 169 
336 225 451 27 44 76 
195 201 319 144 23 75 
168 656 343 94 88 114 
119 650 488 81 73 67 
181 386 349 50 89 148 
321 303 375 77 94 116 
191 199 393 107 67 56 
247 681 461 126 135 153 
200 764 258 125 112 105 
299 749 278 128 109 95 
200 981 366 91 71 55 
274 309 439 157 113 52 
213 702 252 122 134 151 
182 717 306 145 38 49 
315 441 417 163 170 184 
184 431 442 132 54 4 
156 435 398 71 96 132 
217 579 463 93 109 152 
209 217 427 93 71 60 
183 649 398 43 61 83 
174 379 429 131 98 69 
273 141 456 107 83 59 
211 671 478 114 134 156 
144 415 411 190 77 16 
332 259 452 102 112 127 
224 190 365 30 34 41 
235 397 251 88 113 140 
187 969 416 109 90 74 
296 633 396 118 72 76 
210 690 245 138 123 132 
185 872 426 153 118 98 
210 421 302 120 133 152 
156 815 377 197 158 115 
226 530 226 158 162 172 
212 172 298 123 100 87 
262 606 295 50 75 95 
316 376 351 123 119 120 
269 441 408 113 130 149 
157 165 400 64 58 55 
219 464 467 92 114 149 
228 500 255 91 117 157 
234 220 298 144 130 121 
192 860 424 143 113 93 
257 14 404 83 72 61 
231 506 224 53 98 134 
205 125 415 102 89 76 
175 599 423 134 140 158 
223 401 282 87 122 156 
337 431 358 116 127 142 
173 820 411 158 131 102 
147 367 410 138 4 56 
218 760 445 194 141 76 
163 333 357 149 90 100 
197 144 385 80 72 65 
347 250 386 120 21 53 
203 865 323 160 115 79 
157 968 398 91 75 65 
164 577 419 125 145 169 
191 323 414 100 105 114 
206 126 413 100 88 76 
217 655 218 155 158 168 
294 703 379 161 104 18 
207 126 413 100 88 76 
167 581 421 113 131 157 
206 126 414 101 88 76 
264 486 412 71 91 132 
274 287 368 94 94 96 
332 385 360 105 114 124 
258 799 242 163 135 110 
243 190 467 44 55 100 
318 622 303 73 74 78 
166 919 321 74 58 41 
215 367 454 148 128 114 
227 427 462 69 95 141 
209 126 385 80 65 51 
160 811 350 140 128 120 
256 428 230 141 146 156 
209 127 386 78 64 52 
154 461 393 87 112 141 
210 125 384 80 65 48 
210 272 429 132 130 133 
340 240 387 115 83 64 
272 379 267 36 87 119 
235 517 466 90 105 142 
156 399 404 90 82 88 
177 352 348 89 104 140 
315 339 442 151 74 105 
202 183 430 88 41 52 
212 124 384 78 64 49 
145 511 409 106 113 138 
190 769 287 137 119 105 
185 900 313 91 69 46 
232 223 447 130 25 66 
237 194 330 36 37 51 
202 133 411 100 91 83 
221 279 315 84 49 58 
142 358 405 81 116 146 
368 170 421 98 60 57 
150 434 369 119 128 145 
127 735 491 201 204 219 
164 135 333 78 94 111 
208 127 411 100 88 78 
209 127 410 99 88 78 
205 588 279 91 109 126 
305 472 300 98 116 142 
331 468 402 108 143 183 
321 740 229 195 73 91 
267 487 255 140 154 176 
306 706 266 170 68 75 
227 518 254 120 142 166 
296 506 400 105 116 147 
214 225 416 126 91 73 
136 692 449 110 126 150 
274 652 422 71 117 152 
218 476 296 99 116 157 
302 740 354 177 124 78 
209 126 413 100 87 75 
155 404 392 108 118 139 
211 371 312 108 120 137 
246 690 460 174 170 174 
139 275 372 149 37 83 
268 289 446 139 140 150 
204 192 396 91 81 84 
223 809 387 195 133 115 
331 667 181 109 126 147 
273 627 229 103 117 133 
344 277 467 171 171 179 
141 261 368 134 99 90 
275 623 426 132 95 85 
192 460 340 141 142 149 
318 545 385 163 173 190 
368 186 413 116 74 55 
181 356 423 127 107 86 
187 811 415 193 151 116 
214 127 410 99 87 75 
338 637 302 52 89 128 
215 127 410 99 86 74 
308 732 253 96 108 127 
312 719 298 160 146 136 
353 239 411 121 58 92 
212 125 414 100 86 72 
190 647 397 43 58 72 
217 869 386 160 128 95 
239 607 251 56 81 103 
212 126 412 99 87 74 
242 808 361 210 144 123 
275 421 413 77 94 132 
213 126 413 99 86 73 
150 794 442 180 106 132 
165 153 334 72 45 60 
235 415 460 73 103 148 
215 125 414 99 85 70 
271 557 425 161 156 159 
245 345 430 165 162 166 
328 642 331 58 100 158 
182 732 308 152 36 41 
213 858 328 167 124 95 
284 318 443 142 52 88 
231 416 450 80 94 134 
138 175 352 163 78 0 
159 504 443 136 142 156 
224 874 404 155 116 82 
250 589 265 79 94 109 
232 203 453 76 42 55 
241 427 428 132 140 154 
321 264 381 124 121 121 
164 557 364 186 180 181 
189 868 325 149 112 81 
222 433 283 127 139 155 
163 555 434 130 139 159 
124 753 466 135 142 200 
181 420 440 140 117 93 
178 883 324 91 70 54 
156 444 363 106 119 142 
200 799 270 109 99 92 
140 194 352 61 99 130 
149 455 372 88 112 140 
173 555 447 76 98 134 
261 256 375 85 73 73 
327 392 358 103 79 57 
335 437 387 153 132 113 
303 192 426 56 43 36 
223 518 473 112 130 163 
169 645 341 68 117 157 
193 191 436 101 30 49 
180 668 310 144 160 181 
271 240 324 68 78 89 
184 789 299 147 138 135 
149 533 421 120 130 159 
313 645 366 78 62 71 
264 249 337 69 83 98 
227 514 233 119 143 168 
193 111 429 106 94 83 
246 405 419 76 96 133 
179 863 390 104 81 55 
191 646 279 97 125 153 
155 454 392 54 90 136 
203 669 221 165 168 178 
215 323 311 123 126 133 
277 582 299 90 91 96 
195 108 430 107 94 84 
325 453 344 91 111 148 
195 109 430 106 93 83 
194 110 429 107 94 83 
169 282 412 62 87 109 
201 282 447 81 102 124 
121 684 456 142 148 165 
117 649 455 88 115 141 
168 417 357 132 134 143 
329 501 374 180 182 194 
256 440 227 110 129 152 
268 254 336 84 75 68 
197 106 431 108 96 85 
144 331 378 133 124 123 
320 379 357 90 90 94 
333 318 373 81 106 128 
125 719 504 164 174 206 
342 343 443 181 148 111 
344 211 484 100 96 119 
149 793 445 206 56 73 
264 704 445 149 166 188 
179 613 412 75 100 134 
187 169 316 132 78 72 
174 803 449 180 143 125 
160 305 412 71 100 122 
185 565 458 95 116 151 
283 611 241 67 105 135 
347 194 397 107 108 112 
328 618 268 112 93 75 
229 908 378 153 100 79 
321 389 342 51 86 112 
185 778 301 139 122 109 
342 438 364 98 126 157 
148 786 378 57 60 65 
177 696 482 147 157 184 
198 133 463 133 79 26 
200 680 484 83 113 171 
199 110 429 102 92 82 
286 662 409 85 130 165 
335 219 423 72 32 39 
233 439 455 75 96 141 
215 612 240 114 117 124 
317 701 287 155 97 93 
222 927 405 184 139 112 
184 701 480 132 148 183 
209 724 220 132 29 50 
285 379 288 84 109 132 
317 615 221 74 114 146 
248 580 271 75 89 103 
306 685 360 126 61 40 
245 161 406 134 60 2 
316 529 380 100 123 158 
256 755 414 204 184 169 
247 618 254 74 91 110 
327 624 311 72 82 94 
244 545 226 150 162 181 
139 695 447 84 109 145 
259 213 320 73 71 82 
192 152 446 34 58 88 
148 751 394 106 129 152 
203 108 431 101 89 77 
359 175 407 75 106 132 
281 526 396 129 133 143 
178 863 330 148 110 78 
344 642 303 133 157 189 
173 562 353 108 135 164 
145 493 384 55 95 143 
168 521 344 91 110 135 
331 646 322 116 141 168 
201 755 257 113 104 102 
337 710 227 135 156 182 
331 452 390 57 87 148 
246 746 225 181 174 173 
256 313 433 120 139 162 
341 211 394 74 86 99 
223 389 284 112 129 151 
218 853 303 146 118 95 
157 743 363 133 142 160 
199 265 437 119 116 119 
150 733 486 175 170 174 
219 516 471 126 134 149 
323 261 427 73 69 66 
222 295 435 80 117 148 
196 637 416 33 42 52 
162 732 360 142 135 144 
178 646 459 93 106 130 
186 998 340 142 107 70 
267 310 293 147 118 88 
296 255 382 105 27 23 
221 164 371 88 31 33 
187 889 430 169 121 107 
290 600 288 98 89 82 
354 292 398 152 153 162 
240 200 332 31 37 51 
223 410 282 153 157 167 
167 765 471 166 179 199 
339 206 420 62 33 53 
198 303 337 161 125 85 
209 321 323 133 113 92 
193 636 494 165 113 93 
159 150 387 81 71 59 
129 763 443 118 125 170 
334 238 386 130 106 80 
248 827 267 255 173 139 
192 623 452 51 51 53 
327 213 424 62 32 31 
150 794 444 197 58 71 
305 670 380 177 126 68 
160 708 369 84 105 155 
312 349 440 172 163 163 
163 744 353 120 27 32 
282 712 414 82 137 178 
198 595 456 101 122 147 
266 758 396 211 189 174 
315 343 362 104 106 110 
198 145 386 82 74 67 
206 728 225 155 39 36 
239 588 239 154 160 173 
214 666 252 84 129 163 
290 316 447 124 108 126 
249 604 456 124 102 79 
201 326 332 117 42 28 
295 700 378 154 114 62 
251 514 231 115 135 169 
193 103 433 119 107 99 
247 348 257 79 101 120 
156 511 439 148 148 155 
254 552 272 99 118 144 
219 843 333 176 131 105 
226 336 279 103 124 149 
297 595 309 81 82 86 
337 272 429 139 135 142 
302 481 404 168 168 176 
216 643 250 53 91 128 
302 573 387 115 131 150 
194 775 273 143 116 85 
340 646 303 91 125 182 
223 136 385 89 80 73 
189 805 285 154 118 88 
106 683 521 178 130 108 
130 167 391 127 114 101 
337 140 408 112 77 56 
158 721 482 125 142 169 
335 425 390 150 134 123 
289 692 412 133 162 192 
212 913 322 91 69 55 
316 475 405 111 125 176 
205 726 232 119 57 65 
153 633 483 80 73 68 
202 872 428 142 106 83 
211 395 451 168 79 8 
357 230 411 83 87 132 
168 988 376 130 96 65 
229 688 207 130 131 140 
219 161 353 72 29 33 
289 658 204 58 47 94 
262 800 332 218 160 136 
199 532 294 129 136 149 
166 424 433 164 120 61 
182 194 390 54 69 82 
304 691 189 99 121 147 
238 918 373 154 118 92 
207 688 235 150 160 176 
144 661 423 140 155 206 
186 658 287 157 157 164 
336 634 221 173 174 182 
161 567 418 105 124 150 
299 625 397 176 170 175 
211 758 234 140 125 115 
347 187 444 38 36 61 
234 575 227 94 135 171 
305 604 263 80 92 104 
311 715 189 150 160 197 
186 171 386 112 54 11 
234 516 223 128 160 196 
272 292 447 108 127 150 
342 316 411 183 156 128 
237 891 384 144 112 82 
288 315 365 66 80 95 
141 768 422 158 164 177 
222 691 210 150 153 163 
254 693 453 128 152 179 
230 343 440 110 116 125 
123 645 507 96 81 68 
240 198 331 33 41 55 
344 645 235 71 75 81 
295 339 445 162 68 100 
298 519 296 55 90 132 
196 134 378 89 73 56 
210 293 417 81 47 57 
314 234 430 54 49 51 
146 773 468 140 160 190 
292 540 299 105 116 130 
168 875 384 101 80 54 
217 818 270 192 138 105 
254 418 414 73 94 133 
222 332 294 108 118 137 
186 258 341 106 127 150 
315 612 316 132 96 77 
147 292 391 78 95 112 
147 793 438 108 73 108 
299 577 395 122 145 170 
147 208 357 142 79 72 
197 104 433 110 97 87 
220 883 417 170 132 102 
205 443 453 131 112 89 
231 418 450 87 95 143 
201 628 490 165 115 94 
296 174 424 50 38 34 
210 553 471 156 162 176 
213 197 420 77 66 79 
182 612 338 73 81 98 
149 973 352 98 76 54 
184 796 450 174 113 119 
186 608 372 58 102 136 
224 147 393 94 87 79 
148 426 373 104 122 145 
255 827 273 253 186 166 
248 195 321 37 60 80 
330 662 311 76 121 158 
246 606 257 70 88 108 
178 645 399 39 68 94 
224 129 375 80 71 61 
182 959 423 178 143 127 
221 852 364 175 133 104 
176 704 336 134 149 169 
201 98 436 110 96 85 
256 438 227 134 142 155 
184 813 303 162 120 88 
205 296 333 128 85 35 
142 166 347 141 121 96 
195 621 454 52 51 51 
326 497 382 106 127 173 
148 500 419 113 122 143 
294 720 372 97 88 81 
315 433 420 48 82 151 
212 149 302 84 90 100 
316 208 423 60 41 43 
277 658 418 70 68 76 
286 504 399 119 125 138 
278 626 227 72 100 124 
321 675 352 134 82 49 
200 103 433 107 94 83 
204 737 258 129 110 94 
222 895 363 125 94 70 
293 593 319 86 89 94 
201 103 434 106 93 81 
225 779 415 116 109 108 
144 670 517 157 104 79 
282 163 456 89 82 75 
294 601 282 92 86 81 
184 642 359 130 129 135 
180 213 393 109 43 50 
225 395 279 134 148 166 
325 467 342 95 114 154 
325 435 418 70 101 174 
140 353 393 117 137 160 
269 617 246 84 109 132 
337 717 202 130 176 215 
320 695 305 169 111 102 
154 494 438 101 119 144 
182 539 325 159 155 159 
184 199 391 109 69 60 
203 937 321 74 54 39 
354 330 384 161 61 71 
251 248 364 74 84 92 
170 641 413 49 88 132 
322 510 397 179 183 196 
280 602 414 87 94 108 
232 248 308 106 121 139 
206 97 437 103 88 72 
294 579 315 91 91 94 
334 720 224 155 177 201 
157 732 369 101 113 128 
214 364 455 161 140 124 
198 931 431 183 135 110 
133 678 520 167 117 91 
248 436 228 155 156 162 
193 130 432 106 51 12 
177 369 351 86 111 137 
160 571 394 200 189 186 
366 189 426 145 33 36 
313 728 251 76 92 118 
326 247 430 71 74 80 
246 608 290 51 74 95 
159 809 426 86 70 97 
343 243 456 132 25 68 
300 347 358 100 103 108 
147 392 402 106 84 71 
271 807 249 232 167 128 
179 290 409 102 101 104 
241 315 429 148 147 152 
136 273 378 106 95 112 
283 267 305 127 130 138 
156 438 396 47 73 120 
271 505 403 135 143 158 
345 155 488 124 82 59 
233 590 227 146 171 199 
199 740 273 74 75 80 
206 100 436 103 88 73 
187 935 433 192 149 124 
200 104 432 106 94 82 
319 517 334 113 126 149 
317 469 313 119 138 160 
289 555 303 87 102 119 
275 711 200 155 171 192 
201 105 432 104 91 79 
164 885 343 71 58 50 
312 735 339 179 155 134 
191 477 337 118 121 128 
181 470 354 127 134 147 
159 692 429 88 118 142 
323 724 238 152 94 84 
153 770 365 102 38 65 
194 280 341 85 106 127 
308 610 229 51 93 125 
302 199 439 50 44 45 
230 740 451 82 124 165 
345 635 262 79 100 121 
166 875 377 137 109 81 
216 917 332 81 63 50 
236 422 434 83 104 132 
165 768 344 80 105 127 
185 628 298 99 139 172 
261 292 297 144 118 92 
163 446 433 114 96 78 
342 334 411 195 164 131 
155 372 398 94 97 105 
358 277 395 79 113 140 
297 604 245 104 130 155 
177 819 324 169 131 94 
150 222 408 105 47 64 
268 462 238 112 141 172 
335 210 421 79 32 48 
295 476 406 159 155 159 
210 814 271 184 132 95 
159 893 413 156 115 89 
240 896 379 142 111 81 
335 432 389 147 127 107 
182 749 311 99 104 111 
187 162 315 150 87 79 
345 351 434 195 163 130 
162 151 337 63 54 69 
168 794 336 103 83 64 
313 579 363 91 123 171 
324 449 334 89 113 143 
276 392 264 99 116 135 
348 643 249 66 95 123 
364 216 404 64 36 67 
167 709 479 141 151 179 
184 708 302 144 159 178 
305 489 402 71 86 134 
136 696 449 124 135 154 
195 114 428 101 92 84 
192 181 447 106 61 44 
275 372 427 58 95 134 
195 981 383 116 97 80 
266 625 436 139 98 85 
354 341 382 154 0 63 
220 522 472 95 116 154 
216 866 348 169 130 99 
254 280 437 121 106 110 
149 801 390 161 121 93 
270 487 401 84 92 133 
194 118 426 104 94 85 
148 533 398 136 140 163 
147 370 370 136 142 156 
271 799 242 223 182 141 
352 187 423 49 25 42 
180 724 315 136 152 170 
304 737 354 160 121 79 
266 489 420 104 124 146 
192 117 428 100 91 83 
226 163 471 108 30 56 
235 650 457 102 122 146 
148 535 405 117 131 159 
133 771 449 173 181 197 
203 854 385 146 115 84 
287 294 298 112 75 79 
218 867 413 158 124 93 
275 172 409 96 60 34 
332 247 454 92 68 81 
287 618 226 109 126 144 
175 679 403 85 100 153 
207 377 432 126 23 59 
207 157 301 68 96 122 
210 635 474 167 110 91 
170 680 364 67 113 147 
204 715 473 146 163 185 
263 405 416 31 76 125 
308 152 411 28 43 55 
355 172 454 44 60 102 
192 724 292 159 37 53 
159 161 397 80 70 61 
258 200 467 94 42 62 
346 215 471 122 102 121 
166 888 422 151 113 88 
285 797 257 206 150 114 
223 948 347 93 74 63 
210 601 456 42 68 91 
188 504 319 120 123 132 
196 115 428 101 92 84 
230 240 441 117 119 126 
150 539 395 194 190 192 
198 112 428 102 92 84 
308 538 390 87 110 143 
331 333 450 165 163 169 
331 253 383 108 38 45 
182 636 426 40 61 89 
162 530 354 119 133 152 
333 278 439 105 103 106 
174 794 455 151 34 63 
212 250 324 96 129 157 
267 567 433 96 100 116 
348 248 387 113 53 61 
264 798 335 216 156 133 
166 869 358 144 110 79 
229 505 274 77 99 133 
324 206 401 75 62 58 
143 221 395 114 93 106 
152 893 363 91 63 40 
193 493 317 117 121 131 
279 781 228 221 180 128 
271 498 266 162 165 176 
251 247 298 89 129 164 
196 508 308 96 108 122 
322 256 382 99 55 53 
229 404 265 90 112 141 
238 825 313 226 167 138 
189 390 431 112 27 52 
315 539 335 68 100 142 
278 133 420 127 81 22 
301 175 403 62 61 64 
168 239 403 57 42 40 
289 221 443 103 12 41 
199 119 424 102 91 83 
276 314 297 131 74 86 
164 171 335 136 56 38 
172 817 424 36 32 50 
286 610 413 185 138 136 
299 464 408 138 148 162 
206 232 431 105 85 86 
275 786 233 232 200 163 
216 403 295 117 133 153 
156 915 328 77 60 46 
316 613 326 143 102 87 
194 904 438 199 145 127 
213 302 425 138 141 149 
255 226 334 106 97 93 
139 251 366 59 90 113 
348 161 466 100 94 99 
301 581 323 117 119 126 
192 216 396 110 21 55 
213 262 436 119 134 153 
148 150 357 87 81 76 
151 317 400 144 148 158 
226 520 253 134 149 169 
171 643 372 67 101 141 
191 364 335 64 97 130 
231 782 241 144 136 133 
209 278 333 150 146 149 
141 180 372 145 63 0 
300 568 388 105 119 137 
161 568 380 171 172 180 
135 159 380 105 78 37 
231 439 446 90 106 131 
330 665 314 91 145 187 
268 334 431 124 83 19 
215 620 226 96 135 173 
199 124 419 103 91 80 
203 551 291 142 155 174 
313 619 215 95 124 150 
300 205 395 72 47 37 
113 653 486 56 74 91 
267 126 467 108 94 80 
154 258 352 145 141 145 
258 359 261 100 117 134 
162 902 330 76 59 44 
169 334 419 137 129 124 
319 556 359 97 130 177 
159 347 414 146 115 83 
327 173 398 106 92 91 
234 250 439 98 113 132 
293 759 314 144 103 85 
317 522 378 143 156 178 
225 876 396 149 115 81 
346 218 456 116 93 102 
246 537 239 159 166 180 
278 341 435 155 114 61 
291 448 410 93 109 141 
274 400 257 100 119 139 
233 670 208 57 65 79 
249 706 454 156 172 194 
169 845 357 171 130 97 
175 635 362 130 137 150 
199 124 420 104 92 80 
111 652 494 85 76 68 
136 944 365 77 56 49 
305 762 241 143 124 107 
194 227 331 158 157 163 
325 377 438 161 140 125 
179 603 311 115 124 140 
263 612 442 106 80 83 
362 172 411 47 74 100 
194 121 426 106 96 86 
261 805 306 226 168 132 
274 478 402 68 89 124 
159 243 409 91 60 43 
175 515 456 81 114 158 
268 354 275 68 97 124 
157 722 373 83 106 151 
170 863 370 148 117 86 
268 129 459 115 68 0 
313 300 374 90 114 140 
274 781 348 218 158 130 
213 368 442 170 144 118 
271 483 401 111 121 138 
147 382 414 163 134 101 
325 361 363 125 113 102 
189 582 295 152 158 171 
343 193 496 145 112 105 
245 596 253 94 100 109 
193 121 429 101 90 79 
152 802 426 163 50 79 
281 776 334 213 156 124 
220 265 318 93 125 152 
190 412 344 71 99 146 
259 621 447 186 117 114 
171 491 362 133 138 151 
260 367 421 68 108 139 
291 427 285 114 130 153 
201 726 471 162 175 194 
262 245 296 97 142 181 
215 867 345 172 131 101 
219 866 356 158 120 87 
328 241 432 99 91 103 
208 429 453 134 50 59 
263 475 233 118 137 175 
289 314 344 101 102 107 
295 332 349 108 111 117 
194 123 431 98 79 68 
278 415 259 141 148 160 
189 172 314 111 117 125 
163 325 357 147 67 90 
195 125 424 99 89 78 
302 587 389 178 175 179 
233 277 297 80 102 122 
301 753 339 163 150 144 
269 12 405 99 80 58 
234 875 385 154 123 88 
170 882 333 89 70 56 
267 207 457 30 39 64 
134 721 500 112 121 177 
119 736 482 124 139 205 
277 468 267 116 139 167 
231 458 248 109 130 158 
186 706 296 158 168 185 
287 305 366 68 82 98 
285 270 307 99 111 124 
338 388 429 179 155 138 
254 446 225 173 171 177 
194 125 429 109 91 79 
230 410 459 84 104 138 
113 710 458 102 111 132 
262 778 371 197 154 122 
356 306 393 166 167 175 
230 888 391 157 120 88 
294 376 297 66 98 129 
150 631 499 92 79 66 
169 825 391 139 108 96 
338 340 397 196 168 140 
194 127 429 110 88 69 
177 616 349 94 108 124 
297 755 311 110 151 185 
171 515 452 76 99 142 
309 731 253 112 126 141 
175 814 323 155 118 86 
182 750 470 149 164 183 
232 476 461 68 88 134 
344 206 433 95 41 54 
215 804 399 149 102 120 
245 460 439 125 131 149 
197 666 269 101 134 171 
260 804 312 226 170 138 
325 157 400 115 89 55 
190 971 323 112 90 66 
196 122 424 101 91 83 
253 451 224 83 109 138 
145 239 386 105 105 120 
262 202 465 80 27 54 
239 419 428 124 134 148 
250 616 299 50 74 96 
253 212 300 136 133 134 
272 646 421 171 123 115 
202 119 422 101 91 81 
307 457 302 152 157 169 
183 802 447 107 98 93 
267 602 276 72 74 81 
156 346 412 167 143 117 
351 176 445 59 27 24 
222 185 358 32 37 41 
288 205 449 38 57 91 
298 243 438 104 103 106 
205 725 236 136 30 46 
221 955 387 138 112 97 
355 144 482 121 108 95 
355 143 412 117 106 97 
206 119 421 102 89 77 
329 622 224 92 111 131 
339 216 450 58 31 42 
164 672 499 128 129 140 
296 250 446 115 112 113 
173 415 438 165 140 115 
211 130 315 62 80 96 
287 601 298 88 83 81 
191 636 424 39 49 61 
260 175 457 37 48 81 
200 114 427 101 91 82 
200 115 426 101 91 82 
270 328 290 116 122 132 
330 462 389 85 116 168 
163 451 435 132 114 99 
251 811 251 216 139 96 
289 623 221 55 88 119 
223 856 302 138 112 91 
171 640 418 49 90 135 
174 655 388 56 82 132 
156 448 401 90 109 140 
283 427 271 25 85 139 
202 115 426 101 91 81 
237 915 374 155 125 94 
258 10 370 143 121 104 
275 726 419 186 62 70 
158 677 430 116 139 165 
153 499 437 71 97 140 
179 351 347 92 111 137 
348 338 430 162 7 72 
292 737 365 159 135 114 
203 112 428 101 90 80 
203 113 428 101 90 81 
208 380 458 152 93 56 
200 117 424 101 91 82 
148 266 391 140 73 86 
219 162 361 92 24 29 
133 927 362 95 76 58 
259 202 395 76 40 46 
345 326 425 163 141 119 
308 353 308 86 111 135 
161 711 421 62 97 133 
289 173 443 54 38 41 
170 698 382 140 144 155 
203 318 444 152 150 155 
168 263 343 144 142 147 
274 143 442 97 69 49 
204 113 427 100 89 80 
177 630 436 45 69 100 
241 735 446 137 132 155 
153 415 386 90 102 133 
274 447 408 99 113 139 
346 216 473 113 101 118 
340 324 402 180 148 113 
207 509 467 90 110 146 
252 200 318 64 52 57 
226 809 382 198 133 116 
254 533 261 128 148 177 
319 439 315 121 137 158 
212 640 224 146 150 160 
299 324 448 122 128 149 
259 331 432 98 127 157 
207 114 426 100 88 76 
168 659 345 134 116 123 
213 291 425 129 135 145 
171 626 484 83 75 69 
136 750 481 128 141 200 
295 759 297 120 134 150 
265 809 292 200 145 111 
292 328 446 153 56 96 
329 501 372 181 184 195 
146 660 410 102 137 195 
256 149 466 142 38 32 
330 673 300 117 146 174 
280 401 269 93 113 134 
150 292 395 71 112 145 
214 865 390 149 119 87 
158 257 348 140 138 141 
253 651 221 91 112 132 
206 689 220 100 138 173 
325 317 371 130 128 129 
302 349 353 63 80 95 
225 534 270 96 111 128 
136 187 390 117 107 112 
151 632 503 97 82 67 
177 670 393 123 136 154 
315 220 432 49 38 31 
320 163 406 45 28 29 
201 459 321 67 95 130 
236 610 247 55 83 107 
202 466 314 127 132 143 
158 273 413 125 93 95 
200 121 422 102 91 81 
146 521 388 132 142 163 
220 875 415 157 122 91 
280 602 286 84 80 78 
249 757 418 108 124 141 
269 299 298 164 125 90 
294 571 314 119 119 124 
272 345 286 68 104 133 
310 499 306 101 118 154 
281 770 222 142 124 109 
267 741 211 169 126 89 
225 495 289 93 111 131 
221 490 293 97 113 137 
337 435 406 150 161 177 
175 612 318 96 93 102 
234 531 474 154 166 185 
279 239 387 80 52 58 
217 138 473 144 64 7 
195 723 289 133 62 86 
242 564 464 71 93 142 
309 583 345 145 148 157 
203 448 321 81 106 133 
249 807 350 212 148 128 
157 904 414 170 132 106 
151 796 368 47 35 43 
201 126 417 103 91 78 
288 725 378 163 144 124 
300 747 295 189 170 157 
222 342 296 68 104 136 
146 398 416 159 142 128 
265 228 386 69 43 43 
150 802 422 183 68 108 
318 521 376 68 93 159 
328 731 215 169 186 206 
191 455 451 108 96 84 
310 673 359 152 112 65 
343 254 470 97 96 129 
351 180 461 50 76 104 
302 171 410 44 31 33 
227 419 440 102 113 144 
191 759 287 95 86 86 
327 390 434 164 143 126 
202 748 461 111 133 158 
147 534 404 114 130 166 
271 294 444 94 117 146 
328 730 210 155 144 148 
254 343 267 84 108 132 
251 292 430 106 127 151 
129 688 453 102 120 153 
208 498 467 169 165 169 
157 559 416 173 165 166 
292 418 287 66 103 137 
211 132 392 77 67 57 
157 195 349 127 28 45 
354 329 382 182 150 112 
150 387 401 114 48 57 
141 180 362 141 60 0 
239 197 385 47 40 43 
163 941 426 185 142 121 
317 631 203 56 97 127 
145 403 406 125 133 146 
199 662 266 110 145 179 
162 691 426 67 92 147 
199 889 432 163 121 98 
262 591 429 99 114 131 
255 773 231 156 130 103 
300 728 358 180 165 155 
177 522 457 108 134 167 
156 202 349 128 35 29 
184 952 428 217 171 153 
262 195 461 84 30 56 
156 437 403 58 83 125 
244 590 450 68 49 58 
212 698 265 134 147 165 
219 936 412 189 144 116 
145 343 402 113 131 152 
233 825 346 207 146 122 
205 284 436 118 126 140 
225 525 239 156 161 173 
207 124 416 102 88 74 
167 447 440 108 90 73 
283 795 271 194 140 111 
146 955 336 89 72 53 
174 811 323 121 104 89 
336 262 382 83 112 136 
167 185 392 53 37 38 
301 340 299 132 140 154 
351 283 381 63 78 90 
266 280 358 53 67 80 
138 643 512 108 89 68 
150 913 403 142 113 88 
345 335 439 194 163 131 
166 587 410 128 140 167 
272 310 296 152 126 98 
338 393 390 194 165 136 
195 398 337 73 99 144 
215 968 369 78 66 58 
222 600 455 55 77 111 
166 707 378 72 95 148 
192 122 437 95 79 62 
192 123 436 99 78 59 
134 653 418 108 128 187 
356 169 431 69 29 36 
306 672 383 141 97 62 
206 251 328 89 129 162 
314 385 314 78 107 135 
241 215 341 57 34 32 
214 849 319 199 150 115 
223 926 402 194 145 116 
300 276 451 110 125 144 
288 461 284 105 127 153 
241 135 470 164 67 2 
182 675 305 84 138 179 
337 358 396 151 97 64 
247 395 420 114 125 141 
181 619 302 99 100 115 
343 240 471 123 119 121 
134 726 498 181 180 187 
230 607 235 131 130 134 
142 187 374 100 97 98 
162 689 427 80 106 150 
210 282 435 130 134 144 
229 883 393 158 122 88 
351 158 458 89 83 92 
195 264 439 87 98 112 
331 479 353 126 139 158 
194 126 432 104 65 34 
275 765 221 165 130 101 
205 430 318 73 109 138 
171 911 317 73 59 46 
140 140 391 93 82 73 
225 336 285 72 110 140 
224 483 467 126 139 156 
267 639 425 109 80 67 
275 631 422 182 125 115 
225 462 278 107 122 160 
301 612 228 28 72 107 
204 626 253 119 128 146 
305 216 440 45 37 33 
299 443 411 71 99 140 
343 352 368 120 29 47 
175 262 407 73 51 61 
341 318 397 185 155 119 
240 828 281 242 192 160 
222 547 270 124 127 135 
210 243 425 102 14 44 
130 764 454 138 159 198 
179 368 427 126 104 79 
155 480 370 136 144 161 
157 633 472 62 77 91 
154 766 364 150 24 47 
277 697 432 149 167 190 
185 696 297 168 165 170 
338 297 425 89 118 144 
243 587 457 47 56 72 
181 131 364 79 61 44 
158 295 353 162 89 51 
286 176 407 72 58 42 
310 149 404 101 92 85 
279 411 262 105 124 145 
143 685 446 127 144 166 
318 440 313 155 158 169 
187 619 473 74 71 70 
334 230 489 115 89 114 
323 429 325 126 140 159 
314 287 443 119 120 125 
142 289 388 85 92 108 
150 415 420 160 65 0 
335 357 442 205 173 141 
161 979 370 100 69 47 
206 248 429 101 28 64 
162 190 338 108 50 44 
352 355 382 137 129 138 
259 29 358 158 141 131 
150 995 354 191 166 146 
265 822 272 234 169 136 
126 756 458 97 135 184 
253 631 249 39 77 103 
167 629 367 56 78 102 
242 591 458 95 128 158 
282 775 303 175 125 88 
194 273 341 149 149 155 
276 806 279 196 150 119 
152 644 514 126 98 71 
241 188 391 77 37 37 
223 931 400 177 133 107 
169 155 382 70 62 56 
312 731 323 146 120 91 
293 702 392 193 131 80 
329 638 230 47 58 69 
332 231 473 43 66 97 
148 991 335 172 144 117 
141 785 444 160 174 197 
179 898 316 56 46 40 
170 333 350 140 57 78 
151 531 378 181 176 177 
248 541 262 161 161 169 
222 443 463 107 119 140 
186 465 452 114 94 98 
154 553 396 103 119 154 
263 275 358 84 95 107 
245 793 378 211 148 126 
246 189 317 56 68 80 
250 804 354 211 147 125 
169 238 342 138 128 123 
297 568 314 120 121 127 
234 675 205 50 76 101 
195 124 444 123 73 29 
329 327 451 145 148 158 
295 766 270 165 148 133 
135 705 515 135 151 187 
220 895 361 119 86 65 
154 232 351 81 114 142 
325 247 429 75 84 96 
300 157 404 91 73 57 
116 703 459 101 110 126 
196 125 445 137 68 7 
146 515 388 109 124 150 
321 612 266 119 107 96 
317 668 187 120 128 141 
188 338 341 160 156 158 
170 639 337 73 124 161 
316 215 409 67 54 62 
313 752 227 214 183 191 
348 162 415 112 18 21 
149 502 433 78 100 149 
139 947 353 110 85 64 
204 310 417 108 110 118 
191 277 405 63 92 115 
319 382 340 62 91 116 
159 899 416 172 133 106 
162 727 364 123 122 126 
126 647 483 63 64 67 
147 701 506 137 165 198 
227 197 449 103 35 35 
227 208 296 167 102 60 
194 576 304 104 127 153 
348 188 440 41 39 66 
209 111 430 99 86 72 
250 215 295 130 131 137 
354 149 409 117 103 90 
237 566 469 141 154 172 
310 725 194 172 190 215 
284 790 271 190 142 108 
244 563 244 127 140 157 
268 785 352 217 157 128 
208 860 408 114 90 61 
245 202 298 130 124 121 
325 466 342 86 107 154 
164 809 343 137 109 95 
143 637 483 81 75 71 
201 166 445 91 36 43 
203 356 323 43 85 116 
102 710 481 179 182 195 
139 295 377 169 168 174 
227 543 223 156 164 181 
148 375 399 104 100 100 
157 698 492 130 144 183 
315 181 398 97 74 53 
156 561 391 220 199 185 
215 111 431 96 80 62 
297 528 395 46 76 130 
206 731 229 159 107 66 
228 410 443 116 120 147 
262 760 221 187 152 111 
118 694 458 154 153 159 
205 372 319 112 122 138 
208 97 438 101 84 67 
265 595 431 61 67 74 
172 751 336 140 52 56 
193 783 451 190 104 90 
136 191 397 107 60 86 
168 840 359 183 137 105 
332 313 375 135 132 134 
338 405 387 180 84 3 
306 285 448 129 137 151 
172 145 377 96 56 24 
312 566 341 78 108 146 
274 234 387 76 54 59 
200 664 481 105 125 145 
211 97 439 99 82 63 
145 446 423 134 115 98 
206 299 438 105 120 137 
320 218 410 82 55 53 
240 452 442 120 129 142 
239 247 447 139 135 138 
157 654 515 156 108 78 
324 527 370 76 103 175 
361 236 395 96 74 71 
208 103 434 101 86 71 
146 447 420 137 103 103 
296 708 373 86 62 54 
317 507 398 119 142 177 
280 778 300 184 132 96 
299 702 191 129 138 159 
212 645 257 83 104 143 
227 825 274 217 164 129 
136 713 503 125 125 177 
208 100 436 102 86 70 
188 578 298 126 144 165 
211 496 468 140 149 167 
277 787 234 206 180 157 
279 261 457 103 60 76 
333 694 249 121 157 191 
315 369 322 75 109 140 
319 617 247 8 52 102 
165 430 434 163 67 0 
157 384 394 88 93 111 
153 279 409 153 145 142 
221 935 407 182 139 110 
123 645 464 44 86 119 
112 714 500 117 137 203 
154 460 411 85 103 131 
284 145 420 83 83 86 
201 786 440 161 162 168 
352 217 423 45 80 127 
148 717 489 84 107 153 
300 181 415 58 36 28 
296 597 306 91 87 87 
308 594 346 116 122 132 
214 909 326 83 65 56 
307 716 282 74 116 149 
340 217 425 65 33 41 
158 642 390 36 64 89 
318 745 229 166 77 102 
187 618 473 75 71 71 
166 981 378 122 96 70 
247 620 459 162 116 103 
278 506 397 87 93 123 
147 236 398 109 89 115 
222 553 264 84 83 87 
273 524 419 91 117 150 
223 310 290 114 123 138 
232 772 416 55 39 54 
151 409 384 86 110 146 
244 799 373 208 144 124 
258 340 273 68 102 129 
271 816 278 215 160 129 
207 861 424 149 117 92 
336 425 416 91 119 176 
287 366 294 93 116 140 
279 354 434 155 149 150 
240 193 328 32 42 55 
215 100 438 97 81 63 
151 732 418 53 68 120 
214 261 324 85 122 152 
169 285 413 60 90 113 
215 102 436 97 81 63 
324 298 377 81 102 120 
345 389 365 134 135 142 
154 645 382 127 148 187 
203 905 428 193 140 123 
199 756 265 130 118 111 
318 711 187 181 183 209 
169 683 345 174 172 179 
236 618 471 173 125 110 
341 236 485 160 109 91 
315 205 405 64 59 60 
150 926 331 96 78 61 
254 194 398 70 39 58 
189 645 487 167 112 92 
333 676 265 144 170 198 
161 740 359 125 60 59 
316 312 370 79 103 129 
355 166 438 66 32 44 
194 857 421 115 93 70 
147 710 435 49 59 126 
205 569 467 65 69 82 
183 773 306 138 121 106 
321 511 396 172 182 199 
348 153 417 66 35 31 
251 619 456 170 118 111 
306 738 252 97 67 78 
180 645 465 71 81 103 
291 717 376 144 77 31 
332 192 489 93 90 94 
310 373 304 74 112 145 
358 168 420 92 28 28 
256 657 211 108 118 130 
299 369 435 92 110 159 
178 650 498 175 120 93 
236 160 398 121 62 36 
206 853 383 143 111 79 
307 655 197 70 100 125 
307 133 407 108 78 49 
344 423 365 112 101 92 
165 139 332 73 96 118 
199 798 420 153 129 105 
154 281 355 123 133 148 
140 920 349 73 59 51 
160 981 315 93 62 46 
266 730 207 132 42 93 
264 212 465 83 33 36 
345 636 258 63 86 107 
142 382 403 188 158 126 
243 784 240 139 125 114 
224 612 228 112 44 33 
208 426 455 136 117 97 
351 172 467 67 71 94 
213 476 470 102 122 151 
236 449 462 98 119 158 
368 181 420 101 75 99 
208 419 459 148 136 131 
144 377 410 156 126 85 
151 888 374 139 93 57 
303 743 300 203 178 157 
303 200 395 73 61 53 
215 107 434 96 80 62 
213 746 227 81 105 139 
250 666 456 123 135 153 
186 387 346 51 90 147 
249 326 432 79 106 130 
313 579 358 109 133 162 
293 260 382 96 97 100 
100 684 468 166 165 174 
324 646 341 89 85 81 
192 670 487 181 177 182 
348 697 207 184 202 225 
275 380 424 78 99 137 
194 859 407 106 84 57 
308 177 407 70 33 36 
202 791 428 41 33 51 
176 488 358 126 128 135 
221 884 417 171 131 101 
222 911 414 202 147 122 
235 373 448 74 99 130 
244 416 419 126 131 146 
136 193 401 110 43 49 
317 663 357 192 143 78 
236 751 436 192 136 139 
145 902 351 97 67 51 
167 355 357 159 153 155 
166 509 362 67 85 105 
219 873 365 167 130 99 
345 228 431 140 43 60 
283 354 293 85 112 138 
153 305 360 84 115 146 
304 525 302 108 123 143 
218 100 439 96 80 62 
122 734 443 134 145 163 
221 301 305 113 120 132 
208 213 403 98 68 67 
184 929 435 190 153 128 
281 768 221 193 134 75 
226 130 419 99 81 61 
304 427 413 96 113 149 
219 547 277 116 118 125 
242 311 280 98 119 139 
276 393 266 99 118 138 
148 474 385 94 114 143 
248 615 255 77 97 120 
192 837 381 169 122 93 
306 362 438 106 121 158 
231 151 400 103 85 74 
160 694 494 175 182 196 
326 441 346 88 108 143 
271 289 450 115 128 145 
200 253 337 81 123 157 
278 249 317 112 113 117 
148 192 357 101 56 47 
198 600 330 91 76 86 
186 608 335 64 99 127 
213 199 415 59 77 99 
231 373 449 81 100 123 
308 614 221 91 122 159 
236 428 456 86 106 149 
338 431 406 111 131 157 
220 860 315 136 112 96 
254 362 255 57 96 131 
260 192 461 91 36 32 
328 321 371 122 124 130 
211 507 296 71 95 118 
171 595 399 103 124 154 
335 718 206 170 197 228 
278 708 424 134 167 199 
346 162 414 110 27 18 
157 203 347 122 26 36 
143 989 336 197 171 149 
196 535 466 66 87 143 
218 137 349 96 76 64 
191 812 406 119 111 110 
287 787 236 113 106 103 
194 623 284 145 145 151 
236 398 453 82 100 145 
208 455 465 111 126 153 
273 254 298 114 127 143 
326 499 352 115 130 149 
161 756 355 111 37 40 
175 739 475 150 164 183 
253 460 413 143 144 152 
305 678 385 169 122 52 
237 402 245 69 102 135 
310 203 425 48 42 39 
220 99 440 94 79 62 
313 649 372 171 105 55 
177 622 491 102 87 73 
147 527 415 175 169 171 
205 648 241 112 130 149 
221 838 342 184 141 116 
306 161 402 97 59 27 
286 768 220 165 136 109 
159 676 428 102 130 163 
348 194 431 64 43 64 
143 703 509 139 165 197 
333 681 259 139 172 204 
198 373 329 62 99 134 
210 412 303 73 112 143 
213 529 294 111 125 143 
193 772 277 141 125 111 
231 247 438 88 109 133 
303 594 316 83 86 93 
180 695 319 132 148 169 
140 250 379 102 94 103 
259 661 208 86 99 112 
208 339 322 82 103 126 
331 280 449 87 107 128 
138 203 395 143 81 82 
217 459 292 149 159 178 
246 460 436 134 140 153 
350 657 255 75 119 179 
310 713 354 75 81 92 
315 286 441 95 99 107 
323 196 394 95 92 92 
301 680 378 183 141 87 
308 326 320 133 86 82 
251 317 279 107 117 130 
192 496 461 97 118 146 
185 683 486 191 192 202 
256 186 402 40 44 67 
259 643 435 160 109 103 
286 609 412 166 116 118 
162 826 372 103 124 144 
192 177 435 66 33 43 
282 136 428 92 61 10 
173 815 432 158 127 97 
218 106 435 96 79 60 
153 544 421 167 167 175 
145 657 402 93 128 184 
341 681 173 148 165 188 
219 107 435 95 78 60 
213 187 407 80 89 102 
349 225 424 49 72 118 
243 559 465 181 180 188 
171 573 438 129 138 160 
251 589 266 77 89 103 
301 759 251 173 143 110 
134 769 459 172 187 210 
186 890 430 162 115 100 
323 449 332 93 118 149 
225 458 278 175 179 189 
217 108 433 96 80 61 
193 235 400 50 72 94 
180 370 348 61 95 136 
146 479 376 111 128 152 
259 759 406 172 146 129 
194 536 307 130 138 152 
268 753 403 155 137 146 
301 621 373 120 108 102 
158 776 470 155 172 195 
218 109 433 96 80 61 
185 798 296 111 93 80 
219 109 433 96 79 60 
296 699 380 176 118 44 
219 255 319 93 118 141 
301 516 298 122 131 147 
361 148 461 162 61 10 
253 369 249 53 90 118 
219 110 433 96 79 60 
195 640 466 71 103 130 
220 106 435 96 79 61 
146 211 357 152 79 45 
211 713 215 101 103 121 
229 461 255 151 162 178 
221 107 435 95 79 61 
169 587 386 168 161 162 
165 575 379 184 176 175 
279 525 416 119 138 161 
219 836 299 235 177 140 
214 230 415 127 74 77 
230 495 239 45 90 141 
101 673 467 76 100 140 
322 680 181 77 103 128 
194 797 441 157 136 118 
221 106 436 95 79 62 
276 492 270 99 123 154 
222 105 436 96 80 63 
293 396 294 77 105 134 
195 856 389 143 115 86 
360 259 393 98 78 89 
190 145 441 54 61 86 
236 914 379 118 86 61 
240 451 443 150 150 157 
330 207 420 83 31 37 
142 179 366 150 70 0 
220 109 433 95 79 61 
201 132 414 100 85 71 
176 856 332 130 90 60 
164 822 395 199 159 111 
316 595 310 114 98 85 
284 674 200 56 83 124 
257 665 448 102 114 143 
220 111 432 96 79 61 
221 110 433 95 79 62 
119 646 494 89 79 70 
288 669 200 55 77 108 
209 158 451 99 49 67 
279 566 410 157 151 153 
255 163 410 131 49 5 
291 308 341 103 105 109 
221 355 295 56 93 126 
273 614 249 86 107 128 
205 788 428 140 130 126 
293 212 447 88 54 67 
327 507 374 67 92 171 
179 521 327 124 131 145 
175 615 319 78 89 110 
193 827 296 196 144 112 
263 620 253 62 95 122 
125 646 439 44 66 137 
317 232 385 93 85 80 
293 649 398 87 131 165 
211 669 250 74 135 178 
176 1001 356 112 84 57 
288 551 410 93 119 153 
270 131 435 112 84 64 
153 421 384 80 102 140 
244 277 432 66 108 140 
280 419 263 96 127 158 
168 662 334 84 118 148 
288 692 415 139 165 193 
212 572 276 78 104 126 
212 118 423 99 85 70 
227 745 225 80 100 119 
263 403 243 123 132 146 
99 692 513 101 132 195 
331 477 380 175 179 191 
142 960 345 86 68 51 
155 532 369 104 122 145 
265 757 400 152 139 134 
339 453 367 174 176 187 
322 611 269 106 96 87 
172 413 436 170 145 120 
283 299 345 102 105 111 
199 136 447 107 68 49 
300 501 401 139 148 164 
209 114 426 99 86 73 
277 618 425 168 116 113 
185 402 348 64 89 135 
333 160 408 66 35 48 
185 652 459 22 55 97 
224 818 267 196 143 108 
238 345 259 94 115 136 
196 527 301 99 123 150 
319 706 258 165 68 94 
320 524 393 137 159 189 
207 326 442 99 115 133 
278 474 403 88 109 140 
209 112 429 99 86 73 
209 973 380 103 86 70 
284 745 372 179 151 123 
210 112 429 98 84 70 
194 656 467 73 83 97 
305 749 329 205 193 187 
273 687 435 145 156 171 
280 567 293 94 96 101 
168 628 355 99 126 153 
147 246 396 117 85 96 
184 510 323 101 110 123 
286 538 410 161 162 169 
209 117 424 100 87 74 
164 669 348 158 160 169 
185 618 382 60 94 121 
142 179 370 148 62 0 
211 116 425 98 84 70 
256 262 366 109 106 107 
261 31 380 162 143 136 
170 544 346 140 153 172 
211 118 424 99 85 71 
250 506 446 92 113 145 
152 252 410 60 107 142 
190 643 281 97 124 151 
288 692 414 138 164 192 
168 588 401 183 174 172 
248 220 338 76 41 39 
292 714 197 156 162 175 
228 903 388 154 110 81 
214 115 427 97 81 65 
290 774 278 146 109 85 
243 529 223 108 142 182 
300 732 266 123 104 91 
185 567 335 152 151 158 
310 335 325 150 124 95 
205 136 395 89 79 69 
287 381 290 76 102 126 
275 517 275 121 140 163 
283 242 458 77 108 134 
239 283 430 78 121 153 
221 548 254 75 115 151 
173 629 365 68 87 108 
241 575 234 113 124 140 
214 112 430 96 81 64 
191 345 338 87 109 134 
193 225 445 128 34 72 
293 606 404 69 114 149 
215 115 428 96 80 63 
181 446 446 121 103 84 
171 906 426 161 123 103 
304 194 431 54 44 39 
165 775 343 156 128 97 
279 189 404 42 53 70 
180 402 352 62 92 137 
254 452 410 130 134 145 
192 568 322 92 112 134 
332 470 381 142 159 183 
247 317 277 131 134 141 
272 798 291 202 149 116 
215 117 425 97 82 65 
341 637 295 72 103 138 
327 626 248 82 77 74 
268 244 296 108 126 147 
225 531 263 138 145 158 
188 217 442 51 54 83 
160 271 412 109 22 59 
260 645 435 120 79 78 
268 290 299 127 97 71 
134 736 432 92 108 129 
288 715 396 173 81 85 
265 366 423 60 100 129 
208 123 417 102 88 74 
267 250 336 69 76 86 
132 171 391 128 113 98 
253 799 356 211 146 122 
208 123 418 102 88 74 
355 311 380 161 161 169 
308 612 226 82 115 149 
177 976 407 105 85 74 
246 659 208 42 96 129 
245 573 275 78 88 99 
252 201 317 71 43 49 
113 655 456 100 118 139 
178 669 492 97 109 158 
340 403 415 140 125 114 
210 123 418 101 87 72 
211 618 238 128 136 149 
211 122 419 101 87 71 
209 776 438 62 41 95 
173 307 346 134 91 99 
142 196 369 105 92 103 
216 447 469 150 155 166 
221 707 211 182 111 115 
256 213 304 129 123 120 
223 144 377 99 57 13 
154 695 504 127 142 190 
210 120 421 101 87 73 
286 751 210 201 130 98 
344 423 371 146 132 124 
323 178 404 75 45 42 
184 916 430 119 93 75 
221 929 342 66 50 46 
349 681 220 116 154 189 
200 596 329 131 134 142 
286 672 413 124 141 160 
155 814 385 161 135 108 
301 417 299 102 124 147 
365 163 418 86 91 99 
281 452 271 86 120 154 
317 342 441 159 50 98 
162 209 342 128 48 76 
334 177 412 71 42 34 
193 648 404 37 54 68 
262 736 213 148 27 24 
156 783 357 141 123 109 
340 677 254 143 176 210 
217 553 238 116 144 173 
308 539 390 71 98 139 
307 553 323 150 154 165 
181 631 435 45 66 95 
148 156 399 82 59 40 
345 233 425 117 41 70 
289 548 398 117 122 138 
193 155 434 51 58 68 
213 120 422 100 85 69 
205 248 429 100 30 60 
298 345 298 89 116 147 
180 998 337 140 107 80 
149 788 456 144 119 121 
342 236 452 128 1 49 
214 120 423 99 84 67 
175 585 435 95 117 153 
150 646 388 123 145 174 
215 120 423 99 83 66 
215 121 422 100 84 67 
142 900 360 89 63 49 
191 490 460 90 116 144 
166 868 356 144 111 79 
234 719 213 165 7 19 
312 587 359 77 117 178 
236 398 448 90 107 152 
279 742 377 157 133 112 
144 951 392 102 84 70 
249 421 416 151 147 150 
237 603 465 113 97 84 
183 651 360 152 150 157 
153 806 368 160 131 113 
198 976 398 88 66 59 
251 795 368 213 148 128 
213 438 293 168 163 166 
326 452 344 90 111 149 
181 667 307 117 142 169 
289 574 309 87 85 84 
213 796 408 164 137 113 
241 247 448 143 139 142 
244 580 250 99 109 122 
339 165 412 86 30 35 
263 615 260 34 81 111 
194 558 310 104 121 143 
236 757 428 131 120 117 
225 568 468 166 174 188 
218 135 349 105 65 42 
221 392 288 96 118 143 
242 552 466 101 122 155 
308 335 333 131 101 72 
280 757 214 116 109 105 
255 805 342 218 154 130 
183 968 418 111 92 78 
308 381 302 62 101 138 
152 805 372 157 141 128 
344 194 446 78 33 43 
235 492 473 173 179 194 
216 560 233 82 128 164 
235 213 367 49 43 45 
233 683 470 98 119 162 
242 607 253 62 77 95 
159 333 412 148 152 162 
198 136 381 86 71 54 
295 270 379 91 93 96 
251 373 421 52 105 141 
218 782 419 166 150 139 
207 703 223 146 161 181 
321 619 218 93 123 150 
227 728 216 191 135 55 
332 198 414 68 31 35 
302 739 288 177 152 129 
276 318 438 162 121 73 
167 694 367 139 147 164 
217 966 370 90 72 61 
193 247 338 101 133 163 
179 716 318 139 154 173 
332 480 376 109 132 171 
244 440 229 120 133 151 
129 131 384 120 108 97 
156 658 514 154 106 76 
201 302 413 115 116 122 
329 288 378 138 135 137 
111 687 520 175 127 103 
299 389 429 91 113 161 
271 640 421 135 99 81 
170 829 340 177 134 105 
279 403 266 92 117 141 
301 158 413 40 47 55 
165 332 417 100 116 135 
352 650 271 52 102 164 
230 859 287 115 101 88 
205 909 425 175 124 106 
200 797 421 162 139 118 
184 944 319 97 69 47 
309 227 389 86 90 96 
182 734 310 138 30 49 
301 431 299 122 136 156 
215 223 313 137 131 132 
329 677 272 125 163 200 
189 978 408 98 82 70 
279 420 413 92 108 136 
219 173 357 37 31 29 
153 466 431 152 152 159 
267 541 419 117 134 154 
221 114 431 95 78 58 
188 855 385 147 111 86 
