ply
format ascii 1.0
comment Created by CloudCompare v2.11.1 (Anoia)
comment Created 2/28/22 9:39 PM
obj_info Generated by CloudCompare!
element vertex 2010
property float x
property float y
property float z
property uchar red
property uchar green
property uchar blue
end_header
303 687 377 163 135 109 
295 763 222 184 167 156 
341 135 402 145 97 71 
285 609 411 156 101 91 
303 680 364 146 110 72 
284 260 374 89 64 61 
216 231 410 117 60 71 
203 54 452 114 95 75 
159 404 425 173 149 127 
314 455 405 75 100 134 
196 142 436 101 87 76 
145 265 376 125 102 103 
202 729 225 161 97 79 
236 177 382 77 39 30 
289 678 177 123 136 153 
176 475 358 102 117 150 
209 972 371 106 93 83 
172 453 356 88 121 156 
224 390 280 72 98 125 
255 662 196 106 113 123 
183 630 304 90 130 168 
206 717 257 78 88 117 
328 203 384 78 107 132 
239 332 261 103 120 139 
196 166 318 119 107 119 
183 524 459 70 104 162 
204 52 453 115 96 76 
221 405 281 136 146 162 
368 191 412 147 49 34 
157 332 357 158 113 58 
249 810 302 230 173 139 
172 631 452 45 62 79 
176 146 330 114 101 100 
254 267 435 76 111 138 
100 674 498 115 137 161 
241 491 471 145 157 175 
190 283 345 98 116 136 
269 541 416 112 134 159 
219 356 435 120 80 95 
219 313 435 111 122 137 
299 547 384 78 107 135 
158 367 419 129 110 120 
177 630 467 27 39 54 
238 339 434 123 128 138 
310 711 305 137 128 124 
251 740 201 217 171 97 
183 611 418 102 114 156 
178 639 313 83 132 170 
160 311 412 148 151 161 
229 316 279 26 74 135 
293 530 293 81 100 121 
175 288 416 76 98 118 
196 583 293 64 49 74 
304 216 381 80 55 21 
216 764 221 142 123 107 
342 666 216 150 169 195 
291 227 387 95 62 33 
272 11 403 112 91 72 
328 467 335 75 97 128 
235 677 196 130 128 130 
217 777 230 166 136 104 
146 709 448 40 77 124 
126 654 463 92 113 140 
235 733 194 147 25 40 
335 460 344 111 131 154 
170 843 359 172 129 95 
352 255 377 117 69 62 
164 206 407 50 64 78 
209 463 314 126 129 138 
333 474 396 103 123 178 
248 512 217 112 135 182 
223 424 270 66 101 147 
274 128 446 97 77 62 
274 155 405 108 59 21 
339 228 446 20 44 79 
165 482 446 66 96 138 
284 785 244 116 143 168 
241 224 449 117 24 66 
259 604 450 125 100 83 
244 333 433 118 121 128 
233 332 436 143 140 143 
162 656 417 125 159 200 
290 715 382 207 83 43 
186 624 363 83 103 124 
200 60 452 110 91 70 
249 591 255 95 101 110 
324 486 326 76 109 152 
304 658 386 81 100 117 
149 499 413 128 135 148 
271 810 268 203 151 116 
303 138 406 92 80 72 
310 618 345 159 108 97 
178 810 310 158 117 89 
266 664 442 164 164 170 
343 265 443 64 96 125 
248 616 290 50 71 91 
264 360 247 91 110 129 
262 396 235 115 125 138 
158 982 320 93 67 41 
341 429 382 143 126 110 
303 619 301 68 60 64 
196 524 465 82 110 145 
221 780 418 188 168 153 
165 995 339 139 110 85 
215 600 256 78 112 144 
292 175 451 123 57 50 
360 261 387 77 125 163 
147 779 415 127 146 164 
266 9 378 156 132 122 
204 62 451 110 91 71 
281 277 366 99 87 88 
220 329 436 125 132 143 
323 671 289 112 142 170 
295 151 421 67 54 42 
128 693 467 104 115 131 
312 617 237 75 89 104 
207 684 199 146 146 153 
216 358 313 55 88 117 
207 160 308 70 109 141 
340 389 350 122 104 84 
208 865 328 148 106 80 
273 245 313 112 111 112 
212 963 384 104 81 64 
329 704 218 148 171 197 
237 190 371 63 40 33 
160 813 359 156 150 150 
253 558 243 71 107 148 
238 722 466 155 171 193 
180 434 444 160 62 7 
278 391 254 124 136 153 
324 169 398 79 42 25 
195 798 269 132 119 109 
259 426 411 102 117 146 
229 664 474 25 53 97 
133 917 376 71 60 51 
150 932 414 141 112 91 
186 295 346 128 87 103 
194 48 465 97 81 63 
281 234 388 73 59 66 
359 211 387 83 48 45 
173 637 436 46 74 113 
300 610 225 76 94 114 
166 399 428 159 138 117 
301 257 452 100 111 125 
316 621 298 95 98 104 
235 188 371 60 39 34 
189 681 297 77 118 151 
189 238 339 127 141 159 
269 124 459 109 98 85 
188 504 317 91 101 113 
231 487 469 133 145 164 
201 193 447 141 55 47 
183 684 317 148 157 172 
233 902 388 124 95 76 
255 504 218 117 141 183 
250 635 445 164 116 105 
176 689 500 190 187 193 
261 521 424 157 162 173 
320 331 360 102 106 114 
251 392 241 98 118 140 
121 724 493 138 157 188 
281 550 407 138 145 163 
356 368 414 194 159 112 
175 135 373 97 61 27 
201 630 425 58 63 74 
236 895 392 154 112 84 
193 631 416 12 37 57 
220 456 469 93 117 151 
320 699 335 177 57 11 
281 503 390 124 128 136 
300 226 441 67 46 53 
193 53 466 119 98 75 
268 421 410 143 145 153 
186 768 284 108 92 78 
193 54 465 121 99 74 
175 760 324 157 141 129 
262 783 225 204 174 148 
242 727 458 144 165 188 
256 628 447 177 114 109 
198 134 381 87 71 54 
161 897 331 69 54 43 
216 177 413 115 73 67 
216 805 396 141 135 139 
291 646 394 77 111 140 
236 346 267 87 117 148 
191 689 281 84 129 167 
227 641 453 133 132 138 
244 139 419 99 80 59 
356 187 430 106 34 53 
148 496 398 146 147 155 
266 253 303 106 107 114 
337 192 480 96 118 142 
269 327 432 94 112 133 
186 643 505 154 106 77 
233 516 244 142 150 165 
251 553 248 143 150 164 
262 413 414 114 124 143 
229 692 481 87 76 129 
234 364 439 131 18 80 
334 373 352 150 130 109 
207 131 447 146 64 7 
174 866 327 124 93 65 
217 911 340 73 60 53 
318 711 233 169 65 69 
329 247 459 106 34 58 
158 247 353 76 101 123 
192 48 475 75 68 63 
167 324 418 147 151 162 
274 176 454 49 55 74 
290 406 414 74 97 142 
279 546 285 96 111 128 
192 149 316 119 103 96 
284 501 280 125 145 172 
304 590 328 66 75 85 
206 629 231 134 145 160 
132 657 461 107 127 161 
331 351 356 145 126 108 
298 723 187 190 202 220 
142 701 457 55 86 120 
273 808 266 199 151 117 
192 48 477 74 68 64 
145 977 356 102 81 64 
270 666 435 76 106 151 
198 652 265 74 105 145 
285 709 393 103 96 113 
302 737 299 184 152 120 
327 673 329 74 62 54 
193 48 478 74 69 67 
168 384 352 60 91 125 
169 436 355 90 108 133 
162 691 510 94 115 157 
293 246 379 45 65 81 
192 51 476 111 90 66 
228 461 273 128 143 172 
316 530 318 60 92 124 
151 759 393 159 20 45 
221 916 347 89 73 60 
234 602 463 89 81 76 
338 202 443 91 21 33 
185 621 353 117 122 132 
145 244 371 65 73 91 
220 662 473 63 89 112 
153 779 370 74 56 92 
322 622 297 81 91 103 
183 462 450 102 89 79 
319 673 342 150 105 40 
231 197 352 44 46 56 
123 691 470 74 89 132 
162 736 488 100 112 163 
157 910 419 152 123 96 
313 700 286 177 112 117 
192 54 475 134 108 80 
192 55 474 135 109 80 
148 965 384 102 79 65 
263 527 256 113 129 156 
340 454 356 149 161 179 
221 850 353 173 130 100 
251 564 452 128 139 156 
344 212 383 105 81 63 
219 871 383 161 129 96 
153 409 365 103 119 144 
338 457 379 70 103 157 
143 956 386 87 72 62 
191 634 359 118 121 129 
264 533 260 116 131 152 
243 762 212 178 129 116 
225 170 453 111 50 77 
248 229 305 115 134 155 
145 918 337 80 67 55 
299 604 372 170 116 113 
344 185 478 136 86 92 
228 286 436 106 125 146 
343 663 204 148 156 170 
152 786 452 187 180 191 
163 557 366 182 178 183 
193 56 465 127 104 79 
324 718 202 177 197 223 
153 961 401 95 79 64 
292 295 332 78 91 105 
197 659 274 93 124 153 
144 913 396 78 63 50 
211 262 435 121 112 107 
159 398 408 94 83 89 
343 654 239 64 111 185 
149 301 369 87 108 130 
205 729 212 175 146 109 
337 194 448 73 44 54 
195 947 325 105 73 50 
260 357 432 97 105 148 
185 281 344 110 123 141 
132 655 525 121 97 71 
154 316 406 139 143 153 
277 533 277 113 128 147 
354 194 424 106 32 52 
161 210 410 40 50 63 
294 751 285 158 151 147 
193 545 465 142 146 156 
328 677 327 198 165 129 
192 56 471 136 110 79 
332 318 446 133 153 178 
296 449 402 87 101 135 
355 184 439 52 40 59 
188 624 339 110 114 125 
284 282 449 114 138 165 
227 519 274 85 108 130 
231 180 333 75 27 28 
177 314 348 107 118 133 
133 984 336 189 164 143 
197 195 394 82 76 80 
232 723 191 187 49 64 
155 378 420 143 35 68 
316 229 434 76 72 71 
194 60 464 133 107 78 
232 313 273 151 157 168 
246 735 197 171 40 43 
254 482 445 118 121 143 
171 636 375 88 97 114 
160 751 484 145 156 189 
308 121 407 102 81 62 
194 60 467 137 109 76 
309 387 308 82 111 138 
226 186 357 30 34 39 
288 398 417 93 115 147 
149 216 362 113 55 66 
347 323 384 160 135 103 
358 307 373 160 162 171 
279 526 412 123 140 163 
177 970 315 125 94 53 
262 465 220 119 136 167 
235 828 269 251 182 144 
180 984 376 66 43 32 
231 258 303 83 106 127 
195 61 469 139 115 92 
206 628 264 122 135 154 
221 919 347 86 70 59 
150 540 394 110 126 160 
180 634 439 46 57 75 
271 318 286 123 96 78 
314 445 404 43 64 95 
290 624 401 183 123 126 
151 359 383 121 126 146 
344 365 430 182 148 108 
245 791 381 194 169 145 
170 335 352 152 91 97 
220 306 311 99 122 146 
205 335 335 117 125 138 
203 216 330 116 129 147 
162 522 443 64 90 142 
309 164 423 45 42 44 
201 733 236 99 34 69 
172 528 448 136 141 156 
190 636 390 28 39 49 
280 757 362 176 162 151 
248 417 421 106 112 142 
273 785 303 205 149 116 
333 224 473 114 102 123 
199 700 274 144 158 177 
192 56 472 136 110 79 
152 755 380 82 78 117 
235 441 445 76 90 132 
234 496 252 64 98 145 
275 660 184 80 102 123 
272 575 419 130 145 164 
216 959 381 91 72 57 
336 470 347 159 171 188 
172 680 371 64 117 155 
303 556 381 100 121 152 
272 127 464 99 90 82 
344 301 368 133 130 131 
251 740 434 128 72 105 
225 158 382 91 50 29 
241 489 466 128 142 160 
188 211 395 108 49 57 
208 675 234 165 170 182 
223 376 292 62 95 125 
214 561 275 81 81 93 
194 58 475 159 138 129 
219 810 390 178 135 100 
283 237 384 72 61 61 
297 299 444 145 134 127 
149 786 411 156 135 111 
253 651 205 111 113 120 
201 502 294 75 97 121 
181 628 340 72 107 136 
309 713 344 67 79 95 
136 208 375 104 105 111 
270 572 423 67 118 157 
302 515 390 108 122 153 
317 641 334 77 73 68 
194 57 478 163 144 138 
282 323 437 173 120 52 
237 167 316 80 49 47 
194 58 476 162 143 135 
242 923 378 129 93 75 
354 301 403 113 120 133 
207 261 410 99 61 72 
198 723 274 95 33 54 
266 791 230 206 143 131 
170 632 380 43 49 67 
241 424 241 143 141 143 
357 362 414 166 10 77 
285 269 319 117 119 125 
136 167 381 109 95 87 
235 632 259 90 100 112 
352 288 402 116 114 112 
197 800 268 144 117 88 
293 495 284 72 103 137 
152 741 405 110 124 155 
124 738 476 157 146 191 
148 787 419 163 13 53 
199 870 428 145 113 87 
344 251 442 148 136 132 
335 143 410 90 68 54 
313 144 402 72 70 72 
187 440 447 151 53 0 
203 967 399 122 99 80 
196 61 474 168 151 146 
139 704 521 156 174 198 
280 606 259 72 96 118 
133 748 475 142 157 201 
229 135 410 105 76 56 
109 709 483 168 166 180 
307 676 260 81 114 142 
295 441 288 126 138 155 
317 694 309 170 83 95 
314 610 324 144 97 85 
355 181 392 76 98 120 
157 426 388 74 98 138 
155 979 318 112 91 71 
249 293 433 113 129 148 
312 545 365 85 103 155 
256 622 240 49 97 129 
271 153 406 113 99 85 
138 907 384 74 58 44 
161 383 406 105 83 86 
184 644 412 37 57 79 
199 524 290 149 149 156 
276 497 392 84 91 130 
244 199 330 33 40 57 
169 831 376 164 125 94 
158 796 442 149 135 151 
166 718 398 98 117 141 
242 443 436 102 114 138 
178 624 333 72 105 135 
198 60 478 176 156 153 
341 649 253 50 75 149 
198 61 478 177 157 153 
136 977 338 116 83 63 
347 207 384 121 77 59 
319 699 238 134 161 187 
316 633 330 105 116 152 
220 367 300 57 89 124 
293 600 281 91 81 75 
181 557 334 130 140 157 
294 327 348 102 105 110 
219 250 416 96 72 83 
193 594 291 99 119 140 
231 620 479 170 116 102 
200 61 478 177 158 155 
334 252 442 96 81 100 
257 166 463 103 20 21 
342 401 418 157 141 139 
200 63 477 166 151 145 
155 282 406 78 120 153 
140 695 461 61 89 123 
177 669 324 155 157 166 
254 221 301 140 138 142 
334 126 407 125 75 25 
341 247 418 65 102 131 
157 656 419 92 125 188 
333 436 410 113 123 170 
311 610 310 138 99 84 
189 981 360 119 92 66 
178 889 428 174 133 111 
351 212 437 158 78 68 
340 646 250 95 117 174 
290 540 383 77 106 133 
241 411 441 127 132 157 
318 692 340 169 109 35 
357 188 391 117 101 86 
178 846 327 175 131 102 
285 400 416 86 111 142 
208 37 461 88 76 65 
175 612 319 80 123 158 
302 297 446 141 36 53 
227 215 309 162 71 0 
240 619 292 50 72 92 
222 191 302 142 58 78 
170 566 433 96 110 130 
278 390 255 123 135 150 
188 355 421 125 105 83 
206 143 397 93 84 77 
246 600 455 87 86 89 
234 452 241 129 135 149 
259 196 464 81 43 69 
260 330 261 79 104 127 
313 701 291 151 58 56 
325 646 306 111 140 168 
143 234 391 53 85 110 
193 980 373 111 88 71 
194 460 452 129 116 104 
249 215 302 148 143 144 
271 618 433 186 128 126 
192 967 412 102 78 62 
159 665 445 103 107 140 
326 465 332 71 98 143 
211 39 460 93 80 67 
307 679 346 138 75 41 
182 579 444 104 118 143 
226 556 244 100 132 162 
297 262 450 110 65 80 
212 37 462 88 76 66 
317 657 346 153 127 115 
296 495 293 86 107 133 
325 666 251 166 185 211 
270 752 395 170 123 111 
272 504 393 152 153 162 
320 326 360 90 99 111 
167 861 349 137 109 80 
209 711 238 131 144 160 
207 167 309 90 119 145 
215 192 447 90 68 88 
137 178 381 152 70 0 
360 276 376 84 127 161 
272 425 408 112 123 146 
313 363 321 123 128 138 
180 696 420 66 91 131 
164 171 342 141 55 32 
149 470 376 85 112 141 
244 526 458 114 123 137 
186 913 315 76 55 34 
288 397 417 95 116 148 
160 894 417 169 129 103 
317 377 327 86 103 122 
277 617 216 77 109 136 
220 185 301 141 95 83 
208 44 454 115 97 79 
189 601 350 58 96 128 
252 453 221 94 112 133 
268 9 386 134 114 104 
329 194 468 102 53 49 
209 45 455 114 96 78 
263 518 249 116 145 178 
351 372 423 144 149 160 
323 459 317 71 102 143 
314 637 187 110 120 133 
169 843 356 170 129 96 
293 323 310 132 79 90 
351 276 405 101 120 140 
225 340 448 129 139 154 
233 179 330 76 32 38 
288 389 285 65 97 124 
273 474 248 131 146 169 
337 364 435 199 165 123 
211 47 454 113 96 78 
196 470 455 83 107 137 
182 793 294 143 139 141 
232 164 321 96 45 40 
230 545 248 82 129 165 
167 679 358 150 156 170 
235 921 375 154 118 88 
314 719 235 154 73 83 
150 407 413 113 87 60 
337 650 218 121 132 148 
178 623 492 90 79 68 
274 311 294 112 62 70 
350 205 449 155 45 76 
223 775 226 200 165 127 
182 651 355 97 51 66 
126 649 474 81 104 142 
190 584 454 52 59 84 
166 771 474 146 169 195 
269 362 250 107 118 131 
315 204 383 89 74 67 
279 590 413 87 102 115 
221 336 438 115 129 147 
290 141 421 85 61 30 
155 649 520 127 100 70 
206 241 434 105 11 49 
318 709 330 168 145 152 
231 175 380 68 34 29 
336 433 343 94 110 128 
206 969 386 101 81 66 
211 42 456 105 89 73 
272 240 378 80 41 41 
292 742 355 178 156 138 
182 866 321 154 118 85 
213 888 349 108 82 64 
322 326 442 117 127 148 
168 642 514 125 98 69 
141 640 450 72 91 110 
219 397 443 162 139 115 
137 199 382 67 88 110 
212 42 457 102 87 71 
205 750 224 122 120 123 
279 542 409 163 162 169 
208 687 486 94 135 188 
339 463 354 144 158 177 
274 748 378 172 152 137 
358 157 400 131 69 5 
239 197 372 71 39 26 
192 948 426 203 153 128 
180 893 314 58 45 40 
218 204 417 91 83 91 
208 896 425 141 94 73 
303 733 294 192 163 136 
358 293 370 161 159 163 
250 418 419 125 132 148 
238 894 392 160 121 88 
215 42 459 95 81 67 
259 338 256 74 106 134 
237 190 452 44 40 42 
150 502 420 99 109 134 
220 164 367 85 35 22 
185 581 300 140 158 183 
273 697 435 132 145 163 
171 511 345 133 130 130 
260 605 285 59 72 86 
213 46 456 107 90 74 
227 450 271 148 159 177 
192 187 390 50 78 100 
277 740 382 118 114 118 
266 537 430 122 132 147 
215 45 456 101 85 70 
219 609 471 80 76 74 
284 612 218 12 81 118 
267 492 410 85 105 128 
211 858 418 127 102 74 
226 263 304 89 106 124 
270 753 392 158 143 135 
315 252 435 71 68 68 
302 727 244 121 121 137 
204 630 276 141 145 157 
265 405 232 92 112 132 
180 780 305 118 96 80 
260 624 229 96 117 138 
307 738 336 160 130 99 
190 643 370 130 128 133 
217 39 460 93 80 68 
348 292 421 92 123 152 
233 194 368 66 44 41 
250 794 234 134 111 96 
304 696 354 122 69 75 
307 148 395 112 105 99 
235 600 456 67 74 83 
266 495 421 128 140 159 
215 601 245 103 130 158 
280 784 268 182 133 103 
193 986 346 140 110 85 
245 598 453 121 131 145 
229 321 280 122 134 154 
182 694 318 132 147 168 
220 36 463 99 86 74 
153 770 372 159 116 49 
229 541 259 75 74 91 
221 37 463 99 86 74 
195 862 315 169 123 88 
151 378 367 78 108 140 
177 764 471 148 164 187 
182 676 422 83 113 150 
191 976 329 143 119 96 
195 817 280 196 142 111 
152 633 499 92 78 65 
301 752 228 113 100 96 
185 823 306 181 135 105 
338 389 427 139 122 108 
204 139 415 107 75 54 
300 168 394 86 78 70 
152 345 393 109 114 125 
222 646 466 94 100 116 
231 929 369 106 84 73 
193 740 274 58 48 74 
244 436 458 90 117 161 
216 42 458 95 81 67 
186 593 315 118 125 138 
172 834 375 173 126 98 
213 700 246 134 152 173 
208 142 411 115 70 32 
174 554 446 154 156 165 
190 584 334 114 125 142 
218 42 459 94 80 67 
140 895 359 104 77 59 
169 588 413 110 122 159 
278 340 287 117 123 133 
334 669 232 117 140 187 
143 261 377 120 95 87 
271 553 430 166 159 159 
217 40 460 94 80 68 
317 685 166 135 153 193 
331 671 182 68 75 86 
273 260 369 91 84 90 
300 610 223 101 112 126 
204 149 428 90 93 98 
265 536 434 147 147 153 
191 301 345 127 47 70 
259 481 423 86 102 130 
215 171 304 106 103 110 
242 638 445 94 66 66 
169 983 377 90 66 42 
175 741 327 125 40 64 
293 296 363 82 90 100 
255 550 231 104 138 170 
240 299 433 76 125 163 
350 172 463 127 95 88 
209 653 234 47 98 136 
341 193 446 86 40 54 
264 611 253 70 107 136 
270 345 261 75 104 130 
173 378 350 47 90 132 
215 457 297 132 140 155 
217 927 417 173 131 109 
216 148 306 111 94 96 
262 252 452 155 151 155 
220 373 442 170 146 123 
227 913 389 152 107 77 
229 156 466 135 34 41 
237 389 257 85 112 144 
337 160 488 166 73 7 
285 766 344 213 157 121 
219 47 457 90 77 64 
249 457 427 144 145 156 
180 706 486 157 163 184 
334 469 392 98 120 170 
259 235 454 98 78 95 
265 435 225 89 109 135 
151 944 334 96 72 49 
136 170 402 128 113 97 
151 363 372 139 139 145 
270 618 224 106 127 150 
282 289 306 112 38 43 
170 528 340 113 132 159 
262 503 230 127 156 183 
296 686 176 103 130 160 
281 731 396 147 66 64 
206 698 227 139 153 171 
181 816 418 171 143 116 
219 827 365 179 121 101 
171 235 407 78 29 33 
203 188 395 81 73 77 
222 43 460 95 80 67 
220 137 349 110 58 6 
202 679 491 192 188 194 
194 679 273 135 152 173 
254 597 442 55 82 105 
143 642 490 83 75 70 
312 655 173 130 130 135 
210 151 415 116 66 31 
304 448 402 99 110 141 
314 465 306 94 111 134 
209 637 223 72 95 116 
326 635 316 98 122 146 
225 434 265 158 169 186 
250 205 326 38 53 67 
122 710 509 157 179 212 
221 46 458 90 77 64 
231 279 288 136 135 138 
292 555 392 78 100 125 
154 381 363 86 120 150 
141 764 465 102 120 189 
333 197 456 102 46 52 
301 159 429 67 49 37 
229 617 259 55 81 102 
235 639 447 78 66 72 
232 469 468 95 117 151 
171 665 426 73 103 161 
173 981 316 137 97 57 
223 47 458 90 77 65 
227 896 372 148 93 59 
281 575 291 86 86 87 
318 504 312 106 122 142 
206 241 442 154 80 40 
208 35 465 84 73 64 
150 526 379 92 113 144 
296 406 295 88 109 133 
149 784 389 136 119 103 
341 284 457 156 159 169 
208 34 467 82 73 64 
277 408 242 110 128 150 
212 259 411 106 63 80 
159 694 447 45 78 126 
173 761 329 88 116 141 
211 33 467 83 73 65 
181 948 428 218 175 158 
200 552 289 140 160 185 
210 35 465 84 73 64 
257 659 196 82 102 124 
343 238 424 110 98 115 
184 673 385 136 149 167 
185 705 302 132 148 168 
272 645 421 154 99 93 
230 312 275 145 149 158 
361 239 393 129 18 64 
300 540 384 72 97 138 
356 329 405 196 167 136 
154 377 362 72 106 140 
163 307 354 153 85 107 
251 269 297 102 121 140 
276 709 430 136 153 175 
242 814 346 213 148 130 
155 475 413 94 114 141 
343 356 433 186 154 121 
196 365 343 81 111 142 
144 148 370 81 73 65 
196 756 252 124 119 122 
352 283 408 169 149 131 
141 758 434 118 130 172 
187 821 396 122 114 110 
306 362 309 88 114 142 
268 277 352 82 93 104 
260 792 348 210 149 126 
213 34 465 85 75 65 
181 377 429 156 133 107 
282 767 285 104 74 57 
179 654 507 165 114 86 
252 473 438 131 137 148 
204 970 340 155 130 107 
197 221 335 147 148 155 
234 385 261 94 116 148 
185 623 391 79 92 108 
219 770 224 177 157 141 
232 520 229 111 138 165 
344 425 373 167 155 151 
220 956 348 115 85 68 
334 637 295 144 164 189 
304 389 307 108 125 146 
210 736 209 145 28 25 
179 666 321 175 172 178 
284 369 280 59 93 123 
268 743 411 196 158 139 
185 857 386 117 87 60 
206 226 444 121 34 75 
203 646 232 112 131 153 
160 744 360 87 70 66 
317 551 375 111 142 175 
318 711 181 165 172 225 
213 36 464 86 75 66 
139 136 399 120 76 23 
167 137 381 101 58 23 
203 241 340 90 92 100 
314 551 379 73 100 158 
300 591 383 110 135 162 
285 389 273 68 97 130 
146 271 373 108 109 122 
216 35 464 91 79 69 
356 320 402 182 154 124 
254 793 233 185 173 170 
163 461 436 120 77 100 
169 661 354 145 147 156 
154 524 431 137 139 156 
271 133 469 117 95 65 
191 611 340 107 113 125 
197 628 445 46 49 54 
311 615 245 95 90 88 
309 624 325 81 59 50 
290 328 308 123 85 86 
217 591 224 115 138 164 
274 684 184 139 147 173 
306 473 397 122 132 154 
264 279 300 86 107 128 
230 742 199 155 49 72 
254 552 449 105 131 157 
171 560 352 135 152 175 
217 32 468 91 80 71 
191 578 308 108 126 147 
218 32 468 96 84 74 
278 772 288 153 110 75 
322 136 397 92 84 77 
139 228 385 101 81 92 
338 212 475 100 114 135 
210 623 489 142 107 84 
182 913 428 112 84 70 
283 361 425 98 117 156 
221 33 466 103 91 81 
195 789 262 163 157 156 
173 672 335 159 162 173 
159 975 314 120 84 60 
192 796 272 101 133 162 
262 813 280 209 156 124 
233 600 232 163 165 175 
154 636 472 80 101 121 
142 899 377 143 105 82 
338 455 372 109 134 173 
318 631 199 104 118 135 
282 786 233 208 184 167 
179 184 391 39 48 60 
295 477 291 140 145 156 
157 423 399 74 92 136 
307 303 369 65 62 71 
295 429 288 111 128 148 
222 283 299 103 75 83 
223 34 466 108 95 85 
206 676 490 120 132 166 
111 704 504 148 169 197 
133 927 356 98 79 58 
204 469 327 75 93 112 
298 493 394 98 109 141 
173 680 340 166 167 177 
223 32 468 110 98 89 
206 525 290 131 141 160 
322 175 430 55 40 45 
221 36 464 100 87 76 
224 576 462 59 63 82 
186 706 298 142 153 168 
232 496 268 107 127 148 
223 629 478 174 117 99 
242 436 432 119 131 152 
275 631 417 133 91 97 
260 201 461 133 36 45 
266 502 420 147 153 164 
213 337 452 184 158 132 
209 50 453 117 99 80 
209 51 453 117 98 79 
204 895 320 93 73 56 
230 612 242 59 94 122 
166 168 339 139 67 48 
226 830 316 212 158 131 
138 662 462 74 101 145 
203 641 252 93 118 155 
210 51 453 116 98 79 
212 579 462 71 79 132 
284 457 263 129 151 176 
219 233 440 150 108 74 
318 371 347 75 84 94 
332 473 380 67 100 167 
259 253 305 85 110 132 
214 771 445 178 148 115 
308 342 354 108 107 109 
261 628 219 83 106 128 
350 177 419 66 31 41 
350 204 450 153 31 74 
138 708 454 83 106 127 
306 246 377 39 54 68 
285 135 425 84 62 36 
289 148 442 107 82 69 
207 426 328 126 135 151 
357 289 370 104 79 75 
319 698 171 162 178 232 
244 433 451 84 105 148 
302 453 299 96 116 143 
307 560 320 104 120 139 
143 703 522 110 135 163 
253 604 287 50 72 91 
314 633 335 96 115 154 
228 919 357 140 91 65 
317 715 331 144 128 114 
181 519 457 66 95 153 
294 289 314 88 31 37 
188 781 275 147 140 138 
194 220 397 108 40 60 
215 259 440 118 117 122 
251 580 448 140 136 139 
213 51 454 107 90 74 
206 130 446 141 64 8 
307 721 293 113 106 103 
348 173 392 83 86 97 
209 367 326 106 120 138 
155 781 364 119 99 83 
204 702 480 166 179 198 
308 614 242 53 69 82 
307 576 374 116 139 167 
280 388 259 125 135 148 
215 51 454 102 87 71 
170 845 358 167 127 93 
131 921 369 82 66 55 
270 675 434 85 108 147 
289 502 391 110 121 138 
171 725 350 143 148 159 
293 480 395 95 113 147 
249 561 258 110 118 129 
163 722 368 133 134 142 
274 485 259 124 144 170 
332 637 235 81 116 145 
366 131 421 119 90 72 
366 132 420 122 96 79 
338 693 170 114 137 200 
315 394 312 112 129 149 
241 726 193 100 123 150 
168 684 369 75 125 163 
305 616 213 89 113 136 
136 731 441 92 106 122 
290 515 286 104 117 132 
260 727 198 161 62 56 
208 59 451 110 92 73 
172 615 355 144 152 167 
281 528 388 127 141 160 
254 547 241 125 147 171 
195 576 315 77 103 127 
256 610 455 172 121 113 
170 450 356 164 165 172 
225 129 375 75 62 48 
353 352 407 199 168 135 
209 59 452 110 92 73 
210 56 452 108 91 74 
109 708 487 203 198 201 
268 604 278 83 80 82 
157 444 359 162 163 171 
323 670 301 73 124 166 
181 581 441 188 177 174 
341 213 446 83 23 41 
318 726 215 160 45 52 
180 609 396 147 144 149 
229 668 214 74 109 137 
230 683 482 58 90 152 
262 257 345 78 73 71 
259 164 462 119 20 29 
290 125 410 122 104 87 
159 522 442 62 90 146 
318 283 445 103 119 138 
288 775 253 172 145 142 
237 455 447 59 86 128 
257 444 408 89 99 143 
191 823 290 202 147 119 
214 689 484 150 173 199 
230 761 428 74 82 100 
320 687 245 150 162 177 
208 824 379 166 117 91 
149 170 368 90 38 39 
279 261 372 101 83 79 
197 825 286 206 149 121 
135 945 359 73 57 52 
353 374 403 151 18 60 
213 56 452 102 86 70 
168 438 356 148 150 163 
228 197 448 50 39 45 
139 956 374 92 77 65 
204 635 259 114 131 153 
243 669 469 113 133 154 
155 512 439 155 156 166 
211 472 458 90 108 129 
208 619 227 116 106 108 
252 618 456 169 121 108 
215 56 453 100 85 69 
204 857 410 110 86 58 
192 447 345 104 119 144 
145 241 396 71 106 134 
217 867 384 160 127 93 
256 477 427 98 113 133 
166 804 340 102 94 90 
166 435 356 120 134 157 
225 812 377 199 136 116 
234 503 255 89 117 153 
153 780 370 64 63 76 
207 150 423 101 100 101 
219 334 429 157 139 121 
163 720 422 97 110 126 
149 146 402 105 56 9 
194 580 317 119 125 136 
167 868 372 141 112 83 
179 954 323 118 89 61 
146 956 393 86 68 57 
302 454 300 86 110 144 
223 950 373 93 78 66 
233 352 272 89 115 142 
235 202 449 109 36 33 
234 389 262 91 117 145 
196 318 414 70 92 113 
175 145 330 87 89 100 
168 397 427 156 134 112 
368 143 416 148 98 26 
191 599 444 66 108 141 
132 750 472 95 117 194 
203 130 457 99 88 77 
295 706 381 198 65 47 
137 184 384 146 65 0 
162 881 347 67 56 47 
175 687 502 146 154 175 
220 751 460 215 149 150 
240 435 460 105 126 155 
168 877 334 89 71 57 
238 314 267 139 141 148 
335 698 199 141 154 216 
312 513 387 92 104 154 
209 306 446 148 152 162 
314 718 186 206 214 229 
288 720 379 211 69 36 
331 665 322 109 102 98 
219 837 305 219 162 128 
327 665 310 104 130 156 
199 786 255 154 138 126 
216 54 454 99 84 68 
198 602 448 87 103 141 
208 459 454 49 82 116 
259 124 469 116 107 100 
262 323 430 88 116 143 
306 149 395 115 104 95 
269 582 420 81 117 148 
203 514 291 90 109 130 
341 250 432 94 129 159 
198 145 430 114 63 31 
269 792 287 203 149 114 
153 551 395 134 136 150 
206 948 330 73 54 47 
237 252 303 86 106 126 
259 269 440 66 108 140 
228 903 393 162 112 79 
225 208 307 152 95 74 
210 587 272 136 136 141 
312 663 170 128 135 146 
288 606 244 74 100 126 
339 263 462 74 119 153 
195 970 405 102 83 66 
243 480 452 86 106 142 
231 660 221 100 121 144 
169 272 347 121 132 147 
344 337 359 136 124 115 
139 900 378 108 73 53 
183 308 415 85 89 96 
214 688 484 121 154 192 
286 500 281 172 173 183 
176 696 344 117 128 160 
249 749 206 79 49 108 
140 318 393 91 133 167 
225 236 321 102 112 124 
160 803 429 153 115 87 
173 431 439 164 73 0 
218 48 456 92 78 64 
209 619 442 57 65 77 
149 350 380 95 118 143 
185 775 287 162 129 90 
337 691 211 96 132 185 
289 347 429 109 126 147 
331 471 385 114 134 180 
221 48 456 88 75 62 
336 643 286 104 131 211 
218 151 342 76 44 42 
323 674 250 136 161 189 
209 642 247 93 122 152 
124 676 467 151 155 170 
155 411 385 78 98 137 
310 394 421 72 97 156 
264 629 436 181 112 113 
286 459 267 118 143 173 
223 48 457 89 76 63 
150 492 396 89 112 138 
276 603 280 85 81 80 
307 674 381 181 152 122 
313 192 441 42 37 41 
223 50 456 87 75 63 
251 565 250 117 130 147 
299 731 248 80 71 89 
223 52 456 87 75 63 
143 638 470 98 113 130 
296 274 450 157 154 158 
361 267 379 88 132 166 
216 195 447 95 59 86 
173 669 332 174 171 178 
283 512 387 134 134 139 
317 547 371 117 128 155 
185 606 348 55 96 128 
245 591 245 122 127 137 
311 721 338 148 134 126 
184 517 459 139 158 180 
299 338 438 150 53 93 
201 175 392 90 71 72 
315 598 306 144 110 90 
219 57 453 95 81 67 
315 251 434 70 68 68 
166 476 362 165 165 174 
329 473 399 112 131 176 
193 803 442 133 121 130 
274 175 403 68 52 46 
277 786 273 185 133 101 
216 241 440 169 64 3 
202 971 388 93 68 56 
296 678 396 142 162 185 
327 653 289 144 177 209 
310 132 405 85 58 23 
188 870 425 150 117 95 
216 62 452 98 83 66 
188 573 456 171 167 170 
168 657 336 97 132 163 
194 873 321 130 93 62 
134 721 448 40 76 119 
158 727 387 61 89 138 
195 553 465 63 65 78 
237 137 419 101 78 54 
191 648 363 152 150 157 
158 778 469 173 189 212 
367 207 397 79 40 56 
189 639 385 28 40 54 
343 241 378 122 89 73 
227 914 386 134 90 67 
250 280 289 124 129 138 
287 673 415 131 151 173 
342 183 427 45 64 86 
219 381 453 146 137 130 
299 446 295 122 136 154 
169 647 330 76 129 168 
125 737 481 204 204 216 
252 470 430 131 136 146 
163 167 411 95 84 71 
265 444 224 165 166 176 
222 56 454 91 77 63 
192 826 387 160 112 87 
292 294 309 129 34 49 
340 141 394 109 72 41 
234 566 466 116 136 177 
223 57 455 88 75 63 
315 445 407 40 60 104 
170 637 335 130 87 99 
265 401 415 73 92 136 
170 511 347 84 99 116 
213 896 334 81 64 53 
202 591 458 92 121 160 
217 128 416 99 81 66 
221 60 453 93 79 65 
248 189 316 47 55 65 
296 578 400 158 162 174 
228 373 447 132 113 95 
244 257 436 144 144 152 
212 425 315 75 101 137 
189 592 446 55 59 87 
296 146 401 88 84 82 
266 618 441 174 116 112 
181 495 456 71 98 145 
239 466 468 103 122 162 
298 721 276 136 119 103 
171 749 336 140 59 61 
166 783 340 165 149 138 
210 880 425 140 66 71 
183 149 323 127 74 85 
208 643 232 112 127 147 
294 453 285 142 147 157 
218 273 317 85 106 126 
213 930 329 66 46 38 
217 212 322 175 79 0 
347 398 374 196 167 137 
199 39 484 74 70 68 
236 312 432 72 99 121 
152 771 376 157 128 93 
193 47 480 83 77 73 
251 614 297 52 73 92 
217 310 436 76 112 141 
149 671 524 158 110 80 
177 935 320 98 78 55 
310 732 231 114 103 108 
225 873 396 140 109 76 
232 720 471 155 177 203 
242 251 302 89 120 150 
256 384 422 110 124 148 
323 705 223 133 129 149 
241 554 219 141 169 208 
304 690 265 136 72 89 
161 958 414 106 87 74 
208 785 436 112 104 103 
221 870 411 163 126 95 
191 853 384 143 106 81 
200 135 383 84 69 53 
195 833 296 209 152 124 
262 286 294 129 105 83 
259 19 402 120 92 75 
161 222 350 89 122 150 
167 703 495 170 178 194 
165 986 376 126 93 63 
242 808 245 202 132 91 
201 806 406 130 121 119 
276 521 274 98 122 146 
219 433 287 158 161 172 
194 47 485 85 77 71 
239 353 261 76 110 145 
167 913 318 68 51 37 
294 754 288 175 152 138 
148 528 418 142 149 165 
243 195 378 57 40 43 
195 46 486 85 79 74 
169 277 348 130 136 146 
172 673 434 107 132 162 
287 288 363 90 88 91 
197 41 482 72 67 64 
169 555 440 91 104 143 
152 891 355 90 72 54 
213 929 329 68 48 38 
251 616 260 46 52 69 
252 365 440 105 122 142 
344 669 209 144 160 195 
277 372 257 87 110 132 
198 178 391 60 62 76 
230 342 441 102 120 141 
171 257 344 144 140 142 
342 244 413 82 113 137 
197 42 482 76 70 66 
189 632 346 75 95 120 
184 306 414 75 88 101 
227 457 275 116 132 167 
258 818 254 229 159 127 
198 41 481 72 67 63 
241 626 257 59 75 96 
188 659 391 103 119 149 
169 241 410 90 55 28 
192 362 422 124 103 80 
224 269 303 80 96 118 
213 312 327 141 94 19 
321 703 232 194 89 93 
313 594 302 123 105 88 
258 221 327 78 50 58 
313 723 233 152 98 60 
201 224 401 99 47 64 
164 240 414 118 72 57 
198 790 258 152 144 142 
290 480 279 168 168 178 
322 607 279 126 104 82 
314 537 318 141 144 155 
207 623 247 119 137 158 
144 960 382 88 69 58 
165 305 416 69 106 134 
160 990 330 151 125 102 
322 428 321 127 137 152 
311 610 256 111 100 91 
338 223 380 92 96 103 
330 637 235 95 103 115 
275 248 320 76 89 102 
182 731 306 156 72 68 
196 562 310 112 128 147 
317 539 383 126 145 176 
340 686 172 76 108 147 
208 880 337 113 83 63 
199 554 466 76 86 112 
158 383 408 103 80 84 
290 634 397 162 157 161 
188 544 462 95 121 162 
151 896 348 94 75 58 
181 746 309 111 58 68 
298 563 398 103 128 158 
173 827 332 166 128 97 
214 623 444 65 59 57 
319 666 167 81 106 130 
298 375 302 60 99 130 
178 737 477 139 153 177 
300 629 374 71 89 105 
286 709 406 123 153 182 
295 297 328 85 94 105 
144 925 405 97 80 68 
197 43 489 84 79 75 
172 879 328 93 74 60 
343 662 218 68 103 179 
198 41 488 80 73 68 
337 368 433 182 93 11 
211 595 455 52 95 137 
305 613 384 158 154 157 
295 750 293 187 171 162 
205 379 334 98 118 140 
199 41 490 85 80 78 
321 534 383 123 149 183 
158 392 395 128 130 139 
356 166 420 66 29 42 
250 231 452 116 89 91 
141 142 403 120 69 19 
173 576 432 155 151 154 
354 310 401 167 142 115 
199 42 491 86 81 78 
244 630 454 170 118 105 
222 560 265 68 99 127 
182 779 299 128 114 105 
201 908 426 190 138 119 
252 135 426 103 87 71 
336 175 453 86 46 54 
233 153 474 139 31 16 
357 330 429 130 131 146 
216 892 422 150 114 87 
148 339 409 110 128 149 
335 240 471 153 62 93 
257 170 464 94 42 42 
258 594 434 70 101 129 
172 631 480 81 74 69 
196 45 490 81 75 71 
283 277 449 102 128 157 
171 429 436 160 59 0 
173 665 504 165 111 87 
196 977 385 141 115 91 
298 154 411 74 59 45 
141 759 473 157 156 208 
173 661 359 138 141 152 
309 354 311 127 134 145 
338 647 223 139 164 192 
196 47 491 82 67 51 
306 162 413 54 50 48 
271 311 290 110 75 83 
227 615 238 52 94 125 
272 506 396 129 140 158 
218 959 371 101 81 68 
236 638 250 89 103 119 
304 719 184 195 210 228 
166 579 386 165 172 186 
198 45 493 84 70 56 
220 398 286 79 113 145 
322 679 288 190 87 76 
149 175 417 154 66 7 
287 211 391 88 38 39 
232 403 260 84 106 130 
162 712 376 101 122 152 
309 687 252 149 102 100 
147 781 430 99 109 144 
160 946 330 90 64 39 
151 796 386 113 98 95 
210 276 445 142 144 151 
180 629 340 70 107 137 
247 643 223 102 116 133 
187 200 334 118 105 109 
248 330 432 132 133 140 
342 651 225 130 156 186 
236 721 467 172 195 224 
164 819 392 199 171 146 
146 149 369 96 88 82 
269 9 383 142 119 109 
294 530 293 85 103 122 
172 410 352 98 113 142 
172 447 355 146 153 166 
218 241 422 113 44 66 
272 349 425 163 159 162 
196 178 390 55 49 64 
231 466 261 140 156 176 
155 636 470 50 83 108 
177 638 378 64 73 106 
237 186 376 52 38 37 
226 831 312 213 160 132 
216 350 457 185 157 128 
229 608 233 96 63 66 
212 134 310 114 97 79 
331 252 441 93 73 73 
295 608 225 11 64 113 
185 572 332 129 138 152 
278 661 416 62 84 135 
324 685 164 171 180 200 
176 233 401 43 28 27 
147 888 367 100 66 43 
305 303 445 141 10 56 
248 397 446 69 91 143 
278 423 238 73 109 146 
313 570 365 85 137 177 
201 38 482 73 68 64 
184 177 331 156 104 79 
298 564 393 134 145 161 
157 812 383 157 135 115 
338 158 470 132 48 3 
164 144 389 96 67 30 
171 593 408 102 114 159 
336 480 359 150 174 199 
280 786 264 186 136 103 
272 174 405 91 55 41 
185 990 335 137 112 87 
185 459 350 151 151 158 
148 973 358 105 81 59 
343 245 412 96 64 79 
254 232 371 61 36 45 
346 344 436 172 107 77 
242 425 457 131 145 165 
335 466 382 102 126 188 
269 467 399 101 114 134 
177 696 392 153 151 158 
135 179 374 144 74 0 
348 243 379 118 104 95 
271 772 361 162 132 102 
316 689 298 106 56 124 
327 199 440 86 40 55 
185 627 302 87 137 177 
205 128 449 131 73 8 
161 903 326 95 78 63 
350 341 374 186 149 104 
267 502 253 149 162 182 
140 266 380 124 71 83 
218 153 339 76 46 46 
338 283 459 171 171 179 
319 511 332 142 157 177 
296 430 291 150 151 158 
305 623 308 71 60 62 
150 541 391 145 147 160 
151 537 377 155 164 179 
222 373 292 70 97 129 
162 144 392 92 61 32 
202 478 316 86 98 113 
265 256 303 119 124 133 
299 626 373 104 91 94 
178 632 341 75 106 132 
299 700 254 158 14 32 
200 886 431 167 128 104 
227 363 286 56 90 125 
204 32 487 73 69 68 
153 982 369 135 110 86 
139 903 354 96 80 64 
160 705 506 123 130 187 
193 619 342 119 121 128 
260 276 434 60 108 142 
203 34 489 79 73 69 
354 194 438 114 33 52 
353 362 368 124 141 162 
266 433 406 152 151 156 
242 223 361 83 36 26 
284 251 377 79 48 54 
331 227 460 41 53 76 
290 459 276 112 132 156 
216 842 300 190 146 114 
139 709 454 64 95 120 
276 563 413 167 162 165 
219 695 193 96 108 124 
162 964 408 82 67 58 
356 213 408 55 43 66 
159 397 406 92 94 106 
160 795 449 190 41 63 
277 265 334 110 108 109 
232 331 276 111 128 149 
212 609 227 138 145 157 
273 723 426 184 78 92 
268 621 219 95 117 139 
146 777 426 165 29 46 
230 736 463 135 166 197 
169 686 507 87 108 158 
170 330 351 141 52 77 
295 294 326 88 97 109 
322 690 334 198 82 22 
350 197 452 154 29 80 
232 742 453 188 78 85 
195 651 226 104 110 120 
218 749 210 96 87 83 
227 555 257 78 117 147 
178 529 325 198 185 179 
348 293 444 164 167 177 
182 495 342 91 99 109 
215 783 238 195 177 164 
241 167 394 117 65 45 
278 708 429 142 166 192 
285 475 396 105 124 145 
183 794 288 136 138 145 
288 719 386 172 82 40 
208 581 461 92 119 148 
283 436 404 88 105 141 
304 449 401 113 124 145 
318 641 329 54 62 83 
258 228 455 121 70 91 
203 485 306 120 127 139 
152 954 324 116 90 57 
297 237 377 57 80 103 
322 503 392 110 137 168 
226 455 276 81 117 162 
352 207 439 150 53 49 
291 737 259 175 159 149 
337 161 487 166 74 8 
140 749 482 166 170 206 
219 772 431 156 135 115 
203 39 495 75 68 63 
136 931 351 110 89 68 
150 353 375 114 127 144 
337 268 373 83 112 139 
303 322 358 77 92 108 
199 606 445 50 71 122 
175 630 465 43 64 81 
249 784 383 148 133 119 
253 615 458 173 123 110 
323 475 321 138 145 158 
313 674 168 117 134 157 
204 32 492 81 76 73 
336 243 446 75 47 69 
177 559 448 89 110 150 
341 258 416 158 147 141 
311 666 376 171 142 110 
205 33 493 86 80 76 
202 923 317 99 73 50 
255 605 267 69 77 87 
314 665 270 91 129 160 
218 636 467 83 65 61 
217 812 260 192 135 103 
204 34 492 85 80 78 
307 283 370 62 90 115 
324 511 390 90 111 175 
161 435 430 125 106 88 
316 380 323 68 100 127 
149 720 502 178 174 180 
153 539 371 161 161 169 
199 649 268 75 102 146 
175 825 326 167 127 97 
214 869 420 180 136 113 
222 657 470 38 61 91 
170 823 337 169 128 98 
226 321 293 130 142 158 
165 318 354 152 49 81 
245 657 460 104 122 150 
317 208 439 65 48 52 
215 355 453 165 126 88 
200 41 492 81 78 78 
293 202 446 37 33 40 
299 300 324 94 100 110 
256 536 254 87 110 133 
255 663 195 104 111 123 
180 766 306 123 115 114 
342 283 456 162 163 172 
239 176 319 55 39 41 
149 244 408 111 106 118 
174 688 378 100 114 155 
329 501 370 111 137 188 
179 867 323 146 111 78 
264 414 412 78 95 139 
241 489 470 121 136 169 
143 216 405 101 105 115 
220 341 312 66 98 127 
307 731 193 202 111 113 
258 763 399 30 26 42 
240 573 464 127 147 180 
238 776 405 168 138 105 
251 800 239 218 152 107 
229 911 360 157 98 69 
200 46 495 137 121 111 
243 309 431 114 95 96 
182 834 317 188 140 109 
209 799 259 174 140 104 
102 671 491 55 86 140 
350 169 445 103 47 38 
222 318 445 158 157 164 
255 237 452 154 148 150 
351 190 455 128 51 79 
332 478 387 122 137 160 
189 691 292 79 127 164 
145 392 417 182 152 120 
259 303 280 126 108 100 
256 677 192 43 68 112 
149 905 399 111 89 71 
142 959 366 81 61 47 
283 134 429 96 72 49 
242 177 459 30 55 98 
246 671 195 119 119 123 
281 613 419 178 127 121 
279 134 439 100 82 67 
355 315 413 173 150 127 
186 556 321 137 142 156 
198 704 479 166 180 198 
287 600 287 96 87 80 
215 352 453 166 126 82 
202 218 436 87 63 71 
136 223 380 133 69 82 
221 283 441 112 88 95 
316 626 235 82 76 71 
324 500 339 109 118 134 
278 779 222 233 186 128 
314 649 371 127 72 62 
255 327 431 102 116 132 
105 660 515 116 94 71 
338 192 479 99 120 143 
207 34 498 86 73 60 
308 618 336 132 88 80 
317 288 367 82 97 113 
282 612 417 180 125 120 
320 173 400 62 34 28 
325 402 338 78 96 115 
290 660 404 106 101 114 
160 495 366 148 145 150 
316 730 215 155 57 59 
247 425 234 125 130 140 
345 426 364 147 120 81 
132 670 463 121 133 162 
161 729 367 125 128 135 
294 494 290 76 102 137 
321 484 396 153 164 181 
180 347 422 122 26 51 
292 299 362 75 85 97 
358 255 392 69 114 150 
218 258 417 72 102 127 
299 590 398 128 142 162 
219 786 239 192 192 199 
310 582 360 54 85 155 
156 329 358 160 121 67 
369 187 414 161 76 52 
233 773 411 202 180 162 
155 891 352 77 64 58 
167 465 360 119 128 146 
227 441 465 143 147 158 
248 466 439 100 111 135 
166 283 350 128 116 120 
351 375 398 161 56 77 
245 433 453 94 112 158 
273 683 429 150 156 169 
268 497 418 136 144 158 
254 374 430 70 99 151 
162 684 506 74 73 96 
228 477 277 100 127 165 
230 529 261 129 135 146 
197 771 250 157 133 112 
255 718 194 115 127 145 
207 673 259 72 90 108 
208 136 460 148 63 9 
237 512 474 111 130 177 
224 946 384 120 101 87 
223 132 360 94 67 31 
151 252 409 136 98 97 
282 646 402 135 93 86 
314 650 372 68 41 65 
329 298 453 84 128 163 
224 170 340 64 56 65 
181 601 428 118 126 156 
157 505 369 114 120 134 
216 173 303 103 95 99 
344 665 224 95 122 163 
203 46 497 144 121 119 
335 467 395 109 136 172 
322 235 432 68 65 66 
204 41 498 92 81 74 
346 227 429 107 55 79 
305 600 272 112 103 96 
274 685 428 131 144 161 
340 167 416 84 40 35 
164 980 377 139 114 89 
254 173 403 107 48 19 
296 751 305 172 158 149 
311 612 301 115 88 72 
201 661 258 131 151 177 
131 918 373 72 57 47 
294 739 195 214 27 48 
236 237 440 119 132 148 
116 676 472 117 131 154 
282 306 434 103 116 133 
256 539 229 100 132 165 
319 509 335 137 142 154 
207 42 499 132 119 109 
207 43 498 141 128 120 
328 320 443 100 80 111 
201 682 204 148 148 156 
268 235 317 76 94 111 
204 143 446 105 47 46 
230 827 311 222 168 138 
152 720 438 55 45 106 
252 749 422 121 34 84 
202 359 423 143 121 98 
147 639 491 84 76 71 
284 555 297 88 101 117 
152 176 416 152 75 7 
282 540 290 99 110 125 
286 415 410 59 80 139 
211 205 322 140 145 157 
267 441 403 87 104 139 
180 627 370 65 94 121 
206 46 497 145 121 123 
200 336 337 142 141 146 
207 46 497 147 123 125 
325 664 169 77 109 136 
249 289 432 83 120 149 
247 806 352 212 149 128 
333 473 389 107 129 164 
217 662 474 77 94 113 
206 748 222 60 102 132 
315 238 376 63 72 83 
263 797 321 219 158 130 
177 717 334 140 151 167 
213 942 414 190 142 114 
128 653 487 58 79 97 
330 502 360 151 168 190 
218 949 343 104 79 59 
131 132 390 125 109 91 
277 672 182 112 129 152 
339 659 203 86 104 127 
309 124 403 81 64 46 
242 644 242 58 93 122 
298 330 353 95 98 104 
163 535 353 120 137 158 
197 693 276 149 166 188 
222 885 370 164 124 92 
224 741 464 145 169 196 
220 586 254 96 127 156 
211 214 326 128 129 139 
349 365 388 148 24 69 
207 960 338 130 100 65 
142 363 405 187 159 133 
215 846 317 196 148 109 
120 723 493 213 211 220 
144 175 364 145 53 2 
230 138 403 107 85 63 
170 699 431 70 96 135 
224 493 285 133 139 152 
186 626 460 46 52 60 
242 198 375 53 35 36 
326 274 454 113 125 141 
151 756 388 148 92 105 
248 189 458 108 42 70 
319 263 370 127 122 122 
223 900 366 104 68 42 
154 747 372 147 22 41 
218 212 422 93 76 88 
193 52 480 132 105 72 
279 524 411 124 140 161 
240 820 302 198 137 106 
193 53 481 138 111 79 
170 361 421 149 124 93 
169 860 338 129 99 70 
219 880 362 162 125 94 
267 398 235 141 144 153 
193 54 480 144 118 94 
346 420 353 125 113 104 
237 593 231 159 165 178 
264 237 330 72 85 99 
205 721 258 61 50 111 
273 474 396 140 138 142 
206 784 443 61 43 78 
136 214 374 138 95 93 
157 501 370 143 143 148 
166 803 439 180 46 87 
287 657 406 116 95 98 
315 627 324 115 120 130 
160 390 423 85 109 134 
304 611 230 101 110 123 
200 662 489 102 113 131 
258 617 451 176 122 114 
223 130 361 90 80 72 
274 735 413 137 84 103 
276 395 416 84 108 137 
158 889 411 153 113 86 
136 958 338 110 88 64 
216 188 427 93 48 52 
189 664 392 111 128 154 
157 276 413 150 142 135 
342 680 198 125 146 177 
150 951 405 129 101 84 
195 54 484 167 147 141 
341 206 384 80 86 95 
289 428 276 106 129 154 
169 235 408 81 41 39 
234 633 455 121 82 76 
215 876 353 143 107 80 
208 169 451 107 44 55 
332 364 436 170 93 34 
291 466 398 75 95 138 
196 55 485 175 155 152 
139 314 393 106 135 163 
269 801 280 193 145 111 
297 703 178 116 144 186 
167 580 416 137 144 163 
317 691 341 141 84 32 
197 55 486 182 162 160 
198 54 487 183 162 161 
315 402 310 92 116 141 
192 601 293 139 140 148 
199 55 487 183 164 162 
159 560 415 156 157 166 
227 616 256 54 69 85 
191 565 459 119 136 161 
334 256 441 91 88 90 
160 817 381 161 121 82 
343 668 224 136 148 181 
169 756 339 127 84 78 
155 636 449 60 94 124 
193 716 285 136 148 161 
149 239 410 112 95 120 
145 643 515 101 83 64 
231 159 458 141 25 19 
273 651 424 104 119 155 
314 725 319 166 143 123 
316 604 322 146 100 90 
243 196 377 55 38 42 
165 827 369 143 106 80 
155 407 385 82 109 144 
251 532 220 120 147 187 
318 685 250 123 157 191 
225 395 274 93 113 134 
337 449 402 101 124 180 
214 358 429 141 120 99 
344 175 417 52 41 60 
232 820 357 195 136 114 
303 490 300 115 125 140 
273 259 334 104 104 106 
171 713 401 87 103 131 
237 605 468 112 97 84 
292 145 415 80 66 54 
312 705 176 142 153 216 
262 692 444 136 152 172 
344 185 441 51 34 54 
145 346 410 96 126 154 
314 651 373 49 43 74 
280 792 254 196 145 113 
141 668 528 161 112 85 
199 50 492 159 143 135 
171 626 498 91 78 67 
284 170 400 81 88 96 
341 257 460 79 123 156 
267 353 253 57 95 127 
284 770 332 214 155 125 
207 842 306 167 123 78 
186 441 447 149 52 3 
195 188 391 44 74 97 
151 437 365 89 117 147 
285 776 227 199 145 67 
309 526 383 90 115 153 
199 53 489 175 156 153 
259 737 202 168 70 66 
346 421 366 138 121 103 
187 613 344 108 117 131 
278 741 372 186 165 154 
282 421 256 124 144 168 
182 540 456 85 112 151 
279 323 435 153 109 48 
231 593 454 36 83 131 
201 944 425 193 142 117 
199 55 488 180 162 159 
151 405 370 82 108 145 
345 229 416 136 41 56 
319 411 316 68 104 140 
228 671 481 63 106 138 
140 988 347 139 109 81 
145 521 395 140 148 167 
174 776 323 98 86 78 
149 158 410 74 55 41 
350 321 437 132 138 150 
323 487 321 83 112 151 
274 710 434 140 165 191 
135 146 387 136 116 95 
279 522 400 107 117 133 
248 581 243 123 127 135 
322 687 242 163 142 160 
342 322 363 107 108 113 
300 625 378 90 93 111 
139 303 398 155 157 165 
197 58 482 176 157 154 
213 730 203 144 92 61 
173 584 428 141 147 162 
198 59 480 175 155 153 
303 259 452 122 108 112 
204 595 456 108 129 154 
169 654 346 70 116 152 
230 661 472 50 73 117 
235 790 238 189 170 159 
153 345 393 107 113 123 
218 424 287 98 121 151 
291 192 449 95 29 41 
151 922 414 154 121 93 
219 800 253 155 107 71 
198 57 484 182 163 161 
172 823 332 164 126 95 
278 332 432 160 125 86 
221 952 375 106 85 71 
158 566 387 225 207 196 
292 431 281 128 140 156 
163 546 357 131 141 162 
318 676 278 122 148 173 
280 220 395 94 47 18 
168 724 358 113 126 142 
182 662 364 130 135 147 
216 834 369 179 130 103 
247 219 341 57 38 33 
286 270 451 167 163 167 
326 492 339 104 116 134 
279 764 211 219 174 108 
184 685 396 89 103 146 
321 645 325 74 67 72 
294 611 218 90 124 158 
341 434 404 110 123 174 
266 680 440 158 168 183 
234 768 416 154 135 121 
155 657 425 137 152 202 
263 501 226 125 153 182 
327 683 239 127 164 200 
270 714 437 151 170 192 
305 745 330 119 115 115 
252 474 437 140 145 156 
207 633 224 138 132 139 
310 336 358 88 87 89 
222 729 470 179 195 216 
212 955 404 138 99 81 
306 679 382 216 185 153 
283 184 451 101 56 47 
293 745 267 163 135 105 
209 617 262 125 138 155 
202 264 441 122 129 142 
150 650 406 110 135 173 
200 52 491 170 153 149 
347 356 383 160 124 89 
161 669 446 84 96 140 
327 516 356 160 169 186 
169 134 333 71 71 80 
272 750 386 169 154 145 
200 54 489 173 156 153 
337 206 477 91 104 124 
262 600 295 49 74 99 
201 55 489 169 153 151 
186 342 420 125 106 83 
172 865 379 147 115 85 
201 55 490 168 151 149 
219 299 435 83 111 138 
316 601 307 145 107 88 
326 171 389 115 113 111 
287 277 327 86 97 108 
227 175 335 73 40 25 
202 54 491 167 151 147 
258 624 229 100 118 137 
295 504 291 110 123 142 
203 55 490 158 145 140 
336 292 369 146 143 145 
182 303 415 90 100 111 
346 272 442 85 116 144 
321 342 358 104 107 114 
248 681 467 63 100 147 
257 256 445 101 119 139 
235 199 346 65 44 41 
152 543 377 75 90 120 
235 810 367 211 145 124 
205 49 495 161 147 141 
313 678 273 157 92 87 
176 989 323 141 94 67 
332 466 387 96 115 170 
135 736 440 108 120 139 
284 540 385 170 165 166 
316 541 361 107 117 144 
166 827 377 128 124 124 
329 509 359 130 150 182 
327 277 456 115 130 149 
167 866 370 146 117 86 
358 201 389 123 66 51 
322 460 316 83 110 145 
200 235 402 53 71 91 
149 256 365 132 129 132 
233 449 464 85 109 140 
175 798 315 105 121 140 
238 638 250 52 60 72 
259 713 446 133 154 177 
284 230 391 72 57 62 
224 136 371 87 79 72 
255 710 193 162 161 173 
