ply
format ascii 1.0
comment Created by CloudCompare v2.11.1 (Anoia)
comment Created 2/28/22 9:39 PM
obj_info Generated by CloudCompare!
element vertex 2008
property float x
property float y
property float z
property uchar red
property uchar green
property uchar blue
end_header
254 253 437 110 132 155 
226 214 318 128 111 102 
165 814 399 169 149 133 
271 404 415 87 100 149 
147 643 481 79 100 136 
151 681 528 161 110 85 
185 284 414 62 91 115 
205 446 336 73 94 116 
272 796 257 193 143 111 
296 214 380 81 38 41 
365 326 419 170 148 124 
232 152 384 98 78 63 
207 176 395 88 74 80 
147 507 408 129 134 146 
166 537 347 111 132 164 
229 341 429 123 64 80 
374 150 411 164 79 13 
223 384 300 130 133 142 
230 269 289 117 67 75 
241 450 443 142 141 159 
297 588 288 110 101 95 
185 736 296 124 50 45 
178 741 314 156 116 67 
292 732 185 194 56 65 
357 277 359 80 119 151 
219 590 231 142 147 158 
196 667 299 89 64 90 
120 678 486 62 100 148 
272 618 432 190 126 122 
234 425 246 138 153 172 
185 516 458 72 99 148 
304 333 325 103 106 112 
347 427 390 134 144 162 
243 10 394 101 93 89 
244 628 457 152 99 86 
239 456 230 107 129 157 
297 205 453 77 34 49 
282 555 403 120 137 158 
236 731 183 145 41 43 
331 155 456 124 59 10 
329 132 407 101 84 70 
338 290 442 130 146 166 
185 698 406 135 140 152 
222 257 441 123 130 141 
218 921 412 175 136 106 
237 485 472 151 159 173 
204 649 415 65 75 95 
247 708 177 154 155 168 
284 364 268 57 97 127 
228 336 297 83 104 125 
242 12 397 100 91 87 
153 329 380 107 120 136 
253 428 445 102 115 167 
186 610 335 98 115 135 
243 12 398 98 90 85 
243 12 399 97 89 84 
198 954 331 127 104 79 
308 467 299 129 134 144 
159 348 357 163 119 70 
293 594 278 101 94 91 
184 634 447 48 55 66 
119 663 492 62 92 116 
269 786 316 213 153 126 
245 10 395 99 91 86 
268 520 236 112 131 169 
185 698 315 131 143 161 
182 980 363 150 122 92 
153 646 465 130 149 175 
209 964 345 133 102 74 
172 914 315 65 51 40 
293 636 174 69 90 110 
323 633 300 90 121 147 
205 385 337 95 117 139 
223 901 413 197 145 118 
257 389 441 64 86 108 
307 435 300 103 120 141 
187 684 433 95 109 147 
225 940 387 117 94 74 
210 878 341 150 111 82 
326 390 339 78 68 58 
137 743 479 140 147 196 
128 656 494 79 95 111 
208 944 329 75 56 47 
146 760 439 106 116 173 
181 816 303 169 126 95 
186 670 434 64 85 150 
247 11 397 97 89 84 
218 951 345 112 91 70 
202 286 408 76 47 55 
166 860 350 137 108 78 
245 204 365 66 42 45 
305 729 299 153 131 110 
216 595 270 101 121 144 
168 690 366 121 137 157 
331 417 414 87 119 164 
156 560 392 229 206 190 
242 648 196 40 77 108 
248 9 385 106 95 86 
322 320 354 113 113 117 
295 676 399 136 150 168 
322 532 370 82 107 147 
234 258 436 152 131 109 
211 458 324 110 113 123 
265 30 371 169 147 141 
250 9 384 107 95 85 
251 806 325 225 163 140 
228 234 317 98 102 109 
153 549 397 186 185 191 
271 602 267 83 80 82 
223 255 414 115 18 66 
223 811 251 194 137 100 
297 140 438 102 87 75 
285 761 238 206 153 82 
193 613 295 160 158 164 
224 295 307 150 147 151 
258 686 170 128 140 170 
312 571 338 109 135 177 
164 975 386 124 88 64 
147 240 383 79 101 125 
230 329 292 121 127 139 
194 965 408 101 76 60 
268 612 443 180 112 111 
282 203 395 71 38 29 
251 9 389 100 90 84 
292 589 393 89 81 102 
241 508 247 121 140 162 
259 217 452 97 51 81 
271 263 338 95 94 95 
259 755 191 140 75 97 
145 903 337 89 75 65 
213 672 231 161 163 172 
292 463 391 107 123 156 
201 301 411 120 119 123 
143 225 381 142 42 69 
241 469 447 75 95 139 
197 619 490 102 88 75 
178 707 336 144 150 164 
254 9 385 107 95 86 
316 645 287 135 158 182 
231 751 459 186 48 58 
194 158 328 156 75 80 
141 194 404 138 73 81 
350 426 397 102 102 152 
255 8 386 105 94 86 
301 606 371 145 141 143 
210 912 420 153 114 95 
157 555 410 167 166 172 
264 484 404 103 117 146 
262 394 444 85 111 143 
293 127 408 97 87 79 
332 652 209 104 129 171 
304 594 381 96 124 152 
216 478 291 94 109 127 
175 318 420 149 152 161 
280 720 178 160 179 203 
309 718 305 139 126 118 
229 449 271 137 149 165 
265 790 330 216 155 127 
177 830 380 165 124 96 
265 313 432 170 168 175 
359 185 383 121 86 38 
231 148 453 89 43 58 
266 100 457 97 82 68 
200 629 447 47 51 57 
177 637 399 42 77 120 
351 180 447 65 91 116 
190 648 306 169 168 176 
276 121 426 104 91 79 
173 164 341 160 72 79 
289 642 389 74 99 126 
186 653 310 153 156 167 
200 547 464 136 141 155 
318 668 173 90 81 75 
310 674 334 133 108 79 
207 955 404 147 106 82 
180 751 304 74 92 110 
276 734 409 176 137 116 
221 148 345 94 38 38 
223 925 391 135 100 79 
261 618 211 12 73 114 
307 622 223 95 90 88 
309 506 383 113 125 146 
245 815 283 212 153 122 
212 402 330 48 85 123 
251 10 395 96 87 82 
309 615 338 162 111 100 
235 324 283 100 116 135 
161 789 351 93 81 73 
301 214 376 84 47 37 
249 10 397 97 88 83 
223 593 453 96 118 150 
180 522 317 163 158 161 
143 206 407 147 110 86 
261 779 366 198 159 117 
314 547 359 124 132 151 
250 10 397 96 88 82 
116 700 501 164 173 192 
265 107 445 111 95 79 
155 452 424 70 79 107 
250 11 398 96 88 82 
136 728 452 114 125 141 
206 826 276 220 165 131 
187 988 351 153 126 100 
225 758 459 90 117 156 
156 259 361 151 146 147 
134 945 356 70 53 46 
162 757 483 109 127 197 
349 365 353 161 155 155 
345 429 347 168 145 117 
194 969 403 114 96 81 
254 287 430 89 121 150 
220 188 452 135 58 43 
320 620 272 30 51 68 
203 140 431 134 66 2 
245 540 220 151 178 208 
234 823 329 215 156 131 
297 308 323 98 97 100 
185 618 400 143 144 152 
255 9 393 97 87 81 
254 9 394 96 87 81 
257 815 250 216 153 114 
267 788 280 194 144 109 
168 704 371 99 114 134 
230 406 461 124 108 92 
170 583 380 216 198 187 
241 545 468 125 149 185 
188 176 390 65 61 58 
324 504 387 76 109 155 
171 874 418 140 104 78 
217 612 470 77 74 73 
273 746 397 89 97 133 
232 434 250 88 118 171 
333 146 430 98 84 77 
159 444 414 94 113 139 
210 258 409 89 34 55 
329 349 348 131 115 100 
346 291 359 116 116 120 
222 574 263 107 120 136 
226 252 438 142 126 113 
254 11 399 95 85 79 
141 313 409 119 141 165 
255 201 380 76 38 47 
177 698 340 134 148 169 
275 188 465 35 52 87 
241 13 400 97 89 84 
186 633 448 50 54 63 
155 376 383 87 105 138 
262 31 368 181 161 151 
173 704 357 145 148 158 
287 289 354 87 91 98 
317 309 358 71 90 110 
241 15 402 98 90 85 
127 714 470 108 119 155 
154 326 366 167 126 69 
320 343 354 75 85 97 
348 394 349 177 81 8 
169 834 345 179 136 108 
211 906 328 74 58 48 
243 15 402 92 85 80 
308 668 336 143 111 76 
215 730 472 90 119 176 
261 458 403 123 132 150 
314 176 444 63 41 42 
298 716 344 98 103 114 
232 445 258 116 139 168 
312 556 320 123 140 161 
178 182 399 73 34 40 
318 368 339 95 90 89 
225 178 306 118 100 111 
252 586 274 77 84 95 
181 660 514 160 107 82 
175 881 424 155 121 94 
274 337 258 67 97 123 
363 168 420 31 69 117 
140 278 393 141 142 150 
239 239 308 118 115 118 
173 154 394 66 60 54 
235 367 270 50 90 120 
256 260 433 153 152 159 
216 864 389 149 120 87 
202 181 331 113 106 112 
196 559 288 130 142 158 
187 276 412 73 64 67 
176 213 341 89 103 117 
310 386 418 107 121 164 
173 823 390 149 128 110 
252 548 222 146 175 209 
273 686 168 114 138 185 
186 317 344 138 45 68 
178 499 339 122 126 135 
153 482 386 130 135 146 
177 725 332 141 148 160 
283 657 404 63 60 69 
231 209 314 147 149 157 
185 166 389 80 41 16 
229 142 314 101 86 77 
202 706 215 148 143 142 
285 291 433 101 119 142 
160 731 399 151 148 152 
251 12 400 97 88 82 
140 749 447 123 130 180 
197 625 463 49 54 60 
250 13 402 99 90 85 
188 904 431 163 120 102 
275 782 226 203 181 165 
183 680 439 125 142 164 
219 168 418 125 81 76 
191 754 473 172 177 190 
263 543 249 157 166 181 
243 351 435 134 120 112 
188 694 409 149 152 163 
173 240 414 121 72 53 
201 829 283 222 165 132 
254 11 401 95 85 78 
295 659 157 84 107 129 
255 11 401 94 83 75 
166 868 406 145 111 82 
221 363 313 106 120 137 
193 678 407 76 108 150 
227 617 231 62 106 140 
155 344 416 119 128 142 
169 812 415 159 137 122 
315 463 391 45 63 99 
152 920 324 64 49 36 
265 254 342 63 70 78 
186 765 270 122 105 89 
162 359 401 121 116 116 
166 906 316 79 63 47 
322 695 178 149 163 189 
329 145 426 88 80 74 
322 410 319 88 106 126 
327 159 459 121 39 11 
355 215 412 102 85 100 
180 386 433 132 35 65 
258 183 456 47 55 87 
228 642 248 72 86 102 
214 271 325 119 129 143 
284 760 302 186 136 101 
227 166 339 68 57 65 
321 498 318 97 122 163 
180 715 495 40 68 145 
241 31 389 112 82 66 
217 323 333 107 125 146 
297 165 452 90 51 63 
156 270 362 140 140 146 
202 888 431 159 109 93 
244 251 296 87 108 136 
290 145 457 118 71 35 
281 276 355 111 95 94 
239 390 448 144 125 108 
248 794 365 212 152 130 
253 715 455 141 168 198 
256 751 411 86 62 78 
199 387 431 110 28 54 
239 410 449 100 110 125 
280 771 316 203 148 115 
205 869 425 149 111 91 
305 622 377 163 162 169 
233 606 234 101 80 82 
292 736 349 177 148 119 
179 621 382 64 89 111 
196 556 288 160 158 163 
279 582 290 66 44 46 
291 418 246 96 125 153 
160 645 428 50 91 124 
341 335 348 104 107 112 
226 530 266 129 131 137 
244 30 390 113 81 66 
227 327 441 100 121 142 
342 241 369 117 91 62 
229 394 449 166 68 8 
298 675 255 138 81 101 
238 394 452 141 112 79 
247 29 390 131 114 105 
290 137 439 102 82 66 
191 480 343 100 102 109 
230 431 261 96 125 166 
240 497 462 143 151 167 
255 202 452 115 42 47 
272 400 416 94 108 152 
360 384 403 194 154 100 
231 750 460 188 39 70 
350 363 354 111 124 139 
187 705 498 118 143 197 
241 27 395 149 129 125 
335 129 400 133 71 17 
170 965 415 95 78 67 
347 373 343 176 156 138 
310 273 442 157 151 153 
154 761 400 96 92 122 
229 524 472 85 101 142 
348 394 346 174 85 10 
215 782 436 182 165 151 
193 153 384 72 65 58 
241 26 397 139 118 116 
183 462 349 163 162 170 
234 137 406 142 75 48 
200 717 268 116 59 59 
161 941 424 200 155 136 
258 799 292 220 164 132 
223 408 441 130 57 6 
170 644 405 92 119 168 
359 261 371 76 123 162 
254 596 282 54 71 88 
296 632 385 106 85 107 
156 744 403 151 155 165 
305 498 301 78 100 128 
226 588 251 98 127 155 
199 729 242 163 138 109 
196 850 312 149 121 98 
314 378 422 88 111 162 
303 619 291 65 70 80 
198 231 399 56 49 61 
311 506 304 116 126 143 
246 811 326 217 159 136 
303 629 362 105 88 76 
197 358 343 88 111 139 
253 298 265 143 109 80 
208 541 283 123 130 142 
314 599 274 131 109 86 
207 674 225 111 142 174 
242 28 393 131 112 103 
238 239 307 119 116 117 
238 589 227 149 158 172 
180 818 307 173 130 98 
294 724 237 118 126 137 
210 625 223 99 107 133 
202 836 294 236 167 124 
218 829 365 179 125 103 
243 28 394 145 125 120 
204 956 408 165 117 94 
139 309 406 119 141 165 
239 182 327 76 43 44 
307 256 369 88 40 35 
144 943 403 117 93 74 
226 612 451 71 64 60 
229 449 462 162 164 174 
185 820 401 155 139 128 
235 331 283 90 107 129 
297 562 385 110 129 151 
342 155 381 151 75 2 
284 216 392 89 37 33 
263 678 450 122 125 151 
138 984 357 149 124 103 
221 856 353 171 131 101 
232 356 279 80 104 132 
311 663 336 179 123 21 
146 238 383 52 69 97 
246 27 397 120 109 105 
183 808 289 173 126 97 
299 292 379 81 87 96 
237 548 250 73 119 153 
304 629 356 58 49 59 
256 593 288 53 72 89 
176 660 447 99 117 163 
217 905 418 205 148 123 
238 295 437 74 118 152 
356 181 434 38 59 91 
162 665 527 151 106 76 
245 28 392 143 124 118 
138 968 326 109 80 54 
184 912 429 124 97 78 
281 244 384 72 46 47 
303 728 188 151 136 148 
238 169 323 79 40 43 
152 220 367 128 76 89 
226 418 276 118 132 153 
221 587 229 136 134 139 
247 28 393 143 121 115 
205 142 388 75 66 57 
326 157 447 113 56 29 
238 671 485 97 122 146 
189 606 431 127 133 151 
232 164 307 99 58 43 
139 906 349 75 62 51 
286 372 281 61 95 123 
220 355 427 148 129 112 
307 517 381 75 99 155 
311 227 450 68 35 52 
280 600 408 153 141 135 
218 468 295 102 112 129 
147 295 394 75 92 118 
161 534 356 133 139 151 
256 211 317 82 45 59 
285 760 306 200 152 115 
194 753 472 166 177 195 
156 189 424 68 68 92 
309 642 372 99 81 126 
353 184 444 88 94 117 
339 228 371 99 86 80 
320 393 321 82 99 117 
261 469 220 91 111 141 
208 689 492 142 156 179 
269 441 403 82 97 145 
202 638 428 49 54 67 
185 166 388 80 41 16 
330 375 423 91 110 153 
138 149 409 141 76 20 
154 404 427 176 149 123 
240 137 473 115 70 17 
241 742 184 196 156 99 
282 19 391 136 103 73 
251 420 437 125 136 159 
344 436 350 126 63 115 
304 348 428 126 142 165 
212 754 464 163 125 137 
269 518 238 86 124 169 
185 550 313 112 128 150 
285 415 239 109 130 154 
266 683 444 133 142 157 
182 514 317 106 117 132 
319 258 444 121 111 113 
171 296 419 81 128 165 
197 802 443 101 115 130 
157 648 457 53 102 155 
269 273 306 107 113 123 
162 723 385 80 108 142 
189 608 346 119 121 129 
154 352 372 120 115 114 
258 792 348 212 151 128 
158 366 411 115 106 100 
272 120 440 94 81 68 
172 429 349 95 119 153 
195 940 321 111 84 64 
172 824 386 144 133 128 
212 633 274 139 147 160 
354 349 369 170 145 121 
116 698 507 130 143 191 
254 343 430 132 135 143 
219 518 276 85 104 124 
220 128 321 52 64 75 
155 718 445 77 106 130 
176 485 356 123 127 137 
243 666 187 50 71 95 
202 672 260 145 118 123 
256 106 473 140 108 86 
193 828 288 208 150 125 
205 545 285 133 135 144 
270 153 403 86 78 71 
175 623 370 87 112 145 
272 256 310 109 110 114 
317 655 292 88 119 145 
238 175 377 85 47 39 
211 227 443 124 24 62 
285 175 451 40 51 67 
218 371 326 82 103 126 
202 772 224 154 133 114 
227 829 333 202 149 123 
189 626 403 62 79 99 
247 731 179 171 14 39 
203 916 316 114 89 67 
248 26 398 142 127 122 
248 26 399 143 128 124 
351 273 433 81 117 146 
327 660 236 137 161 188 
291 205 386 70 49 40 
368 130 415 113 96 82 
247 276 432 109 129 152 
241 506 454 98 111 143 
295 143 446 75 65 53 
302 362 422 82 103 150 
349 237 438 97 63 93 
184 670 374 48 66 95 
171 653 424 85 110 173 
168 166 423 102 89 79 
201 429 337 57 93 135 
173 696 514 133 145 162 
261 455 222 132 143 161 
208 697 259 128 143 162 
272 353 435 115 138 166 
285 376 265 49 93 131 
235 536 474 47 68 134 
193 683 206 157 161 173 
165 978 379 99 76 56 
272 12 374 165 141 131 
308 318 366 66 90 112 
168 134 387 99 62 35 
229 672 488 78 98 119 
166 240 419 140 88 66 
153 933 330 79 57 37 
198 470 342 69 85 104 
208 619 234 141 146 157 
361 200 378 120 50 52 
237 404 250 84 103 123 
328 151 461 121 75 35 
156 406 380 82 112 139 
325 147 429 78 66 60 
301 323 346 83 95 108 
156 559 396 180 178 186 
175 887 316 99 76 56 
184 152 385 62 57 52 
254 205 451 113 43 42 
293 641 169 85 99 114 
245 507 220 87 120 167 
207 663 228 110 118 137 
275 573 284 95 95 98 
192 889 307 91 71 51 
238 925 387 126 99 77 
147 504 401 109 125 145 
272 421 408 115 129 162 
180 471 351 74 95 138 
180 808 437 70 46 95 
239 520 255 141 145 155 
242 246 301 88 116 145 
214 236 407 50 49 66 
277 316 435 126 143 163 
243 462 454 58 80 134 
302 374 308 66 99 126 
249 399 241 98 115 134 
185 754 276 125 105 94 
190 404 439 149 123 94 
208 952 406 167 124 99 
227 427 277 160 163 172 
217 497 286 61 96 127 
232 310 429 94 117 141 
223 436 296 158 160 169 
237 193 306 124 76 76 
308 719 217 128 89 87 
282 233 390 69 59 69 
306 218 376 93 64 47 
353 304 362 161 163 171 
311 149 405 77 65 54 
306 210 442 38 48 71 
255 28 393 129 104 104 
220 624 449 63 56 54 
218 888 359 138 102 74 
255 28 394 123 99 96 
287 315 317 126 99 76 
187 678 433 91 116 154 
213 859 403 114 90 61 
209 937 326 87 67 55 
353 436 385 90 117 175 
262 505 428 84 105 138 
254 625 450 174 118 106 
248 620 235 74 108 136 
241 19 402 111 102 97 
192 773 245 143 119 91 
242 17 402 103 94 88 
171 668 351 141 144 155 
202 662 477 62 73 94 
220 769 213 204 177 149 
285 415 407 72 90 138 
242 18 403 109 100 95 
269 774 211 216 181 143 
191 952 421 200 146 122 
248 496 451 116 125 154 
155 551 407 133 149 171 
160 350 400 123 120 123 
191 837 304 214 159 125 
140 288 405 153 154 161 
170 894 424 189 144 123 
255 478 218 99 122 159 
190 650 390 100 135 167 
223 764 450 141 75 124 
187 743 480 146 148 174 
271 796 261 190 142 110 
308 263 443 138 134 139 
229 155 308 128 66 48 
235 911 382 119 88 61 
204 131 384 81 67 53 
272 782 308 202 146 112 
272 574 282 89 90 94 
243 21 403 104 96 92 
194 640 506 147 106 74 
321 498 317 87 120 159 
191 708 292 123 133 145 
223 824 358 174 122 102 
207 787 447 179 111 119 
295 638 173 78 99 119 
178 502 331 94 108 126 
225 218 423 89 84 94 
307 718 298 151 136 124 
242 514 473 103 120 170 
303 618 290 54 62 74 
214 502 284 91 112 136 
223 591 245 112 136 162 
143 988 345 193 161 129 
192 449 450 127 104 85 
353 163 427 110 55 51 
292 493 274 105 129 156 
247 17 403 110 101 96 
215 767 213 201 184 176 
165 711 374 56 78 109 
247 18 403 115 104 99 
215 270 324 112 125 141 
169 135 386 101 60 29 
227 492 279 78 98 120 
204 690 264 141 155 173 
245 175 384 100 63 52 
270 780 338 220 162 136 
331 677 195 139 166 202 
278 517 383 129 135 149 
311 329 370 79 95 112 
246 20 403 102 93 89 
241 590 452 91 126 159 
215 939 335 99 79 66 
181 272 414 83 91 103 
280 497 384 91 100 132 
303 469 389 116 127 144 
259 29 386 143 115 114 
264 302 269 117 94 71 
212 700 189 120 121 127 
247 23 402 111 92 98 
240 24 400 121 108 105 
241 24 400 114 101 97 
285 582 299 73 80 89 
195 747 210 89 84 87 
180 658 320 177 174 180 
325 407 328 80 96 114 
243 24 400 121 107 97 
243 24 401 126 115 109 
155 545 417 118 132 171 
244 24 401 127 115 110 
227 152 330 76 70 67 
148 645 519 98 82 66 
275 377 242 53 92 128 
269 117 443 91 79 67 
200 831 289 224 162 127 
175 704 395 122 128 150 
276 466 228 85 118 163 
168 389 429 127 134 146 
248 16 403 107 99 95 
206 154 316 99 108 123 
166 648 414 122 142 180 
212 746 195 188 148 142 
309 126 403 83 64 45 
329 463 398 132 150 175 
161 694 519 96 104 128 
327 335 436 166 54 98 
166 647 417 97 120 155 
290 702 246 151 28 53 
131 933 358 107 88 74 
296 604 260 103 96 93 
157 738 375 148 154 166 
269 393 419 137 144 158 
274 238 377 89 40 40 
174 619 379 106 125 145 
261 378 437 59 85 108 
206 922 321 98 78 66 
206 626 451 50 51 54 
158 761 363 144 97 76 
149 200 420 134 86 80 
352 313 362 93 110 129 
212 218 405 94 47 56 
188 407 440 164 138 110 
280 657 413 56 52 116 
274 505 249 115 132 168 
172 620 366 102 135 167 
176 673 452 70 101 141 
186 667 380 57 90 143 
182 684 322 92 130 169 
206 392 433 104 18 48 
162 711 514 131 145 205 
244 710 473 141 161 185 
332 401 336 104 95 87 
222 163 455 44 51 65 
160 552 365 133 150 175 
238 167 309 80 54 58 
228 761 202 205 166 142 
123 716 479 178 173 181 
231 572 250 139 143 153 
236 275 438 152 149 154 
187 770 262 150 126 102 
145 970 358 98 75 54 
175 835 327 174 131 102 
348 203 376 114 68 38 
195 509 290 90 103 120 
168 362 421 133 72 100 
141 935 399 88 72 59 
230 284 292 158 156 161 
297 451 393 95 109 138 
175 251 415 52 85 110 
308 381 310 64 100 130 
329 234 369 132 107 79 
189 750 475 160 171 189 
185 347 345 101 116 137 
243 666 476 34 59 117 
252 617 235 78 112 140 
316 697 329 168 96 36 
317 123 397 112 80 51 
357 317 439 185 158 131 
184 742 292 111 79 75 
279 445 398 151 152 160 
345 170 460 122 70 67 
240 813 347 211 146 125 
242 814 287 216 158 127 
350 194 378 98 84 78 
309 674 240 120 158 193 
255 367 245 118 129 143 
264 316 259 135 115 92 
303 602 389 108 139 168 
213 613 241 135 146 162 
232 507 471 126 134 150 
271 658 432 143 149 161 
166 943 326 80 56 42 
304 138 391 119 93 60 
212 270 412 77 101 121 
288 457 255 96 130 170 
162 478 441 82 105 130 
249 24 401 113 92 96 
345 314 351 110 118 129 
185 708 313 145 153 167 
285 762 276 140 126 114 
249 631 203 68 97 121 
254 586 440 97 71 82 
251 25 400 107 87 88 
314 672 236 112 156 194 
192 632 404 35 49 83 
312 310 365 53 79 104 
271 622 195 98 124 148 
245 611 469 155 115 100 
135 983 350 146 120 95 
228 501 469 98 115 150 
273 537 409 120 137 157 
164 867 355 124 96 67 
145 976 365 121 96 71 
164 957 315 111 86 53 
249 803 237 233 165 120 
173 180 411 97 64 49 
267 571 427 62 111 150 
197 865 306 161 115 77 
253 657 176 92 112 132 
315 641 339 85 70 121 
224 35 388 107 85 71 
220 707 480 109 138 187 
272 22 391 142 101 84 
148 180 422 145 65 10 
211 945 333 104 84 65 
289 755 218 190 176 167 
190 504 310 130 131 137 
137 928 343 105 82 54 
182 605 305 168 166 172 
169 703 382 71 98 146 
257 565 258 109 119 132 
366 148 427 159 63 5 
143 980 332 126 86 61 
273 266 353 109 102 99 
230 339 430 120 97 108 
149 913 409 161 125 95 
224 38 387 102 81 66 
261 194 395 68 43 69 
153 778 449 184 189 202 
163 788 347 146 129 117 
130 915 364 81 67 56 
264 545 444 126 145 167 
195 684 296 77 121 154 
243 686 183 38 70 94 
238 752 441 173 42 49 
183 510 316 48 73 96 
259 81 459 92 79 65 
271 254 323 69 87 103 
158 406 398 54 78 127 
201 965 339 126 101 77 
209 562 278 86 105 123 
222 381 435 146 124 101 
175 853 371 149 111 81 
305 661 378 76 88 99 
329 488 375 140 151 168 
368 194 395 117 31 57 
236 199 309 144 59 95 
216 844 327 178 133 104 
271 203 456 98 44 73 
308 319 368 64 92 117 
234 373 457 165 88 26 
241 777 215 212 178 144 
350 361 357 109 139 164 
192 635 438 46 56 75 
147 508 408 112 122 140 
254 715 176 149 167 189 
331 151 457 127 64 18 
255 793 228 157 132 114 
228 345 454 184 155 123 
312 594 280 140 115 91 
223 391 294 92 113 135 
182 622 368 128 141 160 
365 368 393 158 1 74 
332 475 376 160 166 182 
176 307 348 126 107 110 
305 679 268 151 80 92 
262 8 391 108 93 85 
347 161 426 101 37 33 
170 287 420 82 125 158 
280 710 424 169 187 212 
322 342 351 87 98 111 
331 674 199 91 112 182 
264 9 386 130 110 101 
201 634 291 139 141 150 
228 39 388 105 84 67 
183 670 373 54 65 86 
229 39 388 104 82 64 
198 656 491 74 70 81 
351 320 363 157 107 64 
289 439 246 112 136 166 
242 379 259 154 153 158 
309 282 368 65 83 101 
191 693 301 121 105 102 
171 522 333 157 158 166 
219 134 460 112 92 60 
206 634 241 108 131 158 
194 977 362 105 79 66 
224 40 387 102 81 66 
290 592 395 79 125 159 
152 494 418 89 106 135 
295 204 384 73 39 39 
231 809 371 205 142 121 
257 433 417 144 148 158 
156 559 381 130 150 176 
259 31 383 162 142 136 
204 199 339 155 78 80 
201 481 312 110 117 126 
225 43 387 102 81 66 
241 371 440 146 132 123 
215 836 369 176 130 102 
172 803 318 119 92 72 
204 326 341 140 66 91 
315 428 304 143 145 154 
317 391 316 57 93 124 
150 656 529 128 102 74 
249 463 462 109 120 169 
356 142 427 115 79 68 
195 518 288 59 86 119 
194 712 198 167 19 52 
168 267 347 152 148 150 
262 325 255 92 106 122 
347 416 359 154 133 111 
236 350 275 101 122 146 
231 327 430 151 130 110 
230 572 461 104 108 118 
243 152 398 105 91 79 
229 143 313 111 91 77 
324 654 323 57 70 81 
311 293 443 160 148 143 
185 631 452 50 54 60 
308 319 372 64 92 118 
318 667 278 111 144 174 
173 797 452 131 57 81 
227 46 386 104 85 66 
209 748 467 150 168 191 
323 217 371 106 77 76 
260 789 346 212 151 128 
306 722 187 156 186 218 
266 263 436 127 121 124 
229 607 467 77 73 72 
214 863 419 177 135 110 
153 384 368 70 115 152 
288 425 242 74 115 151 
326 657 191 69 94 115 
158 786 358 124 111 103 
276 350 436 175 172 177 
311 667 369 152 117 69 
226 612 227 84 117 144 
245 318 265 141 143 151 
174 701 356 94 114 137 
162 721 376 86 104 124 
194 620 295 174 170 174 
231 40 388 104 82 62 
277 763 279 96 68 47 
164 813 348 130 117 109 
331 197 375 78 106 131 
333 501 353 106 129 178 
228 44 387 107 88 69 
334 462 400 123 145 184 
211 196 438 109 36 52 
349 140 444 108 94 84 
258 242 304 118 125 134 
212 380 429 115 21 52 
327 198 455 77 60 79 
226 221 444 137 3 59 
320 510 328 108 124 143 
191 753 243 130 108 86 
187 591 297 137 151 171 
342 442 388 121 136 166 
355 350 371 173 151 129 
238 203 308 143 60 82 
188 562 453 128 139 161 
354 244 399 60 97 126 
196 696 279 131 143 160 
159 733 395 84 103 134 
246 483 220 134 148 173 
354 319 439 187 159 130 
260 699 453 189 195 211 
358 165 386 54 63 82 
189 476 349 113 115 120 
312 716 191 179 198 222 
232 35 390 104 81 65 
258 583 278 80 84 91 
303 451 297 119 129 145 
177 952 323 132 105 79 
308 418 303 99 115 136 
320 168 447 75 45 39 
229 145 321 85 74 65 
234 34 389 106 83 62 
163 324 416 129 139 154 
303 607 374 148 145 148 
170 772 333 136 120 119 
261 526 222 112 133 173 
166 792 338 110 91 74 
276 499 245 151 162 179 
140 902 386 79 61 47 
308 669 344 150 82 30 
165 906 423 89 62 54 
260 129 417 94 79 65 
296 724 231 124 143 164 
220 756 463 150 170 191 
264 773 366 157 142 132 
166 360 420 134 110 120 
298 730 343 167 144 125 
307 148 386 112 100 93 
217 268 443 154 156 164 
357 425 383 163 145 131 
192 378 429 150 127 102 
239 428 452 96 109 128 
348 400 356 177 68 3 
154 744 387 150 155 167 
200 289 408 98 102 110 
160 883 412 149 110 84 
297 716 272 114 96 101 
329 126 406 102 65 14 
290 713 384 108 40 54 
369 377 401 197 161 119 
237 32 390 109 83 64 
237 647 211 41 98 134 
253 436 454 72 104 160 
294 151 390 89 80 74 
164 955 317 95 71 36 
265 575 429 68 118 155 
198 812 401 134 97 79 
190 574 293 144 144 153 
218 213 335 162 81 0 
188 188 338 86 122 153 
239 485 459 85 111 144 
226 287 446 79 120 152 
287 724 374 209 150 82 
155 980 373 134 106 75 
342 401 337 135 118 99 
210 144 311 118 95 96 
271 315 292 100 110 123 
297 485 290 139 143 154 
356 390 415 199 79 8 
156 786 443 127 68 66 
198 967 338 145 119 93 
212 800 252 159 115 80 
320 644 268 141 161 199 
294 496 279 119 136 157 
223 639 230 80 95 114 
348 257 436 89 58 78 
285 764 267 116 107 98 
243 671 480 23 59 91 
187 623 366 127 130 140 
274 20 374 179 160 150 
211 649 417 49 56 68 
259 240 444 104 117 139 
138 919 391 73 59 47 
264 177 467 104 40 43 
217 864 388 151 121 88 
169 865 393 122 100 77 
232 41 388 102 81 60 
310 321 372 57 83 106 
259 273 299 119 126 135 
145 647 470 124 135 161 
244 634 447 101 72 69 
233 42 388 101 80 61 
228 260 298 93 107 124 
295 448 272 93 122 155 
234 41 388 101 81 59 
298 689 160 126 137 201 
164 959 415 95 75 65 
151 895 347 93 75 61 
247 810 307 225 168 141 
358 222 391 50 76 127 
227 399 270 105 123 145 
320 535 366 105 127 160 
232 659 478 69 105 134 
183 980 325 190 161 135 
324 655 192 40 91 137 
208 192 398 93 85 94 
182 610 394 151 147 150 
222 780 226 200 155 109 
240 534 224 132 157 185 
164 873 344 60 47 38 
234 47 387 100 80 59 
235 46 387 102 81 61 
336 656 223 65 113 187 
199 726 231 115 18 46 
225 449 288 89 114 137 
346 139 455 113 101 93 
189 660 421 90 101 164 
233 46 388 101 81 61 
297 407 296 112 123 139 
258 85 452 99 85 71 
167 210 350 107 52 66 
208 410 439 137 115 93 
150 202 367 130 38 37 
270 24 381 185 165 157 
250 494 450 129 137 151 
168 404 429 171 147 125 
173 473 447 91 113 136 
249 794 229 122 153 183 
238 43 387 102 80 61 
232 289 287 152 153 160 
182 588 434 140 148 169 
236 40 388 104 83 62 
299 572 382 118 143 169 
328 338 350 100 114 130 
330 481 332 121 141 167 
169 588 408 125 134 160 
118 661 527 137 105 84 
283 369 250 39 85 117 
205 132 386 79 66 51 
295 709 241 168 134 107 
305 151 435 81 63 51 
222 320 321 140 141 148 
246 592 243 110 114 123 
237 44 387 102 80 61 
236 267 436 125 131 142 
151 967 375 123 81 53 
312 296 363 80 87 98 
348 384 345 186 167 151 
283 761 347 140 142 149 
264 725 433 184 91 94 
279 269 325 114 114 118 
283 591 293 49 66 81 
349 263 422 78 111 139 
323 228 445 51 35 39 
270 250 309 117 117 121 
229 356 432 106 96 104 
235 906 377 155 115 85 
296 182 446 90 45 34 
256 226 327 92 78 74 
288 730 182 155 110 126 
163 536 351 161 161 169 
221 604 263 112 127 145 
257 218 322 79 55 59 
241 460 451 88 108 148 
160 406 352 114 129 153 
224 50 386 101 83 67 
224 51 386 102 84 67 
228 329 299 96 109 126 
229 513 268 101 117 137 
132 906 375 73 56 46 
220 394 310 110 116 126 
220 311 420 125 126 133 
324 364 357 79 66 69 
227 49 386 104 84 66 
230 652 235 54 91 127 
187 272 343 136 141 152 
166 690 456 39 85 119 
166 655 452 7 56 131 
239 381 261 108 118 131 
227 50 387 104 85 66 
226 640 462 43 54 92 
213 143 401 97 89 81 
189 279 411 95 94 98 
225 434 292 147 152 165 
174 490 358 124 126 134 
221 303 443 129 136 147 
283 474 252 115 138 173 
159 733 426 34 53 90 
264 171 402 81 91 102 
170 177 413 117 50 11 
293 189 446 88 36 34 
145 253 404 134 80 73 
336 479 342 152 167 187 
149 501 413 98 117 141 
197 378 428 131 111 90 
160 502 364 118 132 155 
204 852 303 133 108 86 
248 166 392 134 54 28 
244 724 467 150 170 194 
300 694 162 163 177 223 
183 495 331 74 91 110 
246 629 455 155 104 92 
228 50 387 105 85 67 
214 262 411 119 119 122 
229 50 387 104 85 66 
184 183 393 32 40 50 
230 48 387 102 84 65 
269 783 334 219 162 135 
347 430 388 122 137 156 
285 311 316 127 102 82 
179 668 368 107 117 131 
220 283 445 81 125 159 
223 425 299 143 152 167 
220 230 331 94 98 105 
324 626 290 97 122 149 
199 543 287 115 143 175 
318 652 293 100 128 154 
185 575 445 122 128 144 
328 476 396 104 117 163 
147 766 453 140 134 175 
166 302 354 136 127 129 
296 416 291 130 133 142 
236 198 357 39 40 51 
302 700 353 148 129 110 
235 541 472 155 162 179 
181 606 414 126 133 158 
295 647 166 94 108 122 
157 280 361 100 119 140 
246 288 432 140 140 146 
214 136 408 95 86 79 
136 245 392 97 87 104 
159 677 469 131 137 153 
272 262 334 105 102 103 
255 595 280 53 72 90 
271 193 399 38 48 65 
198 350 343 112 129 150 
173 850 335 177 132 105 
270 25 378 135 114 113 
261 234 318 71 90 108 
254 473 429 135 140 150 
216 844 329 177 132 103 
197 167 389 99 50 12 
277 310 435 155 158 168 
304 726 293 161 143 129 
203 649 217 131 133 139 
279 749 361 142 126 113 
203 617 478 80 74 70 
227 57 386 101 83 66 
190 576 452 106 122 148 
226 58 386 100 82 65 
302 580 391 146 153 168 
227 58 386 101 83 66 
353 303 355 175 175 184 
206 639 286 105 125 149 
312 534 375 86 107 140 
225 60 385 99 80 63 
244 716 472 130 164 197 
304 721 225 143 83 57 
182 499 326 85 95 106 
340 456 343 133 150 171 
298 247 379 41 58 72 
225 63 384 104 87 73 
336 265 451 111 57 71 
216 622 261 96 122 155 
226 278 444 140 130 131 
183 772 281 162 130 93 
227 61 385 100 82 65 
328 135 407 86 68 52 
265 753 192 202 174 146 
211 918 419 68 47 47 
161 633 500 91 78 68 
160 395 414 112 46 66 
359 288 405 138 127 120 
241 633 449 103 74 67 
248 425 435 115 129 163 
315 262 365 125 124 127 
293 432 264 133 145 164 
207 854 311 151 121 92 
186 986 338 136 107 78 
290 668 405 157 165 180 
170 631 505 94 80 67 
311 671 155 127 128 134 
173 629 377 124 137 158 
177 698 341 151 160 176 
344 463 373 70 103 183 
166 814 340 102 91 88 
205 662 282 125 137 153 
292 144 453 109 76 52 
264 533 447 104 126 155 
231 59 385 104 86 68 
192 274 408 46 61 75 
286 666 408 114 117 124 
290 373 297 67 98 124 
253 593 251 87 93 101 
165 167 424 117 104 91 
299 698 375 205 122 47 
259 184 457 36 47 75 
333 642 242 151 171 204 
356 333 375 172 151 132 
368 144 397 131 78 7 
172 962 315 126 97 60 
180 984 362 118 79 64 
338 391 422 168 151 141 
177 820 404 176 144 116 
162 938 426 190 147 128 
372 150 402 110 69 10 
210 265 410 91 39 55 
256 555 447 132 147 167 
184 743 294 82 58 59 
209 778 454 177 89 80 
167 817 341 167 131 101 
153 787 413 150 110 115 
219 409 441 137 110 76 
191 769 246 166 149 136 
273 793 255 192 142 111 
234 320 286 117 128 146 
303 586 385 111 137 165 
309 352 429 143 142 154 
281 663 161 117 134 157 
227 433 282 166 167 176 
291 201 463 108 32 61 
188 216 398 82 37 33 
160 446 388 74 95 139 
285 748 250 142 123 105 
222 883 369 172 132 101 
195 760 468 152 167 188 
151 933 416 165 132 107 
181 859 325 145 107 69 
255 172 400 98 100 103 
317 285 362 92 105 119 
167 718 367 151 148 153 
233 52 386 101 83 64 
172 666 341 131 126 138 
277 748 192 198 10 32 
349 392 351 187 163 138 
262 245 333 73 90 106 
257 358 432 76 99 121 
293 694 395 103 146 183 
358 386 405 192 69 9 
249 455 429 105 114 148 
320 658 333 199 173 148 
234 54 386 99 80 62 
188 626 367 121 124 133 
353 227 405 101 36 42 
245 590 238 112 118 128 
297 697 359 138 106 64 
186 532 310 144 153 172 
148 502 407 107 121 140 
225 835 346 176 136 107 
183 383 433 136 41 71 
226 336 452 178 153 129 
357 152 388 131 65 4 
304 698 165 169 182 226 
334 466 380 115 127 167 
181 801 287 119 103 99 
130 654 506 94 80 67 
288 599 398 85 122 153 
220 930 397 177 131 106 
224 590 226 108 139 167 
307 700 235 153 59 73 
247 218 343 78 37 34 
203 915 423 97 75 69 
270 613 214 1 69 104 
168 630 390 64 49 83 
270 170 403 90 91 91 
255 752 187 213 150 136 
338 414 412 117 136 174 
331 212 458 117 88 99 
237 52 386 99 78 59 
159 441 414 123 134 150 
255 550 223 121 152 188 
234 345 450 187 152 113 
234 511 262 115 129 146 
205 855 420 120 97 74 
160 204 360 130 35 40 
223 641 229 85 104 122 
144 645 515 97 82 67 
360 281 401 144 144 149 
232 140 399 125 84 61 
164 565 369 209 194 186 
222 603 451 35 58 78 
290 543 393 107 125 146 
216 277 320 150 146 148 
207 366 338 90 113 137 
229 485 278 82 106 131 
154 991 344 167 136 113 
237 181 372 72 35 34 
357 384 381 201 174 150 
190 616 342 106 108 116 
312 679 150 94 124 180 
176 149 337 127 69 73 
210 661 215 79 98 126 
146 912 331 98 81 65 
296 619 206 133 144 158 
303 620 222 103 97 94 
235 599 231 160 164 176 
137 683 532 179 132 108 
163 970 400 109 90 74 
368 329 412 174 149 123 
148 893 385 152 111 84 
292 724 264 123 112 105 
137 217 381 144 64 50 
360 322 436 184 159 133 
355 405 384 140 103 55 
194 697 498 165 172 185 
299 186 383 45 59 73 
306 604 381 121 133 149 
153 342 375 162 124 88 
194 905 434 202 147 132 
257 357 246 123 133 147 
111 672 514 72 107 157 
333 162 380 127 63 1 
289 125 412 106 97 89 
242 525 472 181 179 186 
187 868 423 148 114 94 
354 283 371 153 154 163 
261 544 446 131 146 166 
306 292 442 130 144 164 
124 664 482 130 141 159 
346 174 381 75 85 99 
184 651 419 94 122 160 
310 655 351 191 128 24 
227 335 302 86 104 124 
281 770 316 203 148 116 
252 223 451 105 104 113 
323 362 349 54 65 78 
180 643 427 65 95 140 
214 382 330 75 100 126 
226 239 439 167 68 5 
247 228 308 114 112 114 
172 524 331 128 142 161 
326 634 275 117 142 166 
239 57 385 100 78 59 
218 430 315 130 136 149 
237 192 306 122 77 71 
193 675 405 153 157 167 
287 726 382 145 116 101 
360 167 434 87 36 28 
148 284 409 72 114 147 
212 622 249 141 149 163 
238 348 444 112 126 147 
198 354 343 110 127 149 
255 572 452 102 122 165 
328 684 190 148 170 215 
357 202 418 157 62 62 
157 896 336 84 68 56 
219 245 431 98 51 63 
200 227 340 112 126 147 
285 377 268 88 114 140 
239 61 385 100 79 61 
353 401 379 165 136 103 
287 275 367 112 72 58 
277 671 414 54 90 122 
226 327 452 126 143 163 
230 283 442 85 89 105 
230 436 262 70 103 165 
293 745 282 149 143 142 
205 687 494 122 137 172 
313 602 316 144 96 82 
241 32 389 112 83 66 
199 619 479 80 75 72 
358 169 438 120 88 70 
338 450 401 176 179 190 
356 283 415 142 142 148 
279 273 330 100 104 112 
220 366 320 99 115 134 
160 804 413 115 156 190 
221 622 446 72 62 59 
242 32 389 112 84 67 
143 988 352 185 157 131 
243 746 184 200 21 29 
209 708 482 171 180 194 
215 462 305 95 110 128 
295 361 421 100 118 155 
362 368 421 132 140 158 
222 185 453 119 54 45 
234 823 281 233 177 143 
201 528 464 109 126 154 
154 748 487 109 121 200 
259 544 452 133 157 190 
295 718 356 107 89 83 
171 563 356 128 150 177 
241 39 387 104 82 61 
143 896 345 85 68 52 
242 37 387 105 82 62 
238 288 437 86 105 129 
236 813 357 208 139 120 
149 243 408 101 114 129 
142 952 325 127 103 76 
234 178 305 47 81 110 
242 39 387 104 82 61 
317 489 389 138 156 178 
324 373 345 69 67 66 
271 284 304 94 73 61 
290 299 318 96 104 115 
216 571 270 93 98 113 
241 36 388 104 81 60 
241 37 388 104 82 61 
224 942 364 93 74 62 
169 586 394 151 166 187 
308 634 365 68 69 94 
244 631 207 75 88 103 
226 834 348 170 128 97 
153 951 411 117 90 76 
253 406 236 128 137 150 
286 716 403 141 120 124 
146 129 405 107 84 52 
233 726 474 161 183 210 
289 754 280 100 93 94 
127 965 338 147 123 100 
222 329 323 114 125 142 
231 659 225 68 96 128 
135 237 389 117 62 83 
317 694 166 208 217 234 
311 652 355 148 94 31 
312 702 170 149 169 234 
192 698 297 131 144 161 
239 524 227 106 135 164 
158 634 500 91 78 67 
263 112 440 104 90 77 
278 507 259 109 131 177 
192 392 435 119 31 60 
288 434 400 118 132 150 
342 143 466 124 112 102 
310 339 436 159 65 69 
185 567 449 128 139 160 
270 785 320 214 156 126 
212 541 468 121 132 151 
135 225 392 141 63 74 
293 209 383 78 43 36 
147 904 333 90 75 63 
246 37 385 107 81 63 
361 338 433 153 46 97 
240 140 408 142 68 44 
273 612 431 137 101 89 
274 511 254 89 121 157 
180 655 360 122 127 137 
242 205 341 65 37 44 
215 161 425 104 84 61 
193 517 290 118 134 155 
181 555 324 124 136 153 
365 348 389 186 158 130 
295 292 439 162 161 169 
239 499 253 88 118 154 
213 861 333 183 140 107 
183 524 313 95 119 147 
329 384 343 70 70 72 
220 231 330 87 89 94 
158 342 361 170 137 96 
279 527 278 114 125 141 
202 674 288 123 87 96 
223 657 477 58 94 122 
226 641 464 54 64 96 
356 424 388 155 135 127 
324 506 331 102 118 149 
285 701 169 131 150 199 
356 303 375 140 138 140 
212 532 282 98 115 133 
190 631 400 50 54 57 
287 613 401 149 125 122 
133 986 344 158 137 120 
319 646 256 188 206 228 
165 817 345 165 144 127 
181 600 306 160 159 165 
130 933 356 115 94 75 
239 377 443 122 106 90 
158 440 355 142 144 152 
309 542 311 93 114 139 
163 878 342 67 56 46 
297 707 356 111 90 74 
184 734 486 108 120 171 
236 553 226 128 140 157 
266 406 418 158 157 164 
185 318 344 138 33 55 
197 557 461 123 141 161 
272 782 306 201 147 111 
172 689 354 174 174 182 
257 11 362 148 125 105 
257 598 443 51 67 82 
312 506 305 108 122 144 
173 663 362 139 145 157 
322 623 297 92 110 133 
303 564 371 94 113 144 
279 760 355 174 172 177 
226 669 218 86 109 131 
154 481 437 107 131 158 
291 523 377 63 81 123 
244 42 386 104 81 61 
225 222 323 129 79 56 
195 680 203 160 160 169 
254 569 238 111 134 158 
198 702 277 129 142 159 
306 272 370 70 82 94 
209 660 213 92 115 136 
171 740 490 121 131 187 
323 147 385 117 108 99 
296 610 243 99 91 86 
246 42 385 108 87 67 
302 684 356 167 121 71 
348 196 456 126 83 85 
352 318 358 132 140 154 
211 616 226 119 76 98 
288 633 177 89 106 123 
267 530 238 100 132 173 
171 700 361 141 150 166 
263 797 233 221 164 127 
172 777 322 130 119 111 
220 459 296 90 107 131 
230 676 208 95 109 125 
230 559 256 99 117 136 
244 47 385 104 81 60 
267 386 428 103 131 169 
307 377 421 105 128 165 
228 545 472 113 135 165 
192 511 299 67 96 148 
275 379 241 48 93 129 
226 425 280 136 149 167 
290 706 396 106 141 172 
230 319 428 109 120 136 
191 626 472 51 51 59 
154 757 387 144 126 135 
139 937 395 83 66 53 
191 531 297 117 133 152 
216 939 337 101 81 66 
170 378 349 60 99 135 
172 798 320 134 113 101 
282 741 361 167 135 99 
253 177 396 91 55 52 
356 328 376 157 135 111 
160 647 410 121 148 181 
163 222 417 110 43 72 
233 824 306 224 164 135 
160 776 465 188 199 219 
350 353 356 115 114 130 
150 963 392 97 75 62 
175 175 404 87 49 35 
162 724 375 83 86 95 
227 641 463 65 76 102 
298 165 451 89 60 69 
285 749 245 186 148 104 
154 514 372 107 124 145 
166 433 431 117 99 77 
185 940 430 197 149 126 
219 621 223 77 128 167 
144 358 412 163 159 163 
186 577 304 94 125 154 
150 681 529 160 112 85 
186 990 347 149 118 97 
182 609 395 149 146 152 
194 738 221 111 52 78 
189 618 341 98 117 137 
168 444 433 123 112 102 
304 733 336 201 161 113 
175 646 326 85 130 167 
216 848 341 177 139 111 
247 773 210 204 174 148 
318 697 209 154 181 211 
330 196 375 74 104 131 
295 748 338 183 153 144 
142 897 381 104 73 51 
276 434 402 115 126 150 
277 508 258 127 148 178 
265 791 305 215 157 125 
308 658 172 49 68 86 
226 875 403 159 119 85 
218 168 424 103 68 60 
155 317 366 166 121 69 
233 522 261 122 128 140 
240 48 385 99 77 58 
174 664 334 171 169 177 
233 642 459 87 98 115 
295 625 191 128 141 156 
277 122 456 82 75 69 
240 49 386 99 77 58 
176 655 521 152 107 78 
317 519 324 100 111 152 
241 517 243 124 135 153 
246 269 287 121 130 142 
227 880 402 163 119 85 
228 835 355 182 135 108 
141 957 325 123 100 75 
212 903 333 83 64 54 
197 970 392 93 70 59 
219 607 250 89 122 151 
253 781 378 155 143 136 
304 140 424 81 61 44 
231 936 386 127 102 80 
354 283 429 138 140 149 
313 684 232 107 85 120 
175 538 329 196 184 180 
277 567 413 168 154 147 
158 433 410 47 77 132 
240 54 385 99 77 57 
287 384 263 58 95 135 
302 263 380 85 82 85 
190 268 410 48 69 84 
367 327 398 184 154 122 
179 232 407 86 39 32 
285 487 385 94 110 134 
248 808 292 232 173 138 
302 588 371 148 163 184 
216 660 218 30 56 76 
187 310 416 120 118 120 
185 978 391 111 90 75 
168 736 351 129 144 162 
175 620 380 106 122 141 
231 438 464 111 131 160 
238 649 465 102 115 133 
251 210 306 109 96 106 
244 49 384 102 79 59 
222 190 417 82 80 90 
238 297 437 76 115 146 
160 439 384 85 110 144 
204 374 426 134 114 93 
331 631 255 71 129 171 
314 209 373 94 69 63 
291 433 399 103 115 151 
226 156 333 69 62 60 
131 734 481 167 168 188 
260 406 424 140 146 159 
171 722 500 111 128 180 
244 55 384 99 78 59 
215 529 277 97 117 138 
319 690 161 105 134 217 
255 621 215 91 106 122 
254 803 326 223 164 139 
241 740 453 186 67 85 
240 58 385 100 79 60 
293 649 391 75 112 147 
178 245 341 167 160 161 
251 198 451 89 41 49 
238 820 325 211 156 132 
207 707 248 132 60 65 
294 218 385 81 44 34 
314 663 172 84 85 88 
162 180 354 103 81 99 
243 57 384 97 77 58 
153 777 452 184 190 205 
162 653 458 30 71 144 
307 258 370 99 86 78 
290 406 251 84 115 150 
231 304 429 83 108 135 
280 392 240 102 124 146 
132 906 377 75 56 49 
253 135 473 133 87 20 
333 349 431 82 106 145 
241 62 384 99 79 60 
242 60 384 99 78 59 
266 299 285 105 68 78 
181 947 321 143 109 76 
282 738 185 179 26 38 
187 857 415 132 105 78 
290 743 271 141 109 78 
166 578 383 155 165 183 
342 311 355 77 100 122 
344 284 362 132 131 133 
158 757 482 139 147 187 
225 42 447 97 83 69 
243 486 451 96 112 146 
210 895 331 82 64 51 
186 539 457 26 61 131 
271 625 191 78 113 142 
232 804 376 201 137 118 
354 402 380 160 133 102 
341 335 435 165 151 142 
181 630 482 80 73 69 
206 777 455 180 59 74 
173 701 356 106 123 145 
196 811 406 131 115 103 
199 676 216 102 129 161 
327 659 310 90 85 82 
215 46 450 106 89 72 
213 221 434 87 68 70 
146 152 413 119 104 102 
227 791 236 135 116 117 
329 186 376 129 103 74 
325 297 438 116 54 67 
229 522 265 132 136 146 
289 578 396 139 146 159 
148 965 374 132 104 72 
230 382 443 118 127 141 
326 686 179 122 145 182 
154 264 369 149 145 148 
312 682 279 158 85 82 
305 327 354 85 95 110 
160 194 359 116 45 45 
316 393 312 59 96 125 
268 472 394 125 131 143 
298 215 459 98 53 45 
244 816 283 213 153 122 
152 723 443 55 95 123 
166 241 420 141 96 83 
308 690 336 69 47 48 
149 723 508 129 145 196 
348 229 422 46 72 107 
203 721 478 144 158 178 
283 388 244 133 140 153 
212 643 219 84 74 77 
213 46 457 87 73 58 
241 564 463 131 159 190 
336 447 402 114 132 178 
228 431 275 131 148 170 
201 900 314 93 74 58 
223 916 352 109 74 53 
306 676 148 73 109 174 
156 472 426 105 117 137 
342 384 339 113 122 135 
174 717 348 129 136 149 
356 316 440 188 161 133 
310 369 313 83 102 123 
195 741 248 59 50 77 
235 648 215 58 105 139 
205 241 341 90 65 76 
185 613 392 133 138 149 
229 347 291 69 94 118 
246 554 461 118 136 158 
193 340 419 126 109 90 
249 579 455 72 76 90 
249 356 253 86 111 136 
235 555 225 130 137 149 
296 367 420 64 113 150 
303 398 303 89 107 127 
178 956 421 153 118 106 
210 263 335 101 66 77 
313 674 276 151 40 73 
192 207 395 103 54 47 
121 704 510 150 170 201 
262 758 398 148 112 112 
212 47 463 86 73 58 
224 591 259 66 107 139 
201 726 245 128 37 60 
152 944 330 66 55 44 
185 582 326 110 116 128 
157 440 374 111 126 145 
214 842 299 198 149 116 
159 345 400 112 113 119 
186 627 391 51 88 118 
330 671 185 170 170 179 
224 918 353 114 77 58 
233 463 267 111 127 173 
211 412 329 142 144 153 
166 645 424 63 102 142 
263 232 366 67 43 45 
188 725 293 140 26 38 
172 193 412 79 57 40 
221 38 448 91 79 66 
294 741 226 146 118 98 
222 591 244 123 143 166 
305 605 356 149 103 89 
153 264 372 145 141 143 
221 38 450 87 76 64 
115 671 526 177 125 111 
233 824 281 239 184 149 
188 560 299 100 129 158 
135 743 460 134 154 182 
180 426 347 98 120 158 
239 805 364 208 143 124 
222 37 450 87 75 65 
197 647 297 123 135 154 
318 540 376 122 142 177 
269 357 244 112 122 134 
223 394 297 86 109 132 
325 391 336 76 74 75 
311 206 374 98 77 64 
261 209 383 94 45 40 
325 450 316 92 117 150 
158 975 316 108 74 55 
145 967 355 106 84 67 
221 39 453 83 72 63 
175 863 381 133 104 79 
209 694 193 100 118 139 
151 748 486 128 148 205 
167 715 366 144 145 154 
357 241 366 102 22 36 
159 764 360 129 105 80 
242 666 188 48 74 101 
131 926 356 108 88 66 
165 865 351 122 95 67 
153 790 406 167 137 104 
172 504 352 72 89 106 
202 872 428 139 93 77 
178 634 479 78 73 71 
306 292 378 75 84 94 
236 504 258 108 125 148 
194 230 400 36 29 40 
216 782 431 166 133 116 
278 773 327 212 155 124 
222 38 462 76 69 64 
222 433 305 133 138 149 
235 451 246 124 139 163 
249 745 427 202 88 109 
211 309 416 129 129 135 
275 651 167 66 95 123 
225 760 456 85 77 133 
189 427 344 94 121 148 
320 126 400 110 76 35 
329 251 453 134 27 77 
303 626 337 133 87 79 
159 811 380 186 147 99 
197 642 423 40 51 75 
339 298 359 122 123 127 
237 650 203 85 97 111 
189 206 396 83 38 29 
312 702 223 175 19 45 
276 129 407 128 118 109 
322 642 302 114 136 159 
319 545 339 84 117 180 
250 807 307 222 165 135 
261 228 305 113 116 122 
332 312 355 76 102 125 
168 916 318 68 53 39 
156 741 377 138 119 123 
248 640 193 37 65 86 
246 424 450 47 72 103 
148 962 319 116 91 65 
218 42 451 89 77 65 
313 283 443 112 123 138 
179 154 336 135 70 74 
138 200 397 107 87 105 
194 758 226 135 112 91 
240 680 188 61 83 107 
179 317 346 105 124 143 
346 164 435 106 50 62 
214 479 458 87 107 128 
186 615 413 93 110 140 
266 240 450 160 155 157 
328 644 258 65 119 203 
326 431 409 61 90 146 
224 483 465 86 112 154 
241 451 229 94 115 148 
269 312 283 110 70 76 
341 460 349 173 178 191 
294 648 164 107 116 126 
305 426 301 109 121 135 
263 537 232 167 172 184 
198 745 203 169 141 111 
309 667 156 85 105 125 
285 372 250 63 97 125 
189 654 362 132 136 146 
340 147 441 119 86 76 
222 444 299 88 105 126 
127 728 481 210 205 208 
250 274 430 136 144 157 
181 734 487 127 131 174 
127 692 528 127 90 77 
350 339 358 151 0 61 
185 628 480 77 72 71 
186 585 443 169 165 170 
211 691 238 154 160 172 
236 296 277 92 117 141 
292 750 295 136 137 144 
178 521 321 119 133 152 
203 468 331 68 81 95 
219 373 323 85 109 135 
120 670 485 66 102 143 
284 426 403 151 152 159 
172 683 374 75 126 164 
295 332 315 126 92 56 
177 680 507 96 100 117 
202 618 478 80 75 71 
331 389 341 99 56 23 
281 621 413 139 100 90 
221 40 453 82 72 62 
281 526 395 143 144 152 
136 906 357 74 61 50 
278 205 457 149 40 32 
227 509 470 135 144 160 
226 427 452 121 105 87 
246 279 275 126 134 147 
158 453 419 93 103 135 
212 188 439 113 43 62 
262 550 260 111 120 133 
136 244 392 91 84 101 
184 744 288 55 47 80 
261 772 371 183 153 148 
217 954 375 116 96 82 
251 792 363 213 153 129 
113 683 518 47 89 162 
172 867 329 113 86 64 
269 27 376 156 137 131 
180 859 383 120 92 68 
330 270 449 171 170 178 
139 683 479 83 97 122 
293 546 295 92 109 129 
211 662 212 60 83 108 
301 137 419 85 64 44 
159 426 410 66 89 132 
226 594 225 171 175 185 
125 680 484 133 138 152 
157 781 361 149 118 90 
218 641 222 71 113 150 
220 263 311 71 107 136 
341 458 356 103 127 173 
355 181 441 39 83 115 
173 991 365 114 87 58 
217 42 461 76 66 57 
274 611 428 127 98 84 
170 246 343 140 137 141 
181 496 455 68 98 144 
313 661 366 94 68 120 
280 611 231 10 86 121 
143 703 524 121 154 211 
226 448 286 150 156 169 
350 249 413 80 112 139 
170 531 444 153 152 161 
138 157 403 116 81 48 
213 681 241 159 161 170 
290 718 259 102 94 89 
225 674 493 108 125 150 
284 321 435 190 154 110 
152 285 371 94 115 137 
295 708 267 65 32 35 
183 588 309 155 156 165 
319 199 434 37 34 36 
268 677 441 172 166 168 
284 124 417 112 98 88 
153 959 404 95 77 66 
171 819 398 158 124 90 
180 279 344 178 140 96 
143 320 401 79 125 162 
200 872 428 144 93 83 
159 230 421 142 79 86 
221 41 456 79 70 61 
275 777 316 206 151 116 
180 797 288 81 113 141 
269 566 427 81 139 181 
154 796 384 149 121 107 
301 613 237 109 98 87 
264 231 369 63 40 52 
208 620 237 148 153 165 
221 357 316 66 93 120 
321 179 378 116 80 57 
218 664 217 70 99 130 
194 598 333 107 112 122 
251 572 233 150 157 170 
227 398 271 83 110 136 
279 773 318 206 150 115 
203 793 252 99 107 118 
