ply
format ascii 1.0
comment Created by CloudCompare v2.11.1 (Anoia)
comment Created 2/28/22 9:39 PM
obj_info Generated by CloudCompare!
element vertex 2005
property float x
property float y
property float z
property uchar red
property uchar green
property uchar blue
end_header
286 89 465 120 101 83 
250 405 232 90 109 129 
217 732 485 147 154 191 
303 421 395 170 163 163 
234 174 444 50 81 106 
149 739 481 145 150 197 
249 321 273 129 132 143 
216 695 504 193 187 190 
210 804 406 198 166 133 
220 315 413 106 114 125 
179 650 351 77 128 166 
313 696 296 117 76 66 
311 662 360 91 66 135 
282 451 395 155 155 164 
280 256 373 113 63 68 
235 95 354 102 83 62 
235 95 355 100 82 62 
181 866 417 147 115 89 
188 730 499 186 188 199 
179 568 317 108 115 133 
208 660 218 145 148 158 
306 163 453 97 47 31 
312 510 298 127 136 151 
256 722 442 162 179 201 
284 551 277 85 110 135 
196 629 470 57 65 74 
236 91 354 103 86 69 
204 671 224 99 134 167 
157 978 318 137 96 69 
237 89 356 100 84 68 
210 343 422 157 136 116 
237 403 248 148 150 159 
299 716 272 95 82 71 
178 817 305 174 131 101 
181 655 366 133 136 147 
265 304 426 77 117 149 
260 558 245 134 140 152 
238 88 358 98 82 65 
269 601 268 79 76 77 
270 712 429 142 159 181 
292 719 366 159 71 64 
253 266 442 146 150 162 
268 610 444 176 125 115 
209 614 287 108 124 142 
341 464 340 96 118 147 
155 880 356 100 75 49 
263 473 457 135 158 186 
261 112 437 92 71 46 
253 711 464 100 110 151 
305 713 276 153 124 95 
225 872 404 161 123 89 
236 92 355 101 84 67 
177 552 313 115 134 160 
168 329 412 57 83 105 
288 713 173 163 175 192 
236 93 356 99 82 64 
316 270 363 90 91 94 
168 912 314 64 49 36 
362 386 353 163 143 123 
311 437 386 88 110 153 
214 444 324 124 124 128 
221 890 361 172 131 105 
290 179 452 32 59 104 
223 882 412 174 135 106 
211 893 343 90 68 54 
322 535 330 85 113 166 
275 298 328 72 85 99 
331 481 320 94 118 151 
252 272 308 119 121 129 
331 368 329 131 105 80 
179 695 336 125 139 156 
206 767 467 168 186 209 
214 557 273 96 128 158 
261 700 450 158 172 192 
222 922 387 135 97 76 
301 600 279 134 95 78 
238 479 457 73 96 140 
241 431 446 127 112 94 
189 716 287 108 113 127 
358 420 374 151 96 135 
302 528 359 57 83 124 
279 500 382 111 128 152 
259 570 268 69 81 94 
248 246 303 78 81 93 
271 617 194 90 113 135 
332 364 328 144 126 108 
256 395 450 144 127 109 
263 482 412 122 135 160 
243 756 429 176 65 57 
344 490 347 122 151 201 
186 610 340 52 100 135 
265 582 435 112 117 127 
310 304 422 152 152 160 
244 607 464 90 81 75 
307 680 352 213 155 71 
186 643 476 46 79 104 
171 787 324 117 106 99 
143 898 344 79 61 52 
356 372 348 164 143 122 
179 835 320 180 132 105 
272 180 396 58 43 66 
215 816 250 210 146 116 
126 959 348 126 101 73 
215 654 280 71 95 126 
220 461 281 96 116 137 
314 440 292 94 114 137 
181 476 450 105 124 146 
267 303 306 80 96 112 
294 479 254 197 191 194 
188 936 316 98 72 55 
201 729 252 114 29 39 
159 650 497 53 68 82 
198 419 442 174 149 125 
267 138 411 96 67 25 
301 365 430 66 107 141 
238 764 425 124 108 102 
179 683 478 72 97 119 
186 706 298 129 140 156 
198 653 433 60 111 162 
312 365 322 107 99 94 
210 364 431 155 131 107 
245 803 353 210 149 128 
249 218 445 106 57 74 
213 861 419 183 133 113 
180 817 407 174 145 118 
209 662 238 96 132 164 
191 629 490 84 76 70 
179 890 309 77 61 46 
378 366 375 164 25 77 
313 347 426 139 140 149 
377 265 398 133 127 125 
224 82 378 93 77 61 
245 205 320 31 46 70 
188 496 312 91 97 108 
226 703 497 198 192 197 
177 478 448 113 127 145 
166 808 395 91 85 90 
268 276 334 89 96 105 
164 731 394 132 145 163 
263 339 246 68 101 129 
271 556 430 172 167 171 
293 684 368 84 46 66 
226 82 379 89 74 59 
224 168 401 108 104 103 
227 82 379 87 72 57 
385 335 393 177 148 114 
204 625 445 42 48 64 
239 620 198 80 110 138 
271 129 410 100 67 43 
293 201 389 49 38 34 
316 672 313 172 106 66 
201 930 319 87 67 50 
241 288 416 114 115 119 
298 400 433 58 101 159 
204 535 462 111 122 150 
202 260 338 137 91 73 
248 910 393 160 125 95 
227 84 379 86 71 57 
327 317 424 160 121 74 
255 451 450 74 91 117 
246 442 225 128 140 165 
227 86 379 85 70 55 
190 967 402 110 91 75 
186 602 318 164 164 171 
170 565 355 81 102 137 
249 806 322 224 163 140 
211 665 502 55 67 95 
325 489 375 78 97 128 
315 397 306 77 94 112 
244 333 275 93 106 123 
172 590 385 153 151 157 
250 768 199 189 159 133 
231 80 379 82 67 51 
316 179 443 35 52 69 
254 342 256 68 99 125 
224 624 256 138 146 159 
274 538 410 137 142 152 
234 934 376 122 95 81 
159 312 391 117 129 146 
164 542 434 104 109 152 
276 749 212 76 52 40 
232 311 414 121 122 128 
288 346 262 79 102 123 
268 295 258 114 77 69 
290 549 389 126 143 164 
176 556 325 129 141 157 
215 644 503 160 113 89 
240 484 457 88 108 149 
198 692 209 153 155 164 
152 136 416 86 78 69 
165 188 431 123 131 139 
203 494 460 97 120 152 
305 628 349 72 46 81 
283 39 472 150 137 132 
241 421 264 86 111 148 
313 640 356 76 67 106 
156 956 408 84 68 57 
264 55 428 74 60 44 
314 626 268 75 95 115 
279 42 472 155 141 135 
293 493 368 96 101 135 
159 359 385 109 124 144 
180 143 394 95 64 50 
314 644 264 106 136 170 
267 360 431 110 101 93 
225 454 449 119 92 83 
264 785 233 128 98 78 
170 499 356 86 93 103 
262 176 456 103 37 47 
359 442 359 70 100 155 
294 545 357 99 117 137 
226 88 379 85 70 53 
212 509 462 82 110 152 
303 92 453 109 89 66 
363 193 355 141 44 70 
249 295 276 165 133 103 
231 908 363 155 104 77 
290 487 254 105 127 158 
215 671 183 44 51 80 
217 670 176 47 51 98 
348 382 337 168 148 129 
211 241 330 145 136 134 
235 608 456 73 71 71 
220 822 254 232 163 131 
227 93 379 80 66 52 
175 836 368 172 125 93 
237 675 153 106 118 134 
225 627 492 127 98 70 
210 652 483 81 59 66 
358 417 388 102 121 168 
178 815 305 172 130 97 
216 676 510 101 115 143 
260 790 286 210 155 120 
253 437 225 101 121 144 
225 94 380 80 65 51 
171 729 416 126 133 146 
268 603 277 77 73 72 
369 286 363 105 126 149 
301 254 443 118 134 153 
297 311 338 92 102 120 
185 616 327 84 136 176 
230 332 418 140 120 97 
267 339 246 58 98 129 
282 135 390 109 70 8 
284 632 194 104 92 82 
295 162 376 88 47 13 
315 362 331 86 90 98 
307 668 338 185 110 21 
170 800 325 143 130 122 
376 261 381 132 133 140 
190 506 292 99 117 138 
187 631 312 84 98 119 
281 704 234 122 55 78 
327 283 351 121 121 126 
297 29 462 145 131 124 
242 234 418 125 61 68 
270 440 419 114 118 165 
231 90 379 80 65 50 
231 91 379 79 65 50 
326 530 353 135 155 184 
160 405 418 116 97 81 
208 776 459 144 172 198 
351 398 342 168 83 8 
244 219 292 115 127 141 
329 134 421 77 51 17 
229 94 379 79 65 50 
268 600 436 108 95 84 
158 556 411 201 191 191 
270 236 370 117 32 40 
164 487 354 166 163 168 
238 172 353 61 30 38 
135 891 359 96 78 62 
323 303 352 59 82 104 
288 461 242 132 145 167 
170 705 529 163 182 219 
241 225 427 115 94 97 
231 773 428 89 70 105 
254 241 437 144 101 87 
180 422 430 150 58 6 
255 484 464 168 172 185 
156 408 425 174 73 8 
186 169 409 108 61 40 
287 604 396 121 95 76 
234 754 182 159 120 118 
248 630 455 137 92 79 
194 835 376 165 121 89 
296 160 375 91 47 12 
244 367 254 71 92 112 
277 216 448 149 49 42 
276 479 390 105 108 151 
278 456 396 92 102 150 
233 81 380 86 71 55 
300 664 165 166 163 167 
214 313 339 168 125 79 
279 521 261 109 123 141 
150 528 419 112 126 158 
273 149 463 91 32 50 
343 397 327 156 76 7 
196 964 402 119 93 76 
344 134 363 149 131 113 
193 939 320 107 79 56 
375 242 394 80 117 147 
232 84 379 83 68 52 
130 940 368 77 63 54 
162 939 423 203 158 138 
178 559 313 120 131 149 
198 732 253 111 30 40 
150 162 432 112 93 76 
283 124 464 100 91 85 
273 654 145 86 83 81 
227 644 182 73 95 114 
207 810 248 197 141 108 
150 153 388 80 54 46 
217 655 479 118 117 132 
228 331 417 139 122 104 
320 330 431 188 138 72 
163 786 425 122 23 44 
304 208 450 137 43 22 
188 629 494 87 78 70 
175 788 289 138 127 120 
277 750 225 164 154 150 
253 145 410 226 45 26 
286 685 150 89 131 169 
276 522 416 105 122 159 
236 82 379 87 70 51 
290 621 208 106 96 88 
255 183 457 115 44 56 
152 540 410 155 163 181 
282 725 408 182 48 44 
167 156 423 92 76 60 
176 718 335 127 140 158 
296 549 280 129 135 146 
292 727 267 145 134 128 
276 319 273 96 68 71 
238 82 378 86 69 52 
236 236 410 113 53 57 
308 122 402 108 97 89 
288 669 248 80 123 156 
200 813 404 167 146 128 
218 603 279 106 121 140 
269 150 457 98 50 49 
178 192 430 86 40 63 
250 533 223 112 128 170 
197 817 396 65 65 77 
238 220 448 59 105 137 
268 489 239 106 127 150 
198 624 488 83 75 70 
199 819 391 130 114 102 
171 262 423 111 102 119 
158 763 450 140 130 172 
197 788 459 48 49 133 
196 655 393 68 20 91 
283 616 212 108 98 90 
223 449 297 120 123 132 
337 413 393 118 130 147 
255 611 209 70 110 141 
238 610 445 85 75 68 
210 238 400 34 46 61 
266 160 404 128 25 12 
173 860 394 118 97 76 
201 377 434 172 146 118 
183 603 417 101 115 158 
227 782 419 100 94 99 
177 704 348 128 142 161 
332 429 384 99 107 122 
142 713 477 136 139 155 
291 378 292 58 88 112 
366 192 359 122 40 52 
300 648 241 140 169 201 
229 910 359 184 118 98 
159 361 394 143 145 153 
293 68 460 108 88 66 
251 730 441 147 177 207 
237 392 273 55 92 138 
304 514 279 151 157 171 
164 388 405 104 106 127 
304 684 207 156 161 173 
211 468 305 77 94 112 
266 599 281 67 73 82 
148 522 419 146 148 159 
267 301 313 106 112 122 
320 424 303 61 95 127 
264 619 184 145 152 163 
169 449 343 84 111 145 
226 871 401 160 121 88 
126 976 343 129 104 83 
264 783 341 216 158 134 
251 194 455 156 58 59 
248 233 333 78 51 52 
161 674 496 102 111 125 
319 177 436 29 35 74 
281 727 226 100 98 98 
187 367 341 83 110 141 
286 134 381 118 73 17 
251 909 394 164 128 95 
208 625 438 42 47 65 
164 309 411 77 95 114 
162 777 430 120 44 47 
359 325 353 132 18 61 
290 619 281 27 45 61 
174 876 420 142 108 81 
122 963 341 129 98 76 
299 567 375 80 109 138 
218 269 404 70 101 126 
229 792 396 207 180 156 
296 167 378 76 70 68 
199 866 423 142 113 87 
252 670 481 137 145 158 
323 533 365 142 160 184 
246 485 241 79 106 130 
272 747 395 100 88 92 
265 527 255 98 111 134 
239 95 370 88 73 56 
161 377 378 112 126 146 
292 448 244 162 166 178 
243 508 235 84 115 143 
157 890 331 86 71 61 
362 329 358 153 134 114 
242 577 230 114 117 122 
216 830 367 174 127 99 
238 145 389 129 87 61 
237 95 373 82 67 50 
323 282 354 116 120 127 
195 675 462 110 127 147 
324 333 354 107 105 107 
273 565 410 71 117 153 
262 320 438 157 158 167 
174 858 327 144 108 78 
171 847 337 170 129 103 
222 819 368 172 110 87 
276 486 243 92 110 172 
185 949 421 203 149 124 
269 506 246 70 100 131 
291 555 367 102 114 151 
238 92 374 83 68 52 
290 662 247 98 136 169 
234 195 333 62 32 42 
277 224 444 146 20 77 
251 772 391 152 134 120 
246 728 462 153 172 196 
233 88 379 81 66 50 
299 397 410 72 98 163 
146 974 370 125 102 79 
259 572 257 89 97 108 
266 461 406 138 142 153 
244 803 355 208 148 128 
133 911 349 83 69 57 
232 364 312 80 100 123 
294 407 430 129 140 173 
295 609 282 115 81 65 
300 522 270 143 145 155 
359 229 424 55 87 118 
249 264 302 109 111 118 
184 699 306 117 137 159 
151 243 425 99 107 121 
317 181 358 121 80 63 
203 708 186 138 141 150 
156 717 516 101 122 202 
266 608 271 77 74 73 
268 508 244 57 94 128 
169 360 414 102 98 99 
192 851 379 147 111 87 
181 824 303 185 137 105 
257 306 447 120 87 97 
137 955 324 134 107 78 
162 453 372 97 116 142 
343 248 430 101 53 82 
160 795 392 136 126 123 
256 628 449 144 94 82 
232 198 410 111 61 80 
290 683 252 30 58 114 
191 974 358 89 70 60 
174 735 332 70 71 113 
169 755 339 112 49 67 
191 672 473 28 36 106 
270 446 409 128 134 155 
270 768 276 152 112 75 
163 389 372 71 112 145 
246 444 454 108 121 146 
300 292 360 108 108 113 
285 107 428 96 79 60 
282 326 262 77 100 122 
168 781 455 180 194 216 
239 416 441 133 100 83 
242 810 291 224 168 134 
263 365 241 77 106 133 
294 619 215 106 96 88 
172 674 535 164 114 87 
191 702 521 139 160 202 
217 629 496 116 93 67 
285 607 407 123 88 73 
303 573 314 95 118 147 
375 397 383 200 86 7 
309 366 316 86 86 96 
241 131 428 125 92 78 
318 648 210 122 146 171 
238 88 376 84 68 52 
166 768 468 174 188 208 
216 899 343 91 76 64 
232 634 483 160 110 90 
259 778 367 137 142 153 
281 527 390 115 134 156 
333 133 422 67 63 59 
156 134 400 134 64 8 
265 760 387 90 84 98 
323 336 353 109 107 109 
240 452 234 112 127 161 
267 513 248 101 125 148 
138 244 419 99 91 110 
241 171 365 83 41 39 
265 47 466 156 143 137 
286 418 427 119 136 178 
300 220 387 81 46 32 
214 620 466 65 62 63 
219 888 356 149 112 85 
321 446 304 60 90 129 
361 223 352 67 75 91 
212 475 282 97 116 136 
187 728 193 138 36 30 
243 792 220 208 195 190 
180 609 407 75 86 101 
142 721 476 123 140 171 
332 346 332 135 110 80 
367 220 418 74 100 122 
344 408 327 125 110 95 
274 443 453 131 155 184 
229 362 425 148 128 107 
281 81 465 110 96 83 
220 328 335 126 131 142 
159 298 413 96 96 100 
174 340 345 112 119 139 
236 509 460 89 108 143 
216 659 254 140 144 156 
207 851 312 160 127 96 
230 217 308 126 114 105 
207 825 374 166 116 89 
181 279 419 148 143 144 
206 893 424 201 141 128 
302 532 289 74 108 152 
179 700 388 66 89 145 
236 665 160 111 119 130 
173 958 417 105 85 73 
188 591 435 169 169 178 
176 925 431 191 150 128 
351 124 382 123 108 95 
239 609 231 88 98 122 
192 973 377 112 94 80 
161 408 406 81 95 131 
308 294 365 118 119 125 
207 507 462 139 145 159 
349 441 346 80 84 127 
257 609 218 18 82 118 
322 392 324 89 80 72 
257 681 143 140 152 192 
230 350 422 129 98 87 
315 528 317 101 122 150 
201 152 390 68 61 56 
181 774 472 169 183 204 
180 798 442 179 43 76 
308 390 304 58 85 110 
163 992 332 124 86 38 
173 925 316 104 81 58 
160 444 412 99 118 142 
231 130 440 102 93 86 
269 473 399 114 126 150 
192 677 516 121 78 66 
261 305 434 89 126 158 
246 65 359 114 93 71 
164 441 386 119 127 147 
303 530 281 143 151 165 
175 789 451 185 49 95 
260 725 167 117 129 173 
225 816 371 190 126 107 
305 180 454 132 58 69 
193 635 359 65 111 147 
176 793 278 125 119 124 
184 621 333 85 138 178 
236 249 411 106 27 45 
303 456 272 91 112 148 
303 497 265 105 126 154 
237 747 455 118 114 152 
253 324 448 163 164 173 
309 675 354 216 158 76 
314 658 356 88 84 148 
275 329 286 115 89 69 
302 26 446 114 95 78 
246 233 284 96 122 151 
170 384 345 72 105 142 
188 591 333 131 131 140 
164 777 449 165 172 185 
183 612 331 80 135 178 
172 979 379 88 66 51 
210 870 422 145 113 86 
302 597 274 157 115 98 
245 70 360 125 101 77 
209 292 409 110 112 118 
269 768 356 142 123 107 
221 781 214 190 140 104 
247 339 268 68 96 122 
260 652 144 85 117 150 
303 265 439 82 120 151 
319 541 327 138 158 188 
243 670 150 113 123 138 
177 577 429 124 137 155 
360 412 356 160 73 7 
238 228 292 154 153 157 
245 678 495 124 134 150 
377 272 379 115 126 140 
247 71 361 123 101 78 
156 318 425 118 142 167 
188 751 249 109 95 82 
241 318 419 108 120 137 
309 623 245 139 139 143 
223 638 259 87 121 153 
166 972 396 98 75 55 
312 123 418 94 78 64 
293 233 384 68 58 57 
232 517 250 119 130 147 
296 517 267 72 99 129 
166 737 415 109 124 153 
275 755 215 172 153 138 
312 669 210 166 187 214 
368 233 366 118 33 63 
341 402 323 123 107 86 
349 207 427 98 86 106 
235 816 285 212 159 129 
263 784 285 199 145 113 
375 241 387 79 114 142 
243 73 359 125 101 74 
255 807 264 202 152 122 
293 224 386 87 46 35 
260 472 429 119 138 159 
191 337 342 157 151 151 
222 640 201 81 109 134 
181 857 408 128 103 75 
230 176 424 118 68 77 
300 540 278 117 132 155 
359 127 377 126 107 92 
232 196 310 113 85 82 
160 378 392 70 87 128 
241 77 357 121 98 73 
378 268 399 151 143 141 
187 715 290 131 39 48 
147 880 377 159 111 88 
157 271 397 83 101 125 
206 583 282 162 160 167 
240 448 232 114 139 167 
310 693 289 129 110 97 
300 157 369 128 59 4 
230 458 271 101 116 133 
280 352 293 90 106 123 
146 144 426 121 106 90 
307 672 337 178 80 36 
223 929 381 94 72 55 
176 743 311 130 97 69 
236 368 283 73 98 125 
226 828 317 210 156 128 
286 717 255 129 105 77 
214 648 502 164 112 86 
239 302 417 131 132 139 
210 548 273 98 138 173 
185 582 436 160 156 160 
212 619 471 74 70 69 
161 444 350 148 154 169 
265 682 140 123 143 201 
351 326 342 152 117 72 
187 670 479 135 137 145 
192 219 412 111 44 61 
227 541 465 127 138 158 
227 797 394 153 139 131 
170 517 332 103 119 139 
228 808 378 192 135 119 
334 264 431 141 137 142 
342 492 352 96 129 195 
280 91 466 114 97 82 
244 294 419 129 130 137 
186 529 289 134 145 162 
280 666 431 148 158 174 
222 391 326 113 121 135 
244 75 360 122 99 75 
184 971 403 101 83 67 
240 406 438 143 68 8 
246 633 443 88 67 67 
348 427 338 156 123 118 
366 332 419 133 119 111 
159 724 449 75 99 120 
246 73 361 123 100 77 
143 679 499 46 87 127 
288 80 464 113 94 75 
185 613 366 144 146 155 
379 296 403 121 131 146 
276 537 425 131 141 157 
240 538 467 176 180 190 
343 494 347 118 141 192 
270 499 394 153 155 164 
370 150 377 145 52 51 
186 787 461 206 21 64 
241 244 429 102 60 77 
258 336 253 85 110 135 
272 503 416 143 148 159 
378 357 375 190 155 122 
275 400 234 103 126 149 
170 847 344 152 115 86 
247 75 364 113 91 70 
229 824 309 228 169 143 
239 225 415 122 89 73 
184 430 435 153 72 7 
222 899 362 99 62 35 
159 770 364 129 112 106 
169 409 344 72 98 141 
165 431 363 130 138 150 
329 168 428 89 48 55 
239 584 449 52 105 142 
310 642 272 118 149 181 
261 265 271 103 116 130 
179 979 356 126 98 73 
315 544 321 101 123 148 
165 414 357 113 126 147 
272 669 135 44 88 130 
306 605 311 148 109 87 
189 722 504 104 127 183 
251 258 443 113 122 136 
314 660 347 168 123 52 
140 955 379 91 76 63 
184 854 378 137 104 79 
226 608 268 85 108 141 
185 777 228 178 147 114 
200 746 484 158 171 193 
236 377 285 72 101 130 
161 746 400 105 132 159 
165 487 354 170 167 173 
180 669 351 141 143 153 
188 514 297 82 105 133 
208 713 220 139 149 164 
218 416 323 77 93 111 
250 503 221 128 148 182 
153 176 431 168 74 8 
304 538 301 113 127 147 
284 367 244 75 105 132 
279 386 429 62 82 100 
154 942 416 166 129 109 
237 129 435 101 90 82 
352 417 344 146 133 124 
165 358 415 122 112 108 
269 766 213 140 113 81 
262 327 437 156 156 163 
226 428 309 86 101 118 
134 186 407 52 62 89 
179 483 350 126 124 127 
308 642 195 121 133 148 
217 817 382 181 129 109 
152 348 417 143 151 164 
188 843 314 191 140 110 
245 458 251 101 118 141 
313 644 345 91 54 29 
237 343 284 70 90 113 
303 456 274 83 105 140 
174 819 392 174 153 138 
229 902 386 160 113 84 
273 586 409 146 142 143 
302 612 317 135 95 89 
189 683 466 57 100 130 
201 613 434 68 109 140 
288 139 467 148 58 4 
237 566 230 140 146 157 
205 761 472 160 173 193 
300 692 348 151 114 64 
254 806 267 201 152 121 
202 624 446 41 50 67 
161 321 363 161 119 68 
194 575 284 93 135 171 
214 758 184 91 61 126 
376 286 409 159 157 163 
292 388 438 90 117 143 
250 67 366 110 90 69 
279 599 261 87 81 77 
355 194 423 119 46 73 
263 292 285 99 52 53 
358 129 371 137 115 95 
289 506 261 105 125 148 
349 442 346 70 95 137 
175 776 468 182 197 220 
217 758 182 105 122 145 
260 343 448 190 163 136 
222 587 455 78 114 145 
262 62 456 120 112 108 
317 157 437 117 26 37 
367 166 387 18 56 85 
292 716 364 176 81 65 
256 474 445 67 95 156 
153 183 429 157 65 14 
266 786 249 181 135 102 
222 826 272 255 205 169 
314 181 453 22 50 82 
197 698 521 87 116 191 
233 577 455 50 64 94 
210 784 452 166 139 116 
307 112 416 104 89 75 
197 186 396 37 40 47 
226 222 314 116 99 81 
317 553 343 55 100 142 
272 450 450 96 119 178 
173 599 388 97 100 121 
135 668 528 149 114 91 
213 279 405 69 97 120 
290 709 205 153 75 66 
149 338 417 170 171 180 
163 448 349 94 116 139 
162 551 361 181 174 176 
251 904 394 167 132 98 
314 431 294 127 136 149 
288 702 222 166 53 75 
196 841 376 165 122 94 
193 880 315 100 73 52 
373 141 404 144 58 5 
240 756 438 178 116 114 
231 139 395 120 87 67 
317 452 294 115 133 156 
346 304 425 139 23 56 
184 812 274 188 138 105 
157 279 404 136 134 139 
240 67 383 86 70 55 
172 687 532 165 113 87 
353 167 362 77 101 128 
179 862 320 136 108 81 
190 665 471 25 67 121 
178 562 316 118 137 161 
193 633 464 25 42 76 
284 332 267 88 102 117 
278 531 395 100 127 154 
350 464 359 102 123 185 
235 598 444 99 113 135 
235 303 308 135 138 146 
300 33 442 141 129 123 
238 324 295 92 106 123 
212 768 196 199 146 112 
362 400 400 140 123 107 
248 244 314 71 96 117 
296 293 423 132 131 141 
240 70 383 86 69 54 
295 553 282 110 125 144 
240 71 383 87 69 54 
190 694 433 67 91 142 
255 566 449 105 126 167 
157 295 424 130 126 129 
280 335 278 109 89 94 
309 640 199 115 122 133 
242 68 383 88 71 55 
157 269 380 137 138 146 
160 799 380 28 35 49 
241 278 289 148 147 152 
222 207 324 142 90 55 
279 348 288 125 102 80 
334 456 318 117 134 156 
248 420 229 85 109 134 
141 675 502 95 119 144 
161 451 351 59 87 121 
198 855 309 192 139 100 
380 294 378 108 100 115 
318 527 320 82 108 148 
273 335 428 147 144 149 
348 273 427 154 156 165 
274 274 340 124 130 140 
237 623 196 79 102 123 
227 578 243 90 127 158 
185 142 387 86 57 44 
177 801 279 141 130 123 
183 600 332 61 120 161 
186 351 341 83 108 134 
223 631 255 150 157 171 
358 145 367 141 72 6 
224 142 415 89 81 74 
170 830 340 178 135 108 
142 167 430 136 121 108 
199 663 418 107 123 165 
244 300 284 94 121 148 
305 659 176 27 72 118 
316 349 344 94 101 110 
182 664 337 157 156 162 
368 227 369 83 73 85 
266 665 135 45 82 125 
198 800 252 167 120 85 
166 807 399 180 163 150 
234 603 233 120 127 138 
172 381 342 69 101 141 
182 384 425 94 118 143 
185 375 424 125 69 88 
296 736 285 207 189 178 
250 206 451 107 69 103 
175 265 422 102 95 113 
282 659 425 167 169 179 
163 560 421 159 160 172 
221 889 360 171 132 105 
236 365 290 76 98 120 
181 500 318 119 121 127 
304 120 398 108 99 92 
310 581 348 113 137 172 
183 666 331 156 155 162 
351 427 398 140 156 184 
194 710 280 126 32 49 
305 621 252 33 52 83 
184 668 481 34 75 120 
178 715 327 133 132 140 
253 133 427 139 76 47 
302 534 286 155 165 181 
365 175 415 59 88 114 
255 200 373 90 42 51 
273 572 280 89 90 94 
185 407 338 52 88 124 
183 970 333 102 79 60 
192 704 288 119 131 146 
308 393 302 44 81 111 
219 531 464 127 140 163 
244 70 380 93 74 57 
290 667 149 59 87 126 
240 367 261 92 114 139 
244 71 381 92 74 57 
243 584 448 91 124 156 
311 710 312 122 107 102 
345 350 334 141 23 64 
247 75 370 102 82 64 
253 274 309 122 123 128 
167 709 525 143 159 209 
172 862 373 132 105 78 
300 103 420 113 96 78 
225 709 163 110 121 183 
290 356 260 68 100 130 
343 467 347 56 84 129 
218 797 236 157 108 74 
155 921 323 95 73 50 
221 929 349 94 75 68 
299 603 282 131 94 76 
326 312 351 90 99 110 
275 738 188 184 153 135 
236 692 154 131 157 189 
174 591 410 123 136 169 
219 465 453 69 99 141 
242 558 229 134 154 179 
233 743 471 155 179 206 
242 601 237 108 120 135 
220 448 309 84 95 109 
246 740 444 50 77 137 
151 654 507 94 82 70 
175 829 323 173 129 101 
334 425 385 77 90 111 
224 809 238 192 128 91 
264 278 265 130 113 98 
361 136 421 123 112 102 
287 599 395 158 151 151 
234 717 163 162 179 204 
286 33 429 118 103 91 
255 416 452 132 106 114 
129 949 338 92 77 61 
262 791 253 182 136 104 
185 976 345 129 95 66 
190 885 305 86 65 54 
247 747 180 217 164 130 
252 316 266 125 131 141 
190 515 287 111 124 142 
280 150 398 83 71 61 
375 259 377 139 140 147 
137 664 505 82 98 114 
280 490 382 82 99 143 
318 220 443 107 58 64 
276 140 470 161 64 5 
190 938 426 192 145 118 
211 942 406 187 140 113 
239 800 229 232 164 122 
380 342 373 186 157 127 
168 720 515 172 183 213 
236 397 252 109 128 149 
246 76 373 99 79 62 
177 728 321 141 19 41 
228 917 359 203 143 114 
247 76 372 100 80 63 
310 623 249 38 45 66 
249 732 169 201 144 164 
249 571 450 98 120 151 
278 561 278 107 111 119 
278 321 426 128 126 129 
193 165 396 76 36 17 
289 611 223 111 100 91 
264 492 229 123 140 164 
362 197 419 145 50 81 
257 270 326 125 124 127 
195 684 429 138 150 167 
186 648 473 18 69 104 
174 990 342 162 130 104 
309 704 293 106 111 120 
163 682 492 89 109 130 
198 714 504 84 124 191 
153 290 424 99 77 92 
193 521 459 64 90 142 
165 155 420 91 75 62 
296 583 274 114 104 97 
240 75 382 87 70 52 
199 712 210 140 148 163 
175 603 394 108 124 142 
236 162 355 82 31 27 
251 647 460 98 117 138 
193 191 403 61 27 28 
213 777 456 130 80 101 
167 987 324 145 114 78 
247 477 222 108 130 165 
365 254 359 83 117 145 
163 745 410 124 140 163 
201 447 451 159 73 16 
154 395 419 166 83 23 
262 615 452 170 125 110 
266 390 432 76 94 122 
228 487 260 39 77 110 
296 617 294 64 57 55 
244 622 187 137 141 149 
188 688 302 84 102 127 
294 575 295 128 128 134 
371 388 386 189 108 32 
210 471 299 94 111 129 
243 76 378 93 73 58 
243 76 379 92 72 58 
206 617 290 128 133 145 
272 778 309 206 149 117 
175 502 330 81 99 119 
319 641 310 79 95 112 
243 79 376 92 74 58 
300 665 221 131 168 203 
267 636 164 77 101 123 
242 78 379 90 72 56 
243 720 163 175 187 208 
308 617 365 144 144 150 
193 401 334 73 99 128 
166 403 355 71 98 137 
215 267 403 73 100 121 
264 730 424 155 185 217 
372 254 415 85 106 127 
163 807 352 176 158 145 
301 599 281 139 102 85 
159 771 391 116 30 48 
174 439 340 130 137 152 
188 637 304 165 162 169 
284 627 404 181 122 118 
266 125 469 100 93 86 
242 467 230 130 150 178 
162 910 317 67 52 38 
291 221 450 108 79 92 
242 241 419 120 36 72 
223 908 354 118 68 35 
257 105 472 134 105 69 
247 912 383 164 129 95 
221 554 465 94 114 138 
332 310 424 179 125 45 
245 74 378 94 73 59 
242 565 229 105 130 156 
247 130 461 109 93 77 
212 942 338 97 77 62 
230 900 371 162 119 93 
152 516 371 131 139 153 
269 565 278 92 93 96 
279 713 420 128 157 187 
273 179 396 68 45 64 
264 786 331 216 156 130 
211 777 458 72 69 144 
240 687 151 100 131 168 
277 593 408 58 61 68 
244 623 183 140 142 148 
370 147 374 117 120 124 
364 160 365 48 73 93 
193 554 281 136 145 160 
337 267 429 153 147 147 
173 977 389 124 100 76 
164 284 353 136 138 144 
199 817 262 200 146 109 
261 131 469 120 93 52 
165 787 345 130 110 92 
148 984 332 143 114 90 
243 778 207 207 164 117 
189 755 234 118 100 84 
237 607 461 78 75 75 
159 463 417 80 99 138 
208 312 414 93 107 123 
141 925 401 96 78 64 
182 613 415 73 64 102 
251 65 370 111 90 69 
235 568 458 102 117 144 
286 528 269 94 108 130 
153 252 424 153 116 95 
279 699 421 135 152 174 
222 831 314 202 149 119 
277 523 391 141 150 165 
236 402 270 95 122 155 
243 445 453 126 135 152 
258 22 357 164 145 133 
251 461 451 82 98 122 
189 841 375 159 117 88 
242 751 182 137 131 128 
227 739 172 108 46 97 
281 462 237 93 121 161 
166 646 521 98 82 66 
172 592 358 72 141 190 
281 337 277 107 86 87 
326 473 374 65 81 103 
257 789 221 161 145 134 
341 441 325 128 144 168 
198 378 431 164 136 103 
154 382 422 203 170 136 
294 404 279 83 105 126 
261 290 293 113 83 69 
154 292 425 141 124 123 
298 730 281 173 146 119 
232 647 473 76 81 102 
170 689 478 97 110 127 
264 532 246 96 125 153 
294 700 203 191 98 105 
152 246 403 143 138 140 
216 951 364 96 79 67 
314 543 320 78 107 142 
295 702 174 181 198 221 
362 365 355 138 32 68 
290 252 378 93 57 42 
256 262 283 76 99 120 
214 684 268 64 107 141 
224 921 382 100 72 57 
209 475 291 101 112 126 
204 668 506 73 61 71 
366 193 415 133 57 74 
372 133 394 125 100 76 
250 650 464 118 130 148 
303 532 282 141 154 173 
279 601 425 144 105 91 
369 424 368 173 155 143 
208 712 221 134 146 163 
172 686 480 100 111 126 
203 214 336 125 127 133 
184 730 197 141 49 68 
209 885 339 103 76 57 
218 387 329 83 104 130 
246 293 280 69 101 128 
149 878 365 97 61 41 
345 338 336 117 39 59 
189 196 416 107 77 74 
335 206 434 59 52 60 
162 569 383 162 167 179 
222 726 171 160 29 39 
226 860 358 183 142 113 
274 193 398 45 41 62 
252 561 449 175 172 178 
225 750 470 171 185 206 
198 263 410 95 40 61 
319 507 371 53 70 95 
301 317 340 88 113 139 
247 601 442 52 53 65 
193 865 315 148 106 75 
284 419 414 137 147 168 
229 377 319 92 110 129 
255 290 263 171 127 81 
374 298 421 126 137 152 
177 158 413 66 45 29 
234 821 330 216 154 132 
248 64 378 103 86 72 
291 54 441 93 79 65 
162 210 427 116 107 107 
150 680 496 86 101 116 
200 238 404 32 31 31 
276 11 398 101 79 62 
283 264 363 129 88 72 
218 655 275 92 108 134 
346 406 399 94 95 141 
370 196 408 130 33 59 
255 224 350 90 39 32 
129 929 364 113 95 79 
299 650 177 81 95 111 
226 587 240 116 90 94 
308 689 322 95 81 72 
237 220 293 121 130 143 
309 710 293 144 116 85 
248 70 376 97 78 63 
258 463 223 125 139 168 
290 750 331 171 155 143 
210 670 238 79 107 138 
319 164 360 116 98 84 
369 145 391 136 70 39 
332 454 317 127 139 158 
180 713 432 106 122 140 
187 700 433 116 133 154 
302 664 221 156 175 200 
184 326 421 157 155 160 
131 976 333 179 147 119 
245 236 324 109 102 101 
167 571 367 184 169 161 
199 228 336 109 124 144 
179 311 421 98 66 79 
136 691 523 133 157 189 
248 74 371 101 82 64 
175 688 363 133 148 167 
272 322 296 133 105 78 
222 316 334 98 95 99 
189 875 317 102 71 52 
229 534 255 149 151 159 
319 365 337 88 93 100 
216 657 251 151 150 161 
155 960 404 77 66 58 
222 557 464 152 155 165 
267 729 423 98 116 158 
248 76 368 104 84 65 
157 939 420 192 148 126 
331 123 382 117 98 83 
240 80 358 118 96 74 
147 508 399 15 62 120 
171 587 411 211 198 195 
297 389 256 90 115 139 
366 319 420 85 113 141 
184 430 334 85 112 146 
182 604 410 100 118 160 
203 668 507 85 64 63 
199 349 342 76 103 130 
299 672 164 64 103 138 
275 752 359 213 165 102 
187 496 455 78 109 146 
218 631 282 131 132 139 
209 867 330 171 127 94 
302 619 348 160 107 99 
218 490 266 75 100 125 
216 775 205 202 177 152 
291 583 273 115 101 91 
306 386 304 57 84 107 
316 134 372 127 124 122 
216 450 318 60 82 103 
148 326 417 97 132 163 
320 199 357 84 97 111 
285 659 404 93 115 155 
239 689 497 160 168 183 
209 714 255 119 125 135 
145 986 365 127 100 78 
173 701 532 97 125 179 
168 517 337 89 111 134 
224 448 294 120 124 133 
269 769 354 131 134 143 
179 709 522 167 174 215 
227 202 314 113 109 111 
193 693 412 127 137 154 
272 251 431 148 134 124 
158 417 397 83 106 136 
256 495 457 176 178 188 
243 83 364 105 88 69 
155 459 360 91 115 146 
150 745 464 155 170 194 
251 705 473 124 150 182 
345 446 337 120 141 164 
240 85 361 103 86 67 
221 872 370 173 134 100 
252 281 268 138 133 131 
304 132 375 121 79 33 
187 718 203 139 142 151 
354 298 423 106 68 82 
226 434 308 110 114 123 
240 86 361 102 85 68 
185 640 518 109 89 67 
210 423 446 169 143 115 
326 469 313 100 120 142 
208 707 176 147 162 183 
317 639 223 109 122 137 
325 126 404 84 74 65 
241 87 362 101 85 68 
179 657 481 85 109 141 
214 647 244 126 142 162 
276 733 410 62 81 157 
300 554 301 90 111 143 
194 968 388 112 84 68 
167 789 336 152 129 106 
273 21 397 143 104 80 
177 706 339 144 149 160 
185 814 274 192 139 105 
300 706 336 109 91 75 
308 662 332 175 130 78 
238 226 432 118 84 92 
173 780 311 96 82 71 
336 222 433 101 101 109 
291 666 232 157 178 202 
215 841 315 187 137 103 
280 743 364 139 135 136 
169 586 398 150 166 187 
299 558 293 131 150 174 
269 505 397 118 132 151 
305 592 290 138 110 88 
142 241 421 90 80 107 
259 411 450 101 92 99 
258 273 266 101 114 127 
281 425 412 149 155 167 
187 594 301 124 146 171 
281 618 415 164 112 114 
160 555 417 204 190 185 
285 638 191 99 89 80 
174 859 400 124 100 74 
151 149 403 104 100 98 
167 363 415 116 110 110 
173 381 341 99 119 152 
240 410 271 98 120 158 
292 614 223 111 99 89 
168 540 438 154 156 166 
155 289 414 107 59 49 
254 800 316 220 164 136 
237 637 466 133 90 77 
179 603 380 144 155 172 
251 695 481 68 92 165 
276 248 371 122 48 35 
294 193 450 120 44 44 
186 919 313 62 50 39 
292 162 383 91 42 13 
327 509 324 149 160 177 
201 732 493 101 124 191 
278 737 221 108 122 138 
233 331 310 82 98 119 
237 278 413 68 102 130 
244 84 367 102 85 68 
318 643 239 29 57 118 
158 434 430 143 125 110 
250 234 292 125 129 137 
122 956 338 134 110 90 
209 235 332 161 157 161 
144 686 493 110 117 126 
222 210 400 114 57 65 
235 798 382 144 146 155 
159 793 367 154 135 121 
243 316 288 132 133 139 
222 921 395 200 146 118 
341 443 325 136 149 168 
298 30 460 145 132 125 
224 528 259 148 150 158 
275 185 397 36 48 74 
257 416 229 128 137 152 
186 735 271 95 82 69 
267 550 443 142 161 185 
189 645 304 165 163 169 
332 491 324 167 170 181 
217 948 347 102 79 55 
219 286 407 72 101 125 
187 586 436 119 139 165 
219 440 318 117 119 126 
267 372 432 127 113 105 
154 990 363 129 98 71 
314 637 303 67 64 90 
240 91 366 101 86 72 
200 617 431 64 102 131 
185 927 314 77 57 36 
241 90 367 102 87 74 
161 805 383 151 129 110 
362 309 357 137 45 63 
146 519 400 66 90 137 
261 409 445 64 88 114 
308 454 282 136 142 152 
266 522 256 96 114 138 
215 788 227 188 169 157 
339 423 320 142 133 128 
288 722 201 172 75 54 
229 431 300 95 107 122 
201 563 278 100 147 188 
235 432 286 113 117 125 
237 185 446 111 40 61 
178 540 308 143 154 172 
165 432 380 92 110 138 
248 329 273 86 100 115 
369 179 369 142 64 50 
247 622 473 180 126 112 
146 663 497 98 122 161 
314 470 290 101 118 141 
135 902 358 72 61 51 
242 83 374 90 72 55 
167 973 396 110 90 74 
201 693 279 110 117 127 
251 803 304 219 160 131 
230 172 418 116 76 73 
296 295 422 115 136 159 
327 466 372 72 85 103 
314 477 370 96 112 141 
167 418 362 123 134 148 
252 351 444 180 152 124 
281 41 472 150 137 131 
235 224 446 56 99 130 
159 405 398 50 82 128 
229 677 156 109 118 130 
164 574 396 229 207 192 
216 354 336 72 107 137 
319 242 360 124 111 105 
262 766 385 182 155 130 
268 657 450 96 122 152 
237 406 293 69 98 125 
264 26 363 162 143 132 
150 144 432 136 124 113 
268 446 415 156 158 166 
202 573 455 95 108 137 
366 388 402 196 82 12 
159 748 372 161 23 55 
308 686 268 163 85 89 
153 304 424 155 160 172 
172 161 432 76 65 54 
233 581 453 53 88 141 
276 477 391 81 101 150 
173 297 422 83 129 166 
265 675 458 59 92 153 
231 394 312 131 134 143 
215 393 437 135 29 57 
160 758 424 118 144 170 
193 816 413 195 157 114 
142 957 382 107 85 66 
322 531 354 114 137 168 
176 860 387 103 83 61 
160 469 385 65 91 127 
319 232 443 83 114 139 
166 737 416 97 114 147 
281 533 268 106 122 141 
242 84 374 89 72 56 
195 681 293 73 113 143 
218 859 407 134 108 79 
316 209 359 65 88 111 
178 721 318 129 143 161 
313 395 305 71 93 114 
237 225 413 83 76 88 
184 765 234 127 128 134 
250 484 460 127 139 157 
257 649 148 85 109 136 
300 128 380 121 78 19 
215 136 391 73 65 57 
254 486 464 162 169 183 
384 354 385 179 150 116 
194 884 428 136 93 78 
261 397 233 82 108 132 
281 362 242 106 123 142 
291 548 387 100 120 149 
201 935 321 92 71 58 
376 287 414 145 144 149 
152 490 406 96 110 130 
208 323 341 156 111 53 
250 234 307 70 100 125 
193 663 388 73 90 145 
234 791 391 206 183 166 
188 617 367 157 154 160 
181 706 439 52 84 126 
228 257 311 141 148 160 
259 342 249 66 107 141 
159 324 378 111 116 126 
167 867 405 148 115 84 
156 888 408 152 115 87 
300 101 457 120 97 73 
244 81 374 93 75 57 
326 511 324 150 160 177 
191 491 312 85 94 105 
169 895 314 66 54 45 
179 949 324 129 98 69 
275 775 320 215 159 127 
233 819 295 208 150 118 
281 25 466 75 72 70 
273 396 431 55 75 93 
242 463 256 106 118 134 
286 21 461 60 56 54 
327 223 437 120 37 67 
180 442 336 101 121 148 
266 488 416 119 131 149 
270 313 425 72 108 137 
140 692 530 103 130 180 
314 206 359 104 83 75 
307 341 427 137 147 163 
284 291 336 86 115 143 
181 774 242 137 117 99 
217 439 321 123 124 130 
273 470 395 125 131 150 
167 974 314 171 134 89 
240 85 376 86 70 52 
170 250 425 126 90 96 
331 429 315 104 119 139 
308 333 342 129 127 130 
214 943 400 152 116 92 
313 334 347 116 117 120 
319 509 315 131 141 157 
206 956 398 151 117 96 
230 383 431 148 125 100 
207 723 229 89 71 99 
184 745 194 139 19 42 
186 264 342 114 135 158 
309 346 332 132 132 137 
257 190 456 129 74 62 
187 639 315 157 158 165 
300 11 462 113 100 91 
217 253 327 87 130 164 
266 782 234 174 164 160 
318 532 321 145 152 166 
302 18 447 122 103 86 
240 91 371 86 71 54 
275 350 428 119 133 151 
261 106 471 138 112 88 
240 88 373 86 70 53 
160 290 424 83 125 158 
182 608 368 124 151 180 
213 337 339 132 138 150 
279 276 344 123 125 132 
274 556 425 160 156 158 
349 400 337 159 70 6 
144 172 427 148 108 60 
300 373 432 80 113 143 
240 420 264 114 128 155 
326 227 438 113 92 93 
275 22 394 123 85 65 
165 422 367 113 128 147 
175 776 294 168 140 113 
187 632 310 125 87 100 
321 446 380 142 148 159 
175 799 432 170 111 84 
213 621 491 106 89 74 
186 157 400 74 63 54 
364 274 423 156 159 168 
312 560 321 127 141 161 
300 686 258 125 87 105 
300 626 328 114 107 105 
224 109 333 108 96 86 
307 686 184 154 178 205 
137 980 366 187 160 135 
272 194 448 44 56 79 
252 612 203 125 142 161 
224 110 332 109 93 78 
180 790 457 161 42 59 
364 394 393 163 103 61 
264 274 332 94 99 107 
300 364 430 84 112 140 
262 474 225 172 171 177 
152 147 389 62 46 40 
256 811 252 211 157 123 
184 769 225 143 124 107 
323 172 429 61 57 63 
166 382 356 64 104 139 
224 97 345 103 83 60 
214 656 248 144 141 150 
310 634 339 55 55 77 
199 624 442 26 38 67 
317 636 293 47 96 163 
236 781 210 224 192 155 
256 467 459 96 120 155 
241 908 378 144 111 83 
341 246 350 115 33 42 
225 98 346 105 86 63 
283 474 383 109 120 159 
230 658 166 67 95 119 
252 231 439 149 60 90 
133 919 344 94 76 55 
264 465 446 115 137 184 
200 687 212 96 124 155 
132 921 383 67 56 49 
286 659 156 102 90 79 
188 142 386 82 58 45 
226 99 346 103 84 63 
264 52 464 159 145 140 
264 421 441 65 81 99 
360 370 411 186 86 36 
265 573 442 146 154 169 
294 705 382 91 122 148 
253 801 308 222 162 135 
183 692 387 107 124 153 
197 513 460 119 138 164 
224 100 345 100 81 59 
263 129 443 96 75 52 
205 652 513 156 108 82 
258 293 441 80 127 162 
260 288 307 114 119 128 
176 735 324 137 25 37 
189 636 463 87 103 119 
145 208 400 108 27 74 
350 367 340 129 129 135 
287 754 296 214 170 134 
261 41 442 88 75 60 
195 815 264 193 140 107 
213 715 174 146 160 180 
225 102 347 97 80 61 
162 463 436 92 111 146 
226 100 346 101 83 62 
301 430 279 97 108 123 
275 121 416 93 76 58 
232 769 439 203 171 133 
178 149 399 77 60 52 
258 53 435 105 87 69 
168 484 443 97 115 139 
279 716 236 144 143 147 
293 57 444 88 76 64 
277 13 386 124 100 87 
287 236 441 142 142 149 
317 629 254 51 78 102 
166 939 321 125 100 77 
161 764 461 159 177 203 
262 454 430 185 185 192 
228 97 348 103 83 61 
284 683 235 125 152 176 
165 576 405 114 133 176 
160 388 386 98 113 138 
302 702 326 76 64 51 
203 405 330 73 98 129 
228 99 348 104 84 62 
216 784 219 245 190 115 
315 422 296 67 96 123 
312 625 255 35 57 86 
333 495 330 185 186 197 
153 371 418 202 170 138 
181 796 449 182 27 56 
340 235 430 77 73 85 
189 513 289 100 117 138 
243 445 247 93 114 155 
360 272 348 73 117 151 
318 645 241 115 147 179 
257 680 474 59 91 156 
216 288 336 121 135 154 
213 869 420 159 118 99 
190 331 422 131 141 155 
225 729 170 96 95 120 
324 138 422 102 92 83 
287 711 218 159 111 67 
265 82 430 79 63 47 
272 304 323 93 97 105 
206 315 341 163 126 80 
186 754 251 105 93 84 
216 317 413 78 100 122 
277 342 290 126 104 83 
286 278 425 81 128 164 
253 153 452 32 64 104 
152 651 514 99 84 70 
185 354 422 142 22 65 
278 744 221 158 137 118 
191 881 315 91 69 52 
270 365 240 90 110 130 
282 502 377 80 95 131 
285 684 413 130 151 176 
240 627 477 164 115 94 
170 855 360 152 118 84 
334 218 357 98 99 105 
325 388 335 70 68 68 
180 811 282 189 139 108 
311 340 342 131 130 133 
181 977 374 82 58 52 
355 411 347 164 74 7 
373 318 368 175 152 131 
251 434 226 137 145 159 
175 573 339 114 129 146 
256 764 197 205 188 181 
334 347 331 110 34 27 
301 538 280 165 169 181 
367 199 379 97 27 41 
162 314 363 168 121 65 
225 786 412 188 170 159 
316 648 243 70 124 212 
312 207 359 104 72 60 
210 478 280 94 116 138 
224 104 343 85 71 56 
349 126 402 87 80 75 
309 649 325 168 131 83 
191 598 433 117 129 160 
296 6 452 108 96 87 
207 673 210 93 101 112 
210 958 352 95 75 62 
245 474 223 135 149 174 
155 990 363 133 103 76 
299 151 457 67 44 38 
219 685 257 73 122 158 
230 779 209 229 190 137 
156 754 450 137 142 177 
303 463 258 169 171 181 
216 899 346 83 65 52 
302 517 286 67 93 124 
160 392 388 148 150 157 
296 295 353 98 119 141 
319 251 443 153 148 150 
299 88 458 107 88 67 
150 156 399 102 51 34 
227 217 315 134 85 60 
181 702 446 63 83 106 
369 218 376 41 74 103 
173 818 391 183 155 128 
161 388 425 191 161 130 
215 835 365 176 130 103 
270 697 432 148 163 183 
253 553 447 107 127 149 
272 503 419 102 121 149 
309 219 367 75 51 41 
258 259 272 129 137 147 
167 856 352 146 114 83 
227 352 326 51 92 124 
266 597 433 38 46 54 
307 512 294 115 127 145 
255 413 451 121 96 89 
310 658 227 141 175 210 
295 692 208 151 178 206 
176 817 397 116 91 75 
291 131 379 128 69 4 
250 706 475 93 133 177 
148 970 315 88 55 39 
231 548 466 170 175 187 
288 416 442 172 174 186 
264 349 432 128 92 80 
303 621 359 57 88 110 
248 416 446 124 109 96 
343 486 356 127 147 188 
260 600 277 63 70 79 
146 512 406 116 128 151 
194 635 297 142 141 147 
204 366 339 80 104 131 
190 632 378 145 133 135 
228 908 381 151 109 82 
171 820 331 167 128 97 
187 689 392 138 142 153 
292 549 385 147 152 165 
241 456 233 101 121 158 
274 731 178 203 34 79 
249 297 446 71 115 151 
319 550 359 91 122 158 
320 237 442 81 115 143 
152 542 406 88 120 159 
264 280 275 106 72 56 
274 717 167 177 205 231 
252 204 361 64 43 64 
379 288 378 122 61 67 
174 724 427 84 103 133 
183 155 400 58 55 53 
264 75 454 86 74 64 
307 668 333 166 116 57 
304 689 264 174 80 89 
254 374 446 162 121 87 
162 783 416 139 132 140 
193 235 410 129 56 61 
158 777 373 106 90 120 
205 806 436 173 136 122 
158 468 377 126 136 151 
210 739 484 125 139 194 
160 359 394 102 117 138 
191 397 430 165 138 110 
136 899 382 80 64 52 
221 750 177 172 13 39 
280 757 281 118 87 67 
370 381 390 204 163 115 
271 573 423 97 87 102 
331 430 315 95 114 138 
184 711 422 113 124 141 
243 633 456 99 72 74 
269 316 426 82 91 103 
249 576 449 53 65 84 
359 165 363 68 94 116 
158 133 415 110 96 83 
175 682 483 57 85 117 
263 50 431 109 92 75 
164 548 352 140 154 175 
278 605 430 151 97 91 
165 423 375 79 102 137 
269 471 236 148 158 186 
297 192 451 114 55 62 
245 216 299 93 96 101 
283 742 379 113 133 156 
202 722 259 70 66 85 
188 758 236 127 98 65 
281 290 336 90 115 144 
248 509 222 129 145 179 
164 342 356 138 67 84 
278 527 264 107 122 141 
229 104 350 104 83 61 
210 693 172 68 107 140 
277 223 386 65 47 65 
214 867 419 169 123 103 
290 460 244 83 110 159 
230 361 319 100 116 135 
266 248 431 164 74 4 
251 664 147 88 106 127 
248 907 385 164 126 90 
229 106 350 100 81 61 
227 589 265 86 114 139 
264 614 449 170 126 111 
159 797 369 76 68 62 
143 711 513 132 144 198 
167 717 379 76 100 137 
200 669 511 117 78 68 
367 192 373 98 36 49 
295 658 250 116 147 177 
228 109 349 85 71 57 
269 605 441 144 110 94 
199 712 190 130 133 140 
232 529 463 110 126 154 
260 376 447 152 109 73 
341 427 396 54 85 151 
211 532 464 75 96 144 
274 308 267 100 99 104 
296 6 455 105 94 85 
250 804 233 233 167 130 
278 641 419 94 107 123 
145 918 329 88 70 55 
312 226 448 96 86 96 
341 473 379 115 142 189 
265 773 266 150 101 64 
232 96 351 104 85 64 
366 209 367 51 45 54 
161 448 350 160 159 167 
299 35 443 143 134 131 
179 571 321 109 118 134 
168 367 423 143 29 68 
166 706 461 65 95 120 
232 611 470 85 77 70 
161 369 397 117 122 139 
271 539 436 101 121 156 
135 665 508 93 114 135 
312 625 249 35 41 77 
185 319 343 132 35 61 
295 384 253 68 105 139 
285 9 451 100 91 86 
162 774 451 172 182 199 
242 759 418 82 55 50 
164 977 378 78 54 35 
224 118 325 126 65 11 
247 255 312 72 98 120 
214 529 270 151 150 156 
175 257 343 96 119 144 
225 118 326 113 67 4 
161 766 460 146 153 192 
226 246 311 120 138 159 
180 533 305 110 124 143 
283 362 290 106 115 127 
185 748 262 104 96 91 
333 254 354 105 44 56 
182 593 325 160 163 174 
145 733 482 78 106 180 
322 187 439 86 37 35 
182 510 311 50 74 101 
301 341 323 121 121 126 
234 304 309 131 135 143 
169 861 368 140 113 84 
275 233 436 123 135 151 
249 529 224 100 122 162 
211 900 330 91 75 63 
218 659 193 40 69 119 
194 349 342 75 102 130 
310 212 360 101 68 63 
188 623 422 52 90 173 
224 829 313 207 154 123 
156 522 432 108 115 149 
270 291 270 102 87 85 
158 647 513 100 85 70 
156 290 376 81 112 140 
135 681 528 129 136 172 
237 590 447 103 121 144 
223 730 172 144 29 42 
228 290 322 150 149 154 
272 387 236 140 147 158 
254 646 153 103 116 132 
195 628 471 57 63 72 
296 627 306 76 70 69 
297 292 358 93 114 135 
282 697 245 88 33 76 
279 686 144 198 205 238 
187 733 499 192 190 196 
198 478 313 108 110 115 
148 882 357 96 59 43 
259 603 452 122 103 86 
288 618 398 114 93 91 
288 691 253 168 140 104 
215 724 490 147 158 196 
238 660 482 86 101 120 
315 278 437 170 163 164 
246 819 263 231 170 140 
212 577 460 66 106 140 
196 766 197 188 164 139 
274 703 426 121 146 172 
263 337 433 127 134 146 
229 705 159 144 159 193 
226 116 329 117 63 12 
226 117 328 119 64 25 
226 117 329 117 62 15 
256 214 360 62 44 62 
145 986 350 168 136 106 
280 156 462 151 38 20 
199 650 519 140 103 72 
278 285 423 72 100 123 
256 456 451 87 105 129 
304 228 449 88 121 146 
256 565 266 61 78 94 
263 789 325 214 157 129 
277 80 465 107 94 83 
351 433 373 134 160 198 
242 433 230 125 138 155 
160 358 385 111 127 146 
266 652 142 114 124 138 
167 577 376 199 180 168 
237 180 446 71 50 61 
180 708 326 126 140 158 
224 668 491 111 113 119 
243 661 481 92 107 129 
276 312 261 111 51 56 
356 435 356 113 101 89 
175 598 375 185 185 194 
265 779 258 168 121 93 
158 778 389 148 116 70 
191 840 376 161 118 90 
361 349 354 155 134 114 
295 376 261 84 112 139 
157 400 419 95 84 73 
259 124 469 104 94 85 
382 369 392 199 168 136 
227 119 333 111 62 6 
331 124 379 134 112 92 
230 893 394 167 118 92 
316 134 373 126 121 119 
226 119 335 110 59 6 
367 250 421 112 93 90 
213 534 270 158 155 160 
224 120 323 120 81 50 
136 890 358 106 86 67 
160 452 415 68 88 140 
200 833 287 235 164 122 
165 794 418 145 53 76 
224 122 322 110 106 104 
371 210 412 143 87 69 
231 274 410 68 101 128 
280 671 417 106 127 175 
248 328 272 94 108 125 
197 626 498 92 79 67 
213 913 414 167 128 114 
175 836 367 172 125 93 
298 675 370 112 96 104 
207 811 250 200 141 107 
264 193 451 65 62 90 
162 448 391 61 92 139 
160 909 424 127 100 85 
232 497 253 65 98 131 
187 640 306 161 162 171 
181 348 422 168 132 105 
183 631 495 86 77 70 
319 675 296 166 93 103 
175 339 344 105 124 145 
274 473 393 142 148 160 
231 217 303 116 126 141 
313 536 316 114 131 158 
209 856 400 112 87 58 
255 445 450 82 96 114 
255 716 162 184 190 206 
163 566 410 215 205 204 
154 184 429 154 69 35 
271 571 422 94 77 96 
256 574 247 115 117 125 
289 351 425 154 155 163 
218 643 248 111 133 157 
241 239 416 123 52 75 
269 38 433 96 82 69 
252 793 354 217 154 133 
194 712 280 130 27 43 
191 326 342 127 46 62 
320 656 303 92 106 123 
211 658 215 114 119 129 
273 615 434 174 120 111 
326 513 324 175 180 193 
226 781 429 194 174 158 
151 656 492 109 121 148 
292 408 422 155 161 174 
169 671 494 74 84 96 
275 678 437 180 181 191 
270 200 397 88 38 45 
262 245 345 85 90 106 
268 504 243 56 93 131 
318 363 414 69 103 149 
239 429 245 137 147 163 
279 253 375 107 72 66 
252 590 443 122 144 167 
305 302 356 128 128 133 
224 483 456 113 127 146 
279 102 428 81 66 51 
315 674 316 168 101 61 
316 510 315 124 134 149 
352 451 362 88 120 178 
217 708 498 151 159 184 
214 457 311 114 115 120 
228 124 325 104 103 103 
156 236 425 101 122 142 
151 334 425 85 127 164 
277 724 172 151 112 116 
210 637 288 76 95 122 
263 350 244 78 106 131 
215 780 453 137 22 44 
291 391 275 97 115 134 
241 296 289 116 128 146 
172 303 348 143 35 67 
243 529 233 100 124 148 
261 696 149 142 160 222 
320 536 326 157 174 197 
196 385 432 143 34 73 
226 798 392 122 123 128 
278 751 240 142 111 101 
277 546 397 117 132 151 
317 508 369 99 107 120 
305 129 453 125 99 60 
280 460 392 129 136 157 
344 166 429 120 60 76 
258 792 269 195 144 110 
294 646 190 99 91 84 
295 684 158 78 105 155 
256 221 440 134 61 84 
273 473 237 115 138 188 
281 642 414 84 100 121 
252 800 291 217 160 125 
158 882 402 143 109 78 
227 121 334 109 59 10 
298 189 378 34 46 57 
317 466 373 105 118 142 
280 390 433 37 73 100 
255 575 236 76 97 117 
218 650 253 140 151 167 
221 941 386 112 89 71 
228 722 168 162 182 207 
186 603 423 125 130 156 
170 761 336 107 87 72 
