ply
format ascii 1.0
comment Created by CloudCompare v2.11.1 (Anoia)
comment Created 2/28/22 9:39 PM
obj_info Generated by CloudCompare!
element vertex 2006
property float x
property float y
property float z
property uchar red
property uchar green
property uchar blue
end_header
192 948 417 202 149 124 
365 416 366 176 78 107 
285 634 385 69 55 53 
316 499 286 123 134 171 
362 300 408 131 19 47 
187 973 341 127 106 82 
359 448 352 92 128 185 
242 765 416 118 109 150 
206 164 410 91 78 65 
194 493 283 76 97 120 
162 773 370 98 115 130 
191 631 357 57 102 136 
326 48 391 141 119 104 
230 412 436 174 148 120 
165 347 385 165 128 90 
255 14 403 118 105 97 
204 686 185 109 112 136 
307 660 271 90 127 158 
167 333 352 154 79 101 
178 607 379 160 168 184 
192 722 511 160 172 197 
273 709 190 122 56 101 
183 781 459 177 194 217 
254 538 254 97 117 139 
322 159 340 137 63 0 
241 30 390 119 89 72 
206 643 231 146 151 163 
362 345 335 162 139 116 
147 238 430 80 40 46 
233 779 427 95 89 89 
294 688 249 170 79 74 
242 30 390 120 90 72 
294 218 383 91 37 27 
283 696 235 99 40 58 
278 456 242 86 112 180 
251 733 457 155 175 201 
344 473 362 146 159 181 
304 655 220 121 160 223 
219 380 433 162 141 118 
295 114 447 88 75 62 
386 162 383 92 73 68 
168 265 433 150 53 85 
270 595 420 41 59 76 
178 815 396 178 151 124 
217 599 236 138 140 151 
304 57 391 116 89 62 
296 714 333 114 103 102 
204 889 322 96 73 59 
183 663 360 146 139 138 
188 228 420 118 40 62 
239 916 375 142 109 82 
269 724 418 137 156 179 
275 535 265 90 107 126 
206 276 337 138 145 160 
175 711 340 78 108 135 
336 254 425 155 153 158 
161 874 382 112 90 65 
378 172 362 73 76 83 
264 769 264 158 115 80 
202 688 408 165 164 172 
259 444 239 79 103 127 
144 228 433 147 54 75 
253 593 244 76 79 86 
240 543 461 134 149 172 
260 715 438 149 171 197 
260 447 229 168 174 192 
140 929 396 84 67 56 
260 715 452 170 182 201 
347 331 323 140 133 129 
270 168 402 141 45 5 
268 781 320 217 159 131 
241 26 396 154 134 128 
317 393 431 56 89 151 
269 12 370 153 132 121 
266 257 326 76 83 98 
318 483 356 53 75 114 
159 664 502 105 126 174 
158 518 434 136 138 148 
174 414 358 97 118 145 
306 588 360 96 126 155 
206 662 182 49 70 100 
149 945 404 109 86 71 
295 676 245 173 37 77 
188 641 514 102 86 70 
215 912 335 83 68 60 
244 803 228 222 158 121 
293 354 267 95 110 127 
226 418 305 106 112 123 
201 683 403 148 154 168 
210 462 291 102 111 122 
222 643 269 85 107 133 
314 466 268 154 158 170 
178 646 501 96 83 71 
267 602 442 120 101 83 
204 918 421 136 104 77 
259 770 382 168 143 122 
271 269 281 102 110 121 
260 522 435 126 132 149 
242 28 394 138 117 109 
288 424 240 86 115 145 
268 307 290 100 102 106 
168 975 387 83 59 39 
202 228 410 135 30 67 
300 156 368 82 72 61 
246 27 394 147 124 122 
164 886 321 83 68 55 
218 831 299 218 165 133 
308 502 270 123 135 159 
308 711 307 153 146 145 
205 644 224 113 107 114 
388 343 399 159 26 76 
318 412 410 171 172 181 
275 564 405 75 90 115 
288 105 414 83 70 58 
324 325 340 88 101 116 
167 454 341 124 130 144 
244 26 398 132 114 118 
257 228 293 89 73 74 
157 474 366 137 144 157 
239 554 229 86 111 136 
200 742 203 142 62 63 
294 389 283 60 87 110 
196 687 280 109 128 149 
277 131 449 108 80 32 
294 630 202 110 120 133 
203 759 480 110 128 191 
290 278 428 109 120 134 
234 534 460 91 112 152 
167 128 393 111 90 75 
167 529 324 124 129 145 
170 242 420 56 42 78 
247 26 399 146 132 128 
302 684 338 109 84 60 
314 125 446 131 63 0 
319 273 353 100 100 104 
240 808 280 232 178 144 
364 335 337 165 141 115 
341 496 338 95 125 186 
172 413 365 91 109 129 
368 360 341 132 32 64 
225 689 511 140 150 178 
252 515 231 150 153 164 
375 230 348 94 77 80 
145 897 387 74 60 46 
164 762 389 154 9 36 
191 603 296 130 140 157 
232 727 160 181 207 228 
301 436 396 106 119 166 
305 39 396 105 89 73 
314 199 353 75 67 70 
293 288 421 123 137 156 
290 621 391 146 96 82 
250 31 387 109 82 65 
225 620 194 69 109 141 
369 417 363 125 108 88 
189 737 180 125 97 99 
277 302 440 80 125 161 
175 146 417 128 62 15 
176 425 330 68 101 135 
224 728 497 208 205 213 
248 29 391 148 132 127 
178 708 308 139 149 164 
210 631 458 63 84 107 
311 571 345 96 126 191 
198 675 473 104 117 132 
179 701 307 130 145 163 
149 198 449 45 92 124 
280 704 206 122 38 57 
312 559 321 56 111 168 
287 133 386 79 68 59 
394 354 369 167 134 99 
314 642 339 98 67 33 
254 792 257 186 140 103 
173 137 385 130 127 129 
314 639 265 125 149 178 
329 394 395 116 138 161 
224 931 382 96 70 53 
329 369 416 75 126 163 
247 747 428 95 63 92 
243 294 318 153 151 156 
270 13 404 113 85 67 
262 150 440 115 69 34 
243 307 412 110 113 120 
315 378 429 66 107 139 
353 443 370 117 141 186 
313 499 302 93 108 130 
245 461 245 124 131 141 
220 859 395 116 92 65 
179 700 467 84 98 114 
392 258 399 75 108 136 
172 761 302 105 104 111 
315 548 353 85 112 154 
314 479 272 91 120 152 
265 323 432 145 146 154 
238 758 455 172 105 107 
300 83 399 76 62 46 
154 551 374 213 206 207 
316 499 354 70 84 113 
395 353 375 157 23 56 
280 742 389 122 48 89 
206 634 423 126 147 178 
336 495 357 157 167 185 
170 752 332 136 117 99 
164 223 438 129 99 118 
249 258 299 86 128 163 
380 160 395 52 83 106 
213 249 331 93 126 155 
190 901 302 55 45 37 
164 252 436 131 71 89 
272 533 406 114 135 161 
307 477 262 115 133 158 
254 29 388 147 129 125 
310 704 299 128 109 121 
304 406 436 35 71 136 
376 206 396 94 72 81 
226 581 243 76 116 149 
347 124 404 114 102 90 
254 28 391 138 115 115 
174 755 270 69 63 62 
283 692 210 109 95 103 
351 132 353 122 112 104 
256 654 147 89 79 71 
267 149 445 104 91 82 
258 494 236 132 144 162 
387 210 359 57 62 73 
173 864 371 128 103 78 
176 440 434 132 121 113 
286 330 272 106 78 83 
397 309 371 143 26 69 
186 476 330 75 89 105 
223 922 393 203 150 120 
189 755 194 80 61 50 
371 397 377 158 137 122 
202 440 445 159 68 8 
248 26 397 118 107 107 
173 145 400 117 77 62 
291 356 309 92 102 114 
239 614 472 104 90 77 
264 781 289 197 142 108 
316 548 340 91 111 149 
342 230 425 75 108 136 
289 301 336 115 129 146 
204 357 421 152 132 110 
224 707 504 147 156 186 
294 368 274 67 93 116 
267 730 182 192 100 93 
247 350 304 107 119 135 
222 938 385 92 68 56 
211 635 196 67 86 105 
175 289 427 78 120 155 
167 353 364 170 124 71 
229 616 174 128 139 153 
339 469 377 113 138 184 
324 311 342 78 79 88 
219 369 430 171 149 127 
184 619 389 91 123 159 
331 486 327 123 134 150 
167 505 337 115 123 135 
378 266 342 131 132 137 
266 16 362 158 138 126 
220 293 333 116 131 149 
317 516 307 107 122 143 
274 262 439 98 117 138 
226 865 390 122 97 69 
242 574 238 77 94 110 
171 545 307 108 119 135 
160 479 388 104 117 135 
166 737 362 135 23 38 
376 385 396 196 76 8 
263 574 438 134 136 145 
161 481 427 135 142 154 
246 645 140 79 109 135 
157 716 508 94 119 194 
265 566 275 86 89 94 
310 40 387 171 145 131 
298 684 368 109 131 155 
281 518 262 110 119 132 
313 81 433 100 87 76 
291 629 373 177 163 155 
275 619 431 172 125 112 
391 327 360 168 145 121 
208 645 428 85 114 167 
279 501 392 106 122 153 
313 198 355 73 67 70 
159 173 436 97 93 91 
143 163 447 129 109 93 
297 456 251 169 168 174 
197 382 322 68 93 118 
222 652 265 109 123 146 
305 646 212 146 161 197 
220 928 394 187 142 115 
166 454 374 114 126 146 
254 27 396 112 98 91 
144 984 343 169 143 124 
229 602 253 79 104 127 
161 332 417 78 82 108 
225 886 408 173 133 104 
190 574 287 81 132 170 
374 149 397 149 65 5 
370 407 346 184 56 10 
258 620 467 179 128 115 
273 555 423 131 142 160 
201 381 425 128 42 56 
387 321 353 187 160 132 
242 700 503 129 137 171 
188 560 292 160 146 140 
178 645 508 98 84 70 
127 977 344 134 106 85 
289 72 406 91 79 65 
316 659 305 152 142 135 
240 18 402 121 111 105 
388 171 384 49 72 91 
373 386 344 190 163 137 
203 336 419 165 150 138 
395 316 367 160 140 117 
160 435 394 77 102 139 
256 175 382 110 87 72 
266 749 398 121 112 117 
169 135 408 126 83 45 
132 939 359 76 61 52 
336 165 340 106 74 76 
269 534 414 181 170 166 
151 548 383 184 177 176 
214 807 398 131 107 88 
236 372 426 136 31 68 
303 267 349 119 70 36 
306 522 275 100 119 146 
213 646 234 143 150 165 
182 647 487 31 72 99 
301 394 271 90 107 124 
206 284 337 119 132 149 
279 154 451 67 66 98 
221 830 305 208 154 123 
285 611 257 116 78 60 
327 24 403 124 109 95 
280 124 447 101 93 86 
307 627 251 104 118 135 
211 589 451 111 125 158 
249 460 447 93 108 138 
180 711 453 82 96 112 
207 852 407 106 85 62 
321 538 341 98 124 169 
260 299 422 99 119 141 
323 486 358 56 73 107 
284 131 403 90 71 54 
302 557 360 80 102 138 
184 463 339 57 86 131 
166 809 368 179 142 100 
244 16 402 104 94 89 
152 167 408 128 39 18 
155 339 420 173 173 180 
245 17 402 111 101 96 
173 389 425 195 166 136 
299 710 329 87 85 86 
163 420 408 72 86 130 
286 121 435 88 73 66 
325 180 434 56 50 58 
226 692 147 107 145 197 
218 906 344 102 81 64 
246 17 403 120 111 106 
167 728 505 129 150 185 
161 429 427 91 85 95 
199 694 407 131 140 159 
324 226 346 116 100 100 
168 816 344 159 141 125 
151 942 407 133 105 88 
388 197 394 148 51 87 
173 819 380 170 153 141 
289 202 389 39 40 46 
219 940 344 89 71 59 
214 814 387 126 112 103 
320 258 359 104 83 66 
179 878 311 89 66 42 
262 134 432 130 114 101 
213 910 332 75 61 53 
254 611 201 79 114 143 
148 249 438 98 91 119 
246 21 403 111 100 97 
198 558 276 83 118 151 
304 410 257 73 107 140 
283 98 418 73 57 40 
151 509 422 165 160 162 
277 156 400 63 62 62 
342 33 409 164 144 138 
268 254 333 105 85 98 
193 498 456 79 110 146 
258 638 178 75 69 64 
298 545 277 145 146 155 
276 237 352 137 26 10 
316 113 438 96 87 78 
277 318 250 107 122 138 
241 692 144 143 149 191 
301 596 290 144 105 89 
319 135 345 118 76 15 
245 653 136 38 83 121 
173 406 354 80 106 139 
359 164 396 87 80 81 
214 608 234 78 93 130 
335 323 415 168 119 57 
310 666 260 117 145 172 
183 607 364 143 147 158 
189 405 323 85 102 119 
298 452 420 161 168 191 
347 13 411 121 107 96 
248 378 428 127 126 130 
202 761 184 187 179 179 
178 565 318 140 133 138 
345 474 358 155 171 196 
172 682 493 101 110 123 
283 528 265 102 119 142 
226 631 255 143 151 165 
164 222 437 130 91 109 
203 626 283 99 118 143 
157 910 318 85 67 47 
259 794 312 209 153 126 
209 752 483 139 148 199 
176 809 403 130 114 112 
312 457 266 106 126 157 
169 330 402 135 124 127 
228 568 258 74 113 143 
157 230 412 75 38 40 
397 237 385 131 6 53 
331 463 361 32 54 92 
333 107 426 115 93 70 
264 782 337 211 155 130 
256 588 282 50 69 85 
173 565 308 164 171 186 
268 695 449 63 84 138 
328 119 371 106 98 91 
198 970 361 82 61 53 
202 164 426 83 64 55 
158 954 312 119 91 53 
168 817 348 102 108 118 
288 457 246 160 162 174 
250 20 403 129 118 113 
297 209 383 69 28 34 
238 369 425 133 29 63 
331 67 422 108 88 66 
213 724 233 99 84 100 
192 856 381 95 74 46 
258 492 448 135 144 160 
211 877 422 128 73 66 
397 236 385 117 25 57 
285 330 436 161 158 162 
155 184 424 90 30 25 
268 595 429 60 88 122 
391 333 359 176 151 127 
206 294 414 82 104 126 
195 639 383 156 152 156 
167 771 343 135 120 111 
286 644 173 138 148 162 
190 693 461 59 95 124 
358 392 393 60 72 106 
298 166 441 115 47 75 
246 768 400 137 107 80 
165 291 354 130 44 54 
257 450 237 131 138 150 
290 636 378 147 92 81 
269 682 459 58 68 95 
272 481 249 162 168 185 
321 311 408 144 145 153 
152 486 376 159 158 165 
284 131 404 92 72 55 
262 252 291 101 106 115 
358 234 406 78 83 93 
297 239 367 81 74 70 
247 742 448 151 150 161 
274 522 409 138 149 170 
166 340 386 100 113 131 
253 21 403 134 122 117 
310 490 353 121 129 142 
333 340 328 133 117 102 
181 746 261 95 84 75 
135 979 361 166 142 122 
253 22 402 137 124 120 
376 326 346 174 150 127 
305 576 360 117 130 146 
229 824 253 252 181 148 
150 970 315 113 79 56 
275 613 433 169 119 106 
164 264 424 101 52 65 
244 775 202 150 133 123 
276 582 401 78 120 152 
255 22 401 143 127 123 
193 525 279 131 137 149 
227 328 417 131 52 62 
295 445 248 94 122 159 
312 691 293 182 85 25 
177 885 307 100 79 58 
302 653 206 77 65 108 
301 623 229 116 128 143 
301 120 374 100 89 79 
197 942 419 198 146 120 
165 793 347 133 112 93 
253 715 483 140 157 190 
188 273 342 155 152 155 
165 875 401 143 109 80 
333 358 321 134 117 101 
173 832 361 178 129 99 
301 604 307 134 104 84 
172 147 398 112 73 59 
160 534 351 103 116 143 
280 754 268 145 117 91 
376 158 397 99 107 116 
325 325 339 93 104 117 
391 367 375 208 173 132 
196 753 228 87 80 75 
306 155 351 118 53 7 
189 670 378 49 62 83 
224 33 390 125 92 83 
387 181 369 70 39 42 
375 228 405 138 104 84 
234 577 453 60 83 141 
296 51 412 105 86 65 
185 502 297 93 116 142 
208 164 404 102 85 67 
167 561 351 88 109 136 
225 35 390 121 92 81 
301 306 338 80 88 104 
176 722 395 125 133 150 
216 402 439 164 135 107 
299 350 416 82 90 101 
188 661 323 157 156 163 
267 768 270 157 113 80 
227 35 389 122 95 81 
351 187 414 83 39 44 
261 300 307 106 110 118 
301 715 317 159 145 137 
196 480 453 57 92 138 
253 222 334 84 36 38 
272 127 436 113 102 94 
285 242 352 141 40 29 
188 796 442 163 57 87 
308 650 270 86 126 158 
207 724 206 83 83 105 
174 820 311 181 139 109 
278 747 346 198 167 142 
181 345 345 89 107 128 
159 192 430 88 46 34 
229 790 426 124 119 127 
210 275 411 73 89 107 
317 652 294 94 77 63 
255 498 230 101 125 160 
336 381 398 95 124 153 
210 925 327 80 60 53 
163 180 431 117 32 28 
235 455 254 111 122 137 
168 654 505 91 79 69 
259 693 482 102 133 183 
362 346 405 116 105 140 
216 324 334 144 121 96 
187 402 425 162 137 111 
344 30 402 117 98 80 
168 529 318 105 122 150 
219 703 237 133 143 158 
216 565 270 89 110 134 
168 182 440 171 72 0 
185 882 306 82 64 49 
224 822 275 239 183 149 
190 544 451 81 103 150 
307 626 252 81 102 123 
284 480 382 155 160 170 
241 259 405 111 25 61 
170 337 349 153 59 85 
166 731 380 89 102 126 
286 459 405 128 130 172 
308 112 399 95 81 66 
299 568 348 122 127 139 
210 645 166 45 88 122 
172 841 339 170 130 101 
283 125 418 98 87 76 
176 790 433 182 21 48 
159 321 420 83 127 170 
194 277 415 138 84 101 
185 689 325 127 141 160 
215 255 332 91 128 160 
262 774 233 188 158 126 
260 19 358 161 142 130 
192 504 455 126 141 160 
202 482 284 77 92 107 
197 406 431 159 137 115 
165 451 419 83 106 143 
230 39 388 115 90 74 
192 616 296 157 157 165 
262 769 379 191 168 151 
228 481 453 110 135 162 
265 554 271 70 87 104 
229 32 392 124 86 77 
233 755 181 164 144 133 
168 328 395 142 140 146 
138 952 323 122 98 70 
267 500 441 145 157 184 
277 510 419 137 151 171 
233 451 446 145 126 106 
161 457 431 78 90 122 
277 570 276 90 93 99 
350 364 324 90 111 132 
214 599 445 100 137 169 
258 748 408 159 46 78 
200 774 198 235 218 207 
267 257 329 87 83 96 
155 194 406 134 55 41 
267 441 433 85 102 130 
335 507 347 165 179 199 
192 632 380 157 151 152 
192 680 533 161 113 85 
221 490 455 97 122 154 
254 285 416 119 123 132 
296 367 267 61 96 124 
268 781 310 209 153 120 
297 689 384 132 149 171 
225 45 385 116 94 76 
184 975 352 99 78 59 
203 826 265 244 174 133 
216 830 286 229 172 137 
323 457 300 110 134 162 
345 225 420 85 114 135 
224 47 385 116 94 76 
212 846 314 186 137 102 
169 955 414 92 73 63 
240 766 192 123 106 106 
204 785 220 205 189 179 
257 289 270 149 112 71 
285 739 358 128 107 95 
315 378 323 103 92 83 
211 556 459 76 94 123 
298 399 432 78 105 139 
374 244 345 85 109 132 
228 739 488 125 145 194 
371 263 340 78 91 106 
189 520 283 110 129 153 
205 222 407 117 23 54 
157 269 371 125 125 130 
153 161 410 124 37 15 
180 232 427 122 85 92 
177 603 397 104 139 190 
212 809 404 198 160 119 
206 387 317 67 96 121 
177 975 323 157 130 103 
281 223 439 51 71 102 
232 890 376 160 127 96 
390 225 356 86 77 84 
185 555 445 92 115 158 
164 804 370 129 107 86 
180 159 431 101 76 64 
217 627 241 143 140 147 
278 507 416 105 128 162 
156 973 375 128 104 81 
287 360 245 71 102 130 
186 790 449 197 18 70 
340 386 312 147 93 20 
158 959 311 115 89 56 
275 566 404 65 115 152 
331 101 404 84 71 58 
256 785 258 186 139 102 
141 167 451 123 109 97 
387 294 350 92 108 131 
219 697 510 130 141 183 
160 420 399 54 83 125 
193 160 424 57 48 39 
272 86 419 120 113 108 
202 701 268 99 109 121 
228 46 386 117 95 75 
327 234 344 123 100 76 
290 461 424 119 147 184 
155 201 431 84 65 75 
231 536 461 60 85 138 
314 685 301 195 78 16 
180 454 440 133 87 91 
296 429 439 67 96 144 
231 47 385 111 90 69 
298 557 346 102 119 140 
231 46 386 112 90 68 
333 81 424 105 87 68 
226 883 364 177 134 106 
288 670 163 83 117 149 
345 125 368 113 104 97 
343 141 413 101 110 120 
285 86 411 104 93 83 
132 983 345 185 159 139 
396 315 382 140 34 74 
272 731 413 73 87 145 
308 408 287 45 75 102 
267 182 391 97 39 34 
218 176 394 85 86 90 
225 606 237 57 119 170 
314 406 294 61 84 106 
332 486 328 83 109 138 
186 595 424 117 130 172 
253 783 373 141 138 139 
270 275 281 90 97 107 
249 414 437 121 91 66 
299 47 416 107 90 73 
395 337 383 188 159 127 
161 405 429 121 133 149 
300 611 345 136 107 95 
180 646 498 89 79 72 
347 322 409 156 117 67 
245 806 293 217 160 130 
170 767 323 122 112 107 
268 266 435 143 142 148 
176 786 440 189 13 53 
303 597 293 144 99 87 
183 799 430 146 39 65 
233 37 388 109 85 65 
266 755 391 122 107 97 
163 790 386 96 81 73 
327 355 330 127 109 91 
319 401 314 72 66 64 
354 131 356 129 114 103 
289 344 423 99 108 121 
306 394 296 71 89 107 
342 393 393 65 89 150 
329 60 399 93 78 61 
315 411 433 63 99 156 
207 699 216 127 137 154 
217 791 222 139 151 164 
191 723 266 89 44 45 
239 35 387 108 84 63 
273 148 407 180 106 84 
386 271 352 140 141 149 
247 743 444 204 96 96 
264 554 270 72 88 105 
244 889 380 158 121 91 
267 755 217 187 156 124 
318 247 425 110 131 155 
230 473 253 100 116 135 
294 619 243 46 53 66 
165 461 377 115 127 145 
288 306 430 79 123 157 
284 621 201 105 95 85 
164 740 386 146 155 170 
238 33 389 112 84 66 
300 643 361 80 131 170 
177 413 331 51 91 126 
257 605 454 92 84 79 
343 488 336 107 146 206 
381 368 348 149 3 61 
274 636 182 99 89 80 
189 639 296 96 121 153 
229 617 211 75 92 111 
172 653 521 97 82 67 
150 241 429 60 64 77 
387 344 355 175 152 131 
213 465 450 156 143 136 
273 520 428 153 152 158 
238 37 387 107 84 64 
211 704 257 108 117 129 
330 267 349 119 117 120 
245 273 408 73 99 123 
238 39 387 106 83 63 
232 148 408 104 93 84 
239 39 386 105 81 61 
272 240 347 130 44 25 
225 935 381 89 68 57 
304 594 298 145 105 91 
250 329 302 63 87 109 
219 343 422 171 149 128 
312 316 411 141 140 146 
310 416 437 101 123 154 
164 250 409 109 75 85 
215 716 501 104 131 173 
298 48 398 96 80 62 
285 183 393 104 23 20 
290 621 210 106 94 85 
222 439 444 138 82 27 
233 42 386 107 85 64 
208 156 399 85 75 68 
359 158 350 47 67 87 
216 931 335 82 66 58 
147 213 431 95 48 50 
235 40 387 105 84 64 
159 291 381 144 142 146 
200 968 356 104 82 72 
273 274 276 105 75 72 
342 308 326 110 120 134 
300 576 347 119 124 137 
207 254 334 95 132 163 
354 438 383 175 181 196 
232 44 386 112 91 69 
228 213 396 113 37 60 
253 382 253 146 153 166 
235 264 324 102 130 159 
344 280 418 110 135 162 
164 696 483 83 102 120 
322 389 423 119 139 165 
156 478 415 100 119 142 
234 44 386 105 82 61 
168 186 440 165 74 5 
162 318 419 95 108 125 
395 278 396 87 83 90 
224 824 287 227 171 139 
165 241 426 41 40 66 
260 184 434 101 93 107 
214 665 149 118 129 145 
354 421 329 135 121 109 
333 433 373 80 93 148 
154 943 409 136 107 92 
283 642 418 110 129 149 
202 358 421 151 128 101 
267 470 247 115 128 179 
353 242 338 112 38 50 
243 336 318 86 103 125 
152 154 440 111 100 90 
256 718 467 133 159 193 
238 632 150 121 129 140 
178 518 302 52 63 93 
257 624 465 173 121 103 
175 440 433 150 139 134 
304 678 324 117 79 46 
331 272 422 90 115 138 
239 40 386 104 81 62 
278 548 398 160 155 159 
232 495 242 85 105 132 
201 963 335 112 85 66 
193 403 427 161 139 116 
345 125 391 95 84 78 
301 654 196 50 119 187 
203 198 415 116 83 70 
168 304 413 100 107 117 
262 713 430 178 197 222 
232 887 392 176 126 94 
287 358 304 88 97 107 
193 479 452 51 86 133 
308 517 347 60 78 110 
282 224 371 64 52 60 
148 198 449 46 95 129 
259 396 436 145 68 10 
156 196 401 116 53 77 
329 82 399 98 85 71 
297 557 347 101 119 140 
209 636 204 87 113 137 
371 246 343 79 106 129 
345 439 381 82 102 139 
241 672 481 90 99 114 
267 782 313 213 159 127 
168 930 425 180 138 116 
336 150 434 122 42 52 
271 576 421 93 114 155 
265 740 195 155 141 127 
253 329 254 86 105 125 
253 698 494 160 165 183 
274 546 424 138 160 186 
380 385 372 204 157 100 
271 316 313 95 100 107 
166 441 423 64 88 120 
264 378 230 50 90 121 
253 211 420 91 89 96 
284 614 413 164 115 107 
225 812 232 228 151 114 
273 11 395 105 81 65 
187 857 309 132 107 87 
270 307 286 108 89 69 
168 556 343 129 136 149 
287 171 447 54 49 50 
174 221 432 100 104 118 
171 700 474 79 97 115 
316 668 288 145 121 94 
280 763 299 201 149 113 
265 303 254 125 91 82 
157 497 426 92 110 138 
228 50 384 113 92 72 
221 652 267 102 120 141 
165 751 448 117 121 165 
272 648 443 100 120 151 
168 777 419 135 151 169 
183 543 447 133 138 156 
292 672 177 117 152 206 
211 921 328 86 68 61 
297 513 349 109 112 132 
287 606 264 129 92 73 
250 599 434 37 53 87 
309 133 355 122 83 40 
230 51 385 111 91 71 
251 627 472 170 118 100 
248 368 292 76 96 124 
217 744 171 213 74 61 
234 821 315 222 165 140 
271 716 172 179 63 67 
195 574 444 152 159 173 
245 585 442 57 103 135 
342 358 317 158 136 114 
223 455 281 43 75 104 
228 55 384 110 91 73 
170 266 414 84 86 96 
318 240 425 122 132 147 
168 412 345 138 143 153 
270 145 421 203 83 6 
301 548 281 84 104 127 
247 712 153 175 196 223 
297 139 368 119 63 5 
292 683 401 147 158 175 
188 766 223 143 129 119 
267 782 323 219 161 133 
168 544 318 93 113 147 
190 700 533 99 126 176 
167 930 316 85 64 44 
228 57 384 108 89 72 
184 259 425 77 81 98 
155 722 484 182 179 183 
175 205 434 142 75 74 
167 339 412 53 89 117 
179 585 310 122 147 175 
193 636 372 111 38 64 
208 632 225 66 96 123 
219 228 325 132 129 136 
305 351 328 129 129 134 
287 634 382 116 92 85 
327 524 330 175 188 211 
242 287 321 148 144 146 
395 318 363 166 146 128 
182 596 327 146 149 158 
259 466 440 147 146 151 
307 660 323 165 126 77 
276 434 432 80 102 138 
212 724 236 62 64 85 
164 697 533 105 129 190 
179 792 258 167 154 148 
308 37 397 110 93 77 
290 330 422 143 142 147 
181 710 525 135 164 213 
324 158 340 144 66 0 
261 771 259 165 122 85 
325 424 380 78 97 145 
250 525 231 152 154 163 
315 649 306 185 156 127 
287 654 415 107 130 178 
196 484 454 67 100 142 
209 727 237 79 40 65 
178 423 329 46 86 131 
170 717 372 147 147 154 
343 229 425 80 114 142 
302 438 252 115 133 155 
223 926 349 113 79 65 
255 305 267 144 110 74 
223 794 437 117 116 123 
291 180 443 115 33 47 
347 177 405 45 46 61 
176 272 344 120 135 153 
181 857 394 113 92 69 
345 314 325 108 119 132 
279 471 427 4 63 141 
185 250 423 99 94 106 
306 675 355 103 133 161 
355 199 341 126 54 64 
383 187 359 110 67 50 
160 290 361 134 145 161 
260 404 440 133 119 110 
361 166 395 104 41 58 
236 48 386 103 81 60 
384 313 403 124 136 153 
173 750 484 149 157 204 
237 50 385 100 79 59 
163 267 399 110 126 145 
228 622 486 109 92 74 
167 347 411 83 74 80 
240 287 323 149 147 150 
174 738 416 92 111 143 
252 546 248 128 134 145 
286 633 190 97 90 84 
144 889 375 128 99 79 
238 51 384 98 77 58 
238 51 385 99 78 59 
239 50 384 98 76 56 
338 149 424 78 52 69 
291 743 284 161 171 185 
153 881 380 141 79 67 
242 745 462 169 183 203 
206 947 409 204 151 126 
315 348 421 130 141 156 
237 334 324 96 114 137 
395 244 367 76 110 137 
132 943 341 88 71 54 
294 391 427 61 81 117 
274 611 218 110 99 90 
237 329 416 141 139 142 
231 674 508 57 93 133 
245 194 337 69 32 37 
163 411 406 95 105 137 
238 54 384 96 76 59 
186 437 327 89 121 167 
256 424 229 163 167 179 
239 784 395 211 182 157 
195 753 206 93 83 79 
387 344 398 160 29 77 
179 729 416 106 119 136 
139 916 393 82 68 56 
287 246 437 154 81 32 
317 657 297 139 113 87 
178 715 298 73 75 105 
234 56 384 105 85 67 
199 509 458 77 103 139 
309 633 334 138 77 19 
267 447 237 67 101 164 
261 410 252 135 143 155 
235 58 384 102 82 66 
166 273 411 90 96 106 
210 471 452 125 103 84 
222 577 268 129 131 140 
274 419 229 35 89 150 
236 58 384 101 81 64 
332 259 425 101 125 150 
336 448 310 137 145 158 
296 507 262 135 144 158 
183 383 422 143 17 65 
169 750 410 152 157 170 
224 781 450 136 56 92 
346 177 417 37 52 70 
209 631 445 133 152 177 
243 578 239 95 107 120 
160 247 385 96 57 66 
234 817 351 197 139 113 
208 606 278 96 117 147 
225 843 337 177 138 109 
186 678 382 72 116 150 
322 421 383 94 111 147 
162 874 393 138 108 77 
170 261 422 107 28 61 
334 116 395 99 86 75 
159 531 353 139 145 157 
210 637 188 33 59 78 
175 232 430 55 91 123 
308 346 332 131 130 133 
272 537 266 77 99 124 
252 460 234 78 105 135 
301 660 363 148 161 179 
173 651 492 69 95 118 
373 242 345 86 90 101 
178 848 363 140 99 68 
270 351 239 63 97 126 
183 807 267 174 126 92 
287 285 437 158 156 159 
267 781 330 214 159 132 
291 215 433 111 49 57 
206 158 404 80 72 65 
279 676 416 172 168 174 
181 687 359 156 154 159 
213 708 252 110 101 112 
223 786 447 205 174 129 
337 504 334 109 144 201 
325 397 315 79 73 70 
276 88 413 139 128 119 
287 615 403 188 130 129 
175 716 387 44 81 138 
267 771 351 98 111 125 
244 35 387 106 82 63 
165 745 392 135 145 162 
234 627 438 71 59 58 
222 864 383 141 112 81 
157 477 367 163 159 164 
200 247 335 91 127 158 
171 255 422 107 0 41 
231 627 155 105 123 142 
180 704 303 133 143 159 
166 343 416 55 88 116 
297 426 247 144 151 165 
285 228 367 88 46 68 
190 639 510 98 83 68 
370 338 404 114 125 139 
248 343 300 66 89 114 
305 214 377 84 30 41 
186 540 291 167 161 163 
293 167 390 107 42 12 
182 712 449 34 42 79 
246 32 388 110 83 62 
272 573 422 88 119 167 
171 733 439 116 122 132 
208 147 389 69 59 49 
246 804 289 214 156 125 
180 554 442 113 124 156 
257 515 437 104 117 160 
167 246 426 41 50 84 
227 529 461 130 142 160 
245 38 385 101 79 58 
277 755 363 196 169 148 
267 297 288 94 102 114 
221 660 478 92 100 134 
292 78 403 86 79 75 
264 29 366 160 141 128 
249 306 285 97 113 131 
181 961 330 143 117 89 
163 657 518 101 85 71 
200 678 277 81 93 113 
154 873 374 110 90 68 
286 749 282 158 139 127 
165 274 402 139 141 148 
168 723 372 146 145 150 
235 527 226 78 102 125 
245 183 412 106 96 89 
393 218 393 112 102 100 
292 132 372 102 92 84 
193 665 383 45 70 141 
184 721 408 78 88 113 
142 902 344 67 56 50 
255 619 186 87 105 123 
186 677 381 61 111 147 
346 315 326 113 120 131 
174 832 323 175 131 103 
263 587 436 102 145 181 
250 702 497 186 183 189 
232 236 399 43 72 95 
320 371 427 87 124 155 
174 444 333 79 110 146 
310 428 435 76 99 151 
243 43 385 100 79 59 
169 822 352 177 140 112 
247 353 276 85 109 133 
274 309 439 140 136 138 
191 709 406 32 50 62 
309 205 374 56 37 33 
176 230 429 60 83 107 
231 623 434 79 68 67 
164 398 379 55 98 136 
321 144 339 109 97 92 
178 651 478 90 113 135 
241 541 462 125 141 172 
167 299 407 100 90 99 
158 543 425 111 121 165 
213 937 407 195 145 118 
162 285 432 110 102 115 
181 967 330 118 88 63 
231 226 398 98 42 60 
213 591 451 64 97 156 
248 782 383 176 129 90 
252 795 266 193 145 107 
317 513 306 132 140 157 
189 856 407 131 106 80 
256 787 233 180 134 99 
288 499 374 113 127 150 
303 730 306 179 144 101 
279 514 384 121 132 150 
163 782 386 73 103 130 
279 589 251 111 103 97 
169 442 376 67 91 127 
205 741 224 118 92 74 
343 435 317 136 49 86 
287 421 238 142 146 155 
172 772 301 161 133 102 
282 744 360 137 105 96 
182 833 303 201 150 120 
204 335 419 164 148 134 
189 279 342 103 124 148 
247 41 384 100 79 58 
358 449 342 61 101 160 
198 677 280 93 106 128 
192 949 324 85 65 55 
283 613 262 65 57 64 
162 233 423 65 26 58 
244 44 385 103 82 63 
236 367 425 127 56 53 
245 682 492 90 107 127 
344 461 378 118 139 193 
152 981 371 126 89 61 
244 46 384 101 81 62 
303 731 302 185 130 100 
261 264 432 155 151 155 
306 121 363 121 112 104 
329 333 335 99 107 118 
193 693 397 160 158 163 
230 573 255 78 112 140 
248 33 386 110 84 63 
388 374 374 186 151 112 
396 331 377 171 145 120 
248 578 246 88 92 98 
328 294 345 77 94 111 
258 644 452 60 81 123 
162 440 408 58 85 132 
337 151 433 93 47 61 
213 317 416 134 116 97 
221 664 499 103 73 61 
166 867 365 124 100 74 
153 200 447 50 90 124 
133 926 381 82 68 58 
308 249 424 120 127 140 
244 363 424 98 114 133 
262 776 270 181 128 97 
171 825 335 171 131 101 
285 211 381 111 9 52 
258 414 257 68 90 111 
174 388 345 50 89 137 
254 206 345 61 43 65 
174 978 374 74 58 48 
195 639 484 69 66 65 
217 920 340 97 79 65 
249 37 384 104 81 66 
188 513 285 103 121 142 
317 336 341 113 112 114 
249 38 384 102 82 65 
194 507 456 130 141 158 
292 480 365 90 100 145 
288 595 241 117 105 93 
228 512 239 122 141 165 
166 694 485 51 87 114 
216 557 460 70 73 81 
267 312 292 109 95 84 
167 561 326 112 143 182 
306 36 424 94 78 59 
158 703 485 90 108 129 
256 746 415 178 89 116 
140 952 382 92 78 66 
155 292 424 122 111 117 
241 48 384 97 75 56 
262 514 452 135 147 183 
354 390 329 138 105 71 
233 392 304 82 102 123 
156 490 396 79 101 129 
223 222 321 147 111 83 
164 409 380 79 102 133 
281 510 393 139 147 163 
220 868 343 164 122 88 
140 985 354 152 112 104 
330 82 401 98 85 72 
208 829 371 162 111 78 
300 612 329 45 52 88 
382 254 404 75 111 141 
211 625 489 88 78 70 
169 505 330 101 111 126 
274 677 446 87 114 174 
341 409 310 117 99 83 
313 232 427 159 157 163 
309 637 287 131 144 166 
159 886 329 73 57 45 
263 667 466 74 120 153 
361 318 407 128 120 138 
228 822 348 172 113 96 
303 475 360 91 102 153 
183 603 411 128 134 156 
162 767 360 68 53 69 
330 266 348 122 119 120 
261 254 433 140 137 141 
158 189 425 48 22 27 
294 452 249 106 129 157 
288 479 253 188 181 184 
188 792 243 135 107 70 
277 260 348 99 118 138 
323 524 361 116 141 180 
254 165 426 107 63 64 
161 542 351 132 149 170 
267 272 286 111 113 120 
223 201 395 105 70 54 
311 174 434 75 49 71 
287 739 366 82 90 110 
279 519 382 119 135 155 
308 459 367 127 136 158 
377 384 392 202 95 19 
205 679 195 142 140 144 
316 417 295 55 86 119 
295 614 372 121 103 98 
252 605 455 80 77 77 
171 894 418 170 134 110 
343 241 423 133 115 112 
379 242 402 110 19 46 
162 422 404 79 98 139 
190 136 350 62 70 84 
223 632 499 115 93 68 
258 475 227 140 155 177 
372 223 406 140 109 80 
319 461 291 48 83 131 
337 147 424 75 52 73 
189 660 336 155 153 159 
181 690 382 142 149 163 
242 750 457 148 172 200 
164 164 386 113 46 73 
180 293 424 84 122 154 
241 334 417 165 147 129 
296 49 404 95 79 61 
222 605 272 86 109 134 
260 790 324 211 155 128 
292 681 195 157 182 212 
288 197 440 143 52 55 
309 473 359 88 103 149 
261 206 355 38 52 84 
297 564 368 158 160 169 
297 458 252 174 173 180 
297 176 439 114 41 41 
374 141 377 107 60 9 
286 605 400 82 94 106 
187 386 422 109 128 148 
240 477 450 97 110 143 
189 141 350 56 75 94 
218 711 230 132 142 156 
209 641 451 74 99 145 
175 835 323 176 132 104 
224 871 362 182 141 113 
209 463 451 132 118 109 
278 244 351 131 25 12 
154 178 403 79 65 92 
201 148 392 72 60 46 
246 228 322 74 35 41 
194 760 483 115 140 211 
251 377 428 161 142 123 
233 333 417 135 35 71 
190 141 349 51 70 89 
328 524 330 151 169 202 
326 87 397 91 82 73 
312 501 275 114 131 155 
284 314 267 105 65 67 
282 482 399 82 101 150 
318 219 355 86 56 58 
183 478 340 44 70 90 
246 355 305 70 90 111 
216 685 227 123 143 167 
205 448 323 119 122 130 
289 701 248 124 76 47 
264 167 399 150 50 2 
234 471 249 102 117 137 
329 347 330 130 112 93 
187 149 350 80 55 65 
320 282 351 85 97 110 
175 143 388 90 64 57 
165 332 358 151 74 95 
192 854 377 104 76 52 
306 154 348 109 65 20 
357 351 331 125 32 47 
264 19 401 121 85 69 
385 261 347 143 145 153 
277 743 392 184 127 105 
218 577 271 97 118 145 
263 608 256 80 75 73 
197 758 484 131 142 199 
292 644 375 73 70 68 
159 398 428 173 110 58 
170 431 338 114 123 139 
219 772 463 169 187 210 
265 661 143 97 85 76 
166 449 371 121 130 147 
201 270 413 103 92 101 
293 386 287 54 83 106 
279 344 286 97 71 38 
188 730 180 88 73 109 
303 270 420 139 136 140 
167 454 382 103 116 137 
222 457 267 123 129 141 
188 144 351 53 78 100 
366 412 377 154 136 120 
239 807 361 207 142 123 
286 627 196 100 90 80 
348 324 324 161 139 116 
164 926 317 75 57 41 
314 422 424 110 129 171 
257 606 221 42 86 118 
173 403 353 65 96 138 
264 312 302 109 113 121 
155 918 416 157 124 98 
329 111 429 97 85 74 
277 183 447 96 47 62 
208 654 162 78 100 120 
312 77 395 77 70 64 
172 722 341 144 148 157 
169 658 534 96 80 65 
225 919 379 124 89 66 
314 134 348 116 79 21 
183 534 449 174 166 166 
279 450 240 173 175 188 
292 680 195 161 181 207 
211 855 392 112 88 61 
171 851 355 159 121 88 
261 705 470 96 132 183 
289 620 276 62 75 90 
233 743 171 220 120 92 
306 644 210 78 114 175 
299 248 359 89 40 70 
395 319 363 169 149 130 
188 148 348 82 49 64 
157 282 377 109 123 140 
176 718 312 146 21 32 
179 705 530 104 147 203 
208 665 456 95 118 165 
189 149 348 86 44 59 
164 778 392 154 106 40 
303 582 342 110 146 186 
265 784 306 208 152 120 
173 389 346 53 94 136 
228 572 458 60 69 112 
300 627 303 46 60 73 
281 476 404 115 116 155 
262 778 359 158 155 160 
378 405 363 196 82 14 
169 923 426 171 132 107 
368 385 338 162 139 116 
169 369 362 95 116 144 
216 691 518 125 131 173 
277 458 442 96 120 153 
159 422 398 81 106 136 
227 817 364 182 114 97 
186 152 351 79 48 62 
181 874 418 145 113 85 
140 959 354 118 87 64 
387 354 393 158 50 74 
189 830 284 212 154 124 
223 825 262 255 205 174 
187 154 349 102 48 59 
297 564 286 82 108 138 
284 694 172 166 190 220 
382 218 398 97 96 101 
294 710 338 141 53 26 
219 626 209 61 87 109 
158 483 362 102 116 142 
179 273 426 132 41 72 
244 350 310 112 124 140 
218 796 226 171 114 77 
140 965 358 102 79 57 
182 790 251 156 143 139 
190 204 426 125 92 91 
207 670 427 107 123 165 
172 265 345 143 144 152 
202 678 457 63 88 135 
309 635 229 62 116 154 
234 754 180 186 155 129 
343 428 372 61 74 94 
184 581 322 139 139 146 
288 536 269 146 146 154 
234 614 172 96 117 138 
259 37 374 105 82 57 
277 682 421 127 147 169 
130 914 373 111 94 81 
378 307 345 131 67 66 
156 164 422 112 48 22 
274 703 161 201 212 230 
355 436 368 116 139 192 
163 529 436 147 151 162 
222 677 514 108 122 144 
201 301 339 187 141 89 
170 390 426 186 156 125 
187 159 348 120 49 54 
211 810 423 208 185 167 
251 665 130 69 98 138 
161 676 502 45 82 126 
149 531 407 129 132 168 
163 412 384 95 114 137 
257 232 295 63 91 113 
281 364 438 137 118 111 
252 553 258 87 101 117 
147 685 519 84 109 152 
311 274 352 82 100 118 
242 583 237 100 108 119 
307 444 258 161 164 174 
344 388 315 130 98 52 
200 268 338 141 147 159 
213 844 311 192 144 111 
178 614 336 75 131 173 
289 298 337 107 127 148 
312 434 272 104 122 143 
206 661 278 81 101 120 
156 982 371 131 102 74 
192 915 426 165 128 102 
151 671 508 34 84 136 
272 621 196 104 95 89 
170 565 345 94 109 128 
191 754 200 74 63 86 
164 446 413 98 121 144 
266 780 333 213 154 129 
237 810 358 209 144 124 
170 737 345 98 69 70 
268 309 291 112 96 81 
235 696 147 106 129 195 
246 295 306 130 132 140 
231 464 255 99 116 136 
290 676 179 103 143 190 
165 749 473 144 136 187 
189 159 345 129 46 59 
217 855 331 174 133 107 
355 280 414 110 127 148 
307 500 299 82 95 118 
154 525 364 102 117 139 
310 351 331 113 116 125 
191 703 190 112 122 135 
308 655 272 90 121 148 
284 175 396 124 36 21 
317 553 346 85 105 157 
271 128 435 119 106 97 
301 142 358 104 68 59 
334 289 335 125 124 128 
313 639 257 115 135 165 
311 668 311 176 130 69 
223 884 354 171 129 99 
383 386 355 184 154 122 
191 159 344 133 48 62 
252 372 270 78 108 146 
161 453 353 114 131 156 
273 716 196 157 121 71 
200 950 412 208 156 131 
318 513 307 107 123 144 
167 130 375 169 65 6 
188 591 430 116 125 166 
246 294 301 140 140 146 
216 706 507 104 128 185 
337 210 337 107 84 75 
222 741 168 198 27 33 
167 134 375 131 128 130 
163 722 461 70 93 115 
183 315 345 122 74 80 
190 763 195 149 129 118 
310 186 432 49 58 84 
166 358 373 131 109 93 
328 6 406 103 93 85 
271 536 408 122 134 151 
310 167 343 114 113 112 
160 289 362 128 138 152 
193 890 305 81 65 51 
166 356 424 121 144 170 
311 422 402 137 150 173 
251 368 271 117 138 161 
189 212 424 102 59 89 
334 458 367 60 77 97 
369 348 341 177 154 131 
233 500 455 139 146 159 
339 29 424 140 131 126 
282 280 343 127 118 114 
203 509 460 158 167 183 
168 748 482 130 136 197 
299 657 194 95 135 184 
204 828 271 248 179 136 
255 584 438 81 124 158 
256 296 270 147 111 67 
172 785 280 136 122 112 
281 642 421 114 126 143 
379 163 395 97 63 70 
331 468 307 28 81 139 
156 495 364 133 142 156 
237 309 326 102 123 146 
265 293 258 121 74 64 
307 429 387 114 127 162 
170 728 349 115 125 141 
260 366 235 65 96 127 
218 308 334 117 70 22 
162 134 382 152 92 72 
279 295 263 106 90 91 
169 785 414 117 107 99 
275 753 245 119 96 112 
162 197 442 140 106 111 
271 140 448 129 60 2 
211 890 338 103 79 63 
374 159 397 94 99 108 
317 226 361 76 67 62 
397 226 377 59 69 91 
206 418 441 167 141 115 
302 158 441 95 53 80 
340 489 353 158 166 189 
153 507 369 92 108 141 
282 762 303 203 147 115 
236 575 453 61 60 72 
275 339 303 101 103 108 
303 678 336 105 68 45 
166 456 378 120 128 143 
245 215 408 97 63 66 
273 530 430 182 176 177 
355 441 378 160 175 201 
343 492 344 161 175 204 
347 127 409 127 99 59 
220 800 434 115 102 107 
164 688 491 60 92 119 
185 599 312 181 177 183 
223 664 146 107 129 159 
180 636 358 75 123 159 
222 322 332 110 123 140 
266 677 465 66 95 151 
245 612 191 135 147 162 
140 890 356 83 68 56 
282 518 394 111 130 154 
204 412 316 153 155 164 
256 494 232 81 112 140 
286 741 367 89 107 137 
194 973 369 105 88 73 
309 397 297 74 93 112 
208 873 422 149 67 75 
311 295 346 117 117 119 
310 635 314 70 76 98 
293 416 433 67 94 139 
277 621 197 105 95 87 
177 791 260 127 114 109 
357 371 399 68 96 144 
268 527 262 94 110 130 
167 762 453 127 121 171 
164 134 379 142 118 116 
171 850 342 141 109 78 
168 917 314 61 49 35 
258 297 420 118 126 139 
250 805 309 225 165 142 
311 638 300 72 68 65 
216 704 245 119 129 143 
231 716 156 161 179 203 
214 841 313 189 141 107 
197 703 415 165 165 172 
327 79 399 101 87 74 
251 734 444 142 168 196 
179 414 328 42 83 121 
167 135 376 141 132 131 
196 626 408 66 65 147 
161 136 383 140 114 112 
159 418 426 120 105 92 
161 138 383 146 132 134 
347 235 337 101 85 74 
280 303 440 84 128 163 
202 725 200 139 64 75 
256 618 469 152 110 93 
194 278 341 98 118 144 
266 558 436 162 166 177 
205 678 185 49 73 133 
209 834 287 238 175 133 
163 658 516 102 86 70 
276 627 192 99 89 81 
342 155 407 130 19 35 
190 718 178 132 141 153 
311 633 257 113 136 160 
337 180 337 115 104 104 
393 252 396 128 110 105 
259 153 400 105 84 65 
201 347 418 140 35 70 
263 888 388 135 120 107 
285 666 233 110 131 152 
180 575 325 125 131 141 
366 139 399 95 86 82 
205 661 166 103 121 141 
172 748 323 87 36 63 
160 427 430 142 128 121 
229 473 254 90 103 119 
212 912 329 77 60 55 
310 160 437 100 44 71 
362 132 372 96 86 79 
210 604 277 102 121 146 
320 536 348 92 119 166 
297 586 287 112 99 89 
318 221 357 91 46 53 
192 852 306 160 126 99 
164 882 410 150 113 87 
191 528 283 141 146 158 
161 168 427 72 27 39 
171 291 349 149 73 78 
287 456 405 126 132 168 
265 29 375 128 112 115 
325 510 317 188 191 202 
165 137 378 155 114 109 
164 781 396 159 132 99 
365 214 343 64 85 107 
185 630 338 106 105 129 
186 976 363 126 106 87 
274 638 420 55 63 78 
271 523 261 45 63 93 
355 220 411 92 87 98 
167 137 377 152 85 71 
155 194 405 130 54 50 
207 909 416 137 98 85 
267 425 435 107 120 145 
260 195 361 125 37 10 
349 17 415 96 86 78 
268 595 430 66 90 123 
213 954 350 117 93 69 
174 768 270 116 98 79 
248 317 291 99 109 123 
190 439 439 149 62 14 
164 140 379 139 57 32 
323 427 301 49 74 98 
270 694 146 154 174 221 
332 139 438 129 42 9 
223 775 201 199 160 123 
263 281 297 87 100 114 
257 503 242 95 119 143 
210 721 244 117 25 38 
216 919 341 101 82 69 
315 215 368 89 47 48 
355 457 352 99 127 182 
308 641 350 77 86 111 
280 158 451 46 89 126 
310 135 350 121 83 37 
187 580 299 93 140 178 
277 91 430 98 90 83 
352 381 326 165 144 124 
138 973 362 115 84 57 
250 585 247 79 85 93 
331 60 422 112 92 71 
367 320 406 122 122 132 
164 143 381 98 69 97 
148 506 397 57 95 127 
278 578 274 57 51 55 
170 128 371 170 74 33 
170 129 371 164 78 45 
283 340 279 125 102 81 
394 362 369 159 12 65 
292 706 256 94 87 102 
279 234 358 103 32 17 
171 131 371 129 126 130 
281 125 435 111 96 81 
315 247 423 113 130 152 
275 579 274 48 65 82 
262 440 437 119 133 153 
169 129 373 171 74 8 
168 128 374 174 67 5 
149 900 331 68 57 48 
172 357 352 161 157 159 
177 588 315 155 164 181 
351 299 410 151 138 129 
169 130 373 163 82 40 
219 685 233 139 147 162 
300 613 330 88 78 79 
272 703 157 182 199 221 
261 463 237 15 68 129 
248 244 413 110 45 64 
178 937 425 211 167 147 
251 736 170 177 57 47 
218 307 334 126 86 45 
149 162 443 134 99 70 
201 671 397 62 86 132 
198 326 416 129 133 142 
236 813 284 214 158 124 
230 844 346 178 139 106 
201 283 339 114 129 146 
315 672 297 161 89 73 
223 863 410 184 140 114 
222 623 185 116 127 141 
313 639 265 145 165 194 
196 654 380 110 113 122 
229 756 469 136 166 198 
161 229 439 75 89 119 
168 196 439 140 68 86 
208 805 438 143 99 125 
165 286 408 136 137 145 
227 913 389 184 131 102 
288 314 329 81 111 140 
313 342 418 122 133 148 
231 801 384 176 158 142 
386 284 404 156 156 164 
178 511 448 172 164 164 
300 276 344 111 104 99 
267 306 291 92 103 116 
386 328 403 178 156 135 
309 643 323 127 86 42 
240 621 438 105 80 73 
168 761 340 73 97 120 
157 556 405 149 154 163 
158 886 331 75 60 52 
198 892 312 92 75 61 
172 131 371 129 133 144 
209 512 270 148 149 157 
282 738 354 138 128 124 
202 631 469 50 67 82 
227 903 400 195 141 113 
184 693 315 119 134 153 
175 129 369 127 138 153 
346 347 409 115 131 159 
174 129 370 123 129 137 
304 676 314 135 95 58 
164 370 391 115 123 138 
297 404 248 102 123 146 
336 311 335 90 105 122 
175 955 324 106 76 43 
206 910 318 77 58 49 
224 500 251 66 95 131 
296 443 386 171 169 177 
285 124 414 85 68 50 
174 132 371 143 122 113 
273 761 362 180 150 118 
284 293 438 74 115 150 
172 132 372 139 140 145 
182 417 428 171 145 115 
172 133 373 149 130 125 
241 520 456 150 153 164 
307 679 278 75 49 83 
255 285 279 85 97 111 
163 695 535 109 131 184 
290 602 385 135 121 112 
172 134 374 151 116 100 
172 135 374 142 84 60 
306 353 328 112 119 130 
167 656 523 96 81 67 
260 491 448 149 153 164 
174 133 372 143 103 85 
249 552 242 107 122 140 
214 676 229 143 154 172 
227 445 266 85 107 129 
189 599 303 157 160 171 
247 640 448 50 67 89 
332 215 432 124 59 82 
278 697 160 166 200 235 
150 887 377 119 83 60 
161 955 312 119 90 53 
204 961 338 122 94 73 
299 407 434 79 109 141 
343 432 316 146 31 77 
216 301 335 174 136 103 
334 477 315 85 113 168 
290 613 282 94 68 55 
221 801 407 167 146 127 
320 141 444 92 35 39 
161 285 387 73 114 146 
165 769 392 139 28 44 
356 392 391 98 112 143 
308 648 224 133 162 191 
166 704 528 125 161 205 
179 553 441 107 119 155 
152 902 401 149 116 88 
297 150 385 84 54 13 
156 559 379 122 143 181 
213 784 216 208 193 185 
204 841 296 234 162 118 
192 874 313 110 81 63 
391 245 356 64 88 114 
167 784 407 139 16 37 
215 391 436 137 24 64 
283 362 294 98 102 109 
376 405 366 168 106 76 
272 263 278 98 111 126 
217 687 517 125 133 169 
321 505 360 68 84 106 
181 579 319 111 125 145 
167 758 445 95 104 162 
358 202 407 58 37 42 
317 30 404 105 91 78 
161 139 405 129 63 9 
281 263 440 101 117 134 
249 804 300 220 160 131 
338 489 360 134 149 192 
153 490 409 106 119 138 
175 770 265 122 103 83 
266 319 301 105 111 120 
251 412 438 124 104 79 
264 504 257 90 106 127 
291 84 414 60 53 47 
293 493 362 80 92 136 
330 336 334 94 109 126 
298 694 371 114 149 182 
193 356 335 97 115 134 
163 534 337 106 129 158 
311 448 265 121 136 155 
281 505 401 141 150 166 
204 207 409 47 68 92 
163 421 407 92 103 136 
226 584 453 109 128 150 
355 458 341 95 122 159 
210 645 233 149 156 170 
293 742 326 168 161 161 
268 485 251 44 82 126 
174 133 379 124 111 110 
166 749 397 154 159 170 
175 133 379 123 123 130 
174 134 377 140 124 114 
377 390 349 203 170 133 
346 453 335 58 94 156 
276 201 387 95 38 56 
143 938 397 112 89 75 
167 446 369 129 137 150 
284 717 246 120 95 83 
175 134 379 130 94 89 
204 886 428 134 105 77 
293 185 440 110 56 43 
172 133 381 154 75 50 
317 328 413 105 123 143 
133 942 377 91 75 65 
209 652 277 71 92 115 
176 850 325 126 85 57 
292 614 378 161 153 154 
290 345 258 102 116 132 
274 742 230 201 167 131 
198 232 414 140 50 78 
251 528 258 78 95 126 
225 866 386 129 102 72 
193 202 423 128 102 90 
292 194 438 125 57 75 
343 476 337 125 148 184 
285 660 226 130 161 192 
162 269 389 117 128 143 
158 208 443 128 98 96 
233 348 421 133 77 56 
174 132 380 144 83 45 
340 444 314 157 162 175 
174 134 380 127 106 107 
174 134 381 128 107 111 
329 45 427 140 126 118 
221 802 227 189 133 98 
259 250 295 61 83 102 
257 383 269 160 158 163 
295 583 296 69 74 83 
160 145 407 119 56 16 
379 353 346 152 131 108 
281 741 390 141 51 83 
348 139 347 134 120 107 
302 563 299 113 141 171 
194 818 407 148 127 108 
163 191 442 131 115 111 
369 340 403 116 127 143 
264 752 207 167 149 137 
253 499 226 87 123 160 
249 480 228 91 112 134 
145 169 442 187 86 8 
154 533 425 181 171 170 
188 799 254 166 114 77 
236 909 363 144 93 71 
269 217 443 60 94 121 
244 810 234 211 152 116 
227 527 237 108 133 159 
314 642 340 75 60 59 
288 131 453 136 64 6 
222 662 492 91 66 65 
175 226 430 109 86 96 
387 205 396 138 77 76 
259 752 400 102 110 123 
322 158 434 139 38 23 
174 138 374 94 74 99 
187 864 310 147 108 74 
301 458 371 118 123 155 
220 621 449 55 53 59 
215 348 326 54 94 124 
292 358 417 113 102 94 
168 536 315 176 172 176 
304 101 442 122 101 82 
303 392 262 88 114 139 
327 210 340 64 99 128 
190 875 420 158 124 102 
230 837 350 173 132 106 
211 659 154 89 108 128 
231 595 445 39 87 125 
177 579 335 144 152 166 
218 658 270 111 121 135 
174 140 375 60 76 115 
222 940 384 102 81 67 
292 624 210 84 74 64 
214 853 405 110 88 64 
277 485 417 141 148 164 
321 65 429 111 94 78 
262 505 432 146 154 171 
198 609 427 119 128 155 
174 143 374 29 81 124 
314 261 360 111 105 103 
205 677 273 76 87 106 
314 437 275 102 121 146 
290 621 392 147 98 84 
299 605 294 144 102 82 
294 523 369 156 157 166 
162 377 386 117 125 141 
217 644 238 152 156 169 
327 498 313 122 149 188 
288 615 216 113 100 87 
191 640 490 81 73 68 
277 366 237 81 110 138 
258 494 247 42 80 115 
279 355 438 185 161 137 
176 682 372 84 105 133 
161 283 359 123 136 153 
254 788 266 193 144 106 
171 136 376 128 65 57 
285 605 405 88 78 80 
268 659 144 83 90 100 
182 702 532 120 145 201 
305 408 274 96 109 126 
197 694 191 94 109 129 
160 159 428 123 55 22 
368 283 338 146 144 148 
191 441 439 140 67 37 
138 967 317 116 85 65 
362 383 336 168 146 124 
267 777 287 187 137 99 
289 719 257 200 181 214 
163 772 355 75 76 79 
359 323 407 164 55 100 
219 634 164 65 92 115 
188 711 187 113 125 140 
216 816 242 215 152 121 
242 636 477 156 110 86 
258 684 138 133 154 225 
397 282 372 149 148 154 
359 437 359 86 117 183 
299 594 324 57 65 110 
176 351 349 102 118 142 
290 629 373 177 162 155 
202 490 278 78 94 112 
233 742 171 213 112 88 
277 715 204 156 122 111 
229 622 446 67 57 57 
180 701 306 137 147 162 
311 430 264 115 131 151 
341 161 423 88 34 26 
301 665 364 143 163 185 
177 576 308 102 136 177 
284 315 267 103 63 66 
195 647 522 112 92 70 
292 709 399 117 148 178 
172 776 299 125 114 106 
162 461 394 83 109 137 
315 488 275 73 105 152 
269 422 436 99 114 144 
248 352 296 83 100 119 
268 596 430 95 108 128 
180 205 430 152 99 97 
204 450 323 93 105 119 
264 558 271 89 95 103 
335 43 390 128 114 105 
183 716 441 49 52 92 
186 242 422 131 69 88 
260 772 251 139 96 69 
164 311 388 104 122 142 
294 720 265 160 146 137 
330 71 424 107 88 68 
183 657 369 132 136 146 
203 149 392 71 60 48 
314 684 294 177 116 84 
280 300 266 102 97 98 
148 986 364 117 91 66 
213 832 286 232 177 138 
254 512 252 118 129 144 
169 914 426 146 122 102 
162 524 342 179 171 171 
176 648 486 47 81 105 
254 790 228 202 150 116 
167 381 369 81 106 139 
162 144 383 105 63 83 
169 652 512 104 87 70 
