ply
format ascii 1.0
comment Created by CloudCompare v2.11.1 (Anoia)
comment Created 2/28/22 9:39 PM
obj_info Generated by CloudCompare!
element vertex 2008
property float x
property float y
property float z
property uchar red
property uchar green
property uchar blue
end_header
157 491 422 103 122 145 
251 535 443 103 123 163 
256 632 434 94 70 74 
269 721 194 124 106 93 
178 565 435 180 175 177 
159 419 389 57 89 134 
214 88 375 101 84 66 
222 941 352 117 97 80 
166 460 378 138 140 149 
167 184 431 114 24 28 
174 847 354 156 120 85 
377 379 391 177 132 111 
250 315 270 110 125 142 
211 545 458 132 139 151 
323 434 414 165 171 186 
212 93 374 99 82 66 
161 183 460 170 82 5 
124 975 338 112 78 69 
172 587 348 106 135 180 
269 675 143 134 148 168 
169 347 355 157 95 110 
299 649 352 114 97 86 
342 399 306 142 73 6 
227 424 300 82 94 109 
183 669 493 47 70 115 
273 755 246 173 164 160 
225 620 468 82 75 71 
134 914 378 69 56 48 
194 510 455 108 123 149 
178 237 434 88 94 112 
280 306 257 107 120 134 
268 310 294 109 113 121 
311 380 314 107 93 79 
305 63 375 118 104 91 
310 515 289 110 122 164 
208 525 271 133 132 136 
266 711 426 155 176 201 
173 917 425 170 132 110 
216 81 374 96 81 67 
260 723 428 131 162 193 
257 753 400 107 117 129 
290 718 257 111 116 132 
365 263 399 133 131 134 
331 201 328 96 100 113 
220 266 407 102 65 83 
267 508 420 171 168 172 
236 808 227 238 171 137 
170 819 360 118 127 140 
298 147 387 186 84 0 
199 724 190 152 20 50 
215 436 310 114 116 123 
219 81 375 94 80 65 
358 288 400 129 140 158 
281 723 241 122 118 119 
244 178 406 93 83 95 
156 558 378 104 126 178 
156 556 399 214 201 196 
262 499 449 124 138 158 
256 678 132 170 183 229 
255 344 250 86 123 156 
281 650 431 112 133 160 
150 183 459 170 83 10 
286 741 370 117 84 86 
133 968 351 108 89 71 
292 312 334 87 104 124 
294 717 262 147 137 131 
361 291 328 137 138 144 
172 742 314 149 112 57 
218 85 375 99 83 67 
224 298 407 149 146 151 
350 457 367 122 147 192 
269 207 360 97 49 50 
285 654 224 121 150 179 
249 598 433 82 95 111 
353 350 317 113 99 110 
343 68 384 99 83 66 
299 536 365 126 139 159 
223 732 497 122 140 192 
318 401 307 84 83 86 
326 399 306 88 81 77 
219 614 246 117 91 106 
246 607 203 118 133 151 
177 773 449 170 179 196 
260 319 250 115 126 139 
240 258 323 123 141 163 
288 431 431 60 88 141 
198 566 448 121 138 165 
304 375 419 101 112 128 
289 628 198 128 134 143 
202 565 451 100 114 151 
238 606 438 44 61 80 
157 470 409 82 105 136 
155 939 410 162 126 107 
202 854 304 164 126 99 
316 520 304 100 114 158 
161 201 406 75 48 33 
177 800 412 113 132 149 
309 708 295 159 124 102 
146 947 394 84 68 54 
391 290 340 130 125 124 
243 694 505 166 169 181 
213 664 190 117 125 146 
221 84 376 98 83 67 
283 672 160 71 104 131 
296 77 396 99 85 71 
220 87 376 99 83 67 
359 161 387 75 20 26 
221 87 376 100 84 67 
273 566 271 102 104 110 
165 544 321 109 125 155 
297 494 351 97 98 138 
310 445 371 174 167 167 
166 331 362 173 126 63 
269 396 245 87 111 136 
186 700 288 124 137 153 
315 478 270 59 101 149 
265 217 337 75 44 58 
318 398 310 99 93 88 
184 753 484 133 152 200 
158 265 364 156 149 149 
318 84 373 77 68 60 
217 89 375 101 83 66 
228 424 298 82 96 114 
299 628 321 62 56 54 
288 545 371 125 137 154 
348 16 389 105 93 83 
245 583 266 68 78 89 
351 461 351 87 113 184 
221 860 337 170 130 97 
277 683 442 69 103 171 
194 748 183 121 87 116 
305 665 320 168 107 49 
299 265 343 106 91 94 
267 571 432 125 137 155 
272 419 230 92 123 173 
326 113 423 99 89 80 
164 448 387 47 76 126 
193 699 533 122 89 84 
216 93 376 100 83 66 
181 791 250 118 97 108 
323 371 421 68 109 143 
177 525 447 121 134 155 
166 805 367 146 123 101 
226 254 330 91 119 145 
168 153 443 128 104 81 
328 406 394 123 142 173 
196 397 426 162 140 115 
220 355 313 74 103 128 
298 734 284 161 144 131 
156 161 455 121 106 92 
277 696 173 134 155 178 
234 326 324 134 137 144 
224 628 151 123 127 134 
341 340 317 127 113 99 
294 418 243 80 115 149 
265 398 239 63 101 132 
269 618 444 173 117 107 
290 641 386 88 94 102 
278 514 409 154 163 184 
192 756 232 78 71 66 
220 90 376 100 83 66 
303 687 351 94 124 151 
193 784 459 171 153 161 
270 142 428 117 80 21 
301 606 344 139 134 135 
236 264 404 127 36 75 
278 761 293 204 152 117 
187 589 429 141 149 171 
223 88 377 106 88 70 
288 434 241 123 143 172 
389 373 351 149 25 63 
211 624 183 54 96 128 
344 421 309 125 106 86 
202 449 321 89 101 116 
168 579 403 146 157 177 
258 725 458 140 163 193 
176 775 442 162 172 189 
262 374 235 26 78 142 
239 600 233 113 132 152 
211 956 345 124 100 79 
200 943 416 204 153 130 
377 217 397 77 79 87 
267 260 424 93 89 99 
254 602 440 105 88 80 
236 659 475 128 133 142 
289 660 393 118 133 153 
313 254 343 108 22 36 
286 345 280 113 84 45 
252 279 412 76 114 144 
361 15 385 119 99 80 
265 284 296 85 99 116 
173 758 463 104 130 191 
277 293 319 83 93 106 
178 394 352 68 102 130 
224 939 381 91 68 55 
172 582 343 124 149 179 
286 353 282 96 106 120 
310 541 305 82 107 156 
300 619 343 52 75 92 
226 557 255 73 111 140 
291 437 433 58 90 143 
307 631 249 99 127 162 
271 298 423 93 115 137 
246 779 392 177 152 128 
237 430 438 141 118 101 
161 940 320 98 76 54 
395 298 393 91 122 151 
230 445 444 139 119 99 
249 748 429 127 140 161 
264 27 384 109 96 92 
290 337 268 106 66 47 
211 581 452 163 156 157 
168 567 353 61 90 117 
151 931 325 89 69 47 
207 922 421 108 88 71 
274 567 423 120 140 173 
241 768 435 175 47 56 
167 678 503 42 83 123 
305 57 387 106 87 67 
361 448 343 83 116 186 
156 541 421 117 125 172 
212 675 523 157 111 86 
253 250 412 110 37 63 
292 612 289 129 91 76 
300 121 391 87 68 47 
383 271 334 144 143 148 
223 586 453 71 106 139 
317 444 409 122 137 166 
347 417 377 44 69 123 
273 604 437 146 111 95 
305 626 266 89 106 124 
366 436 351 72 102 175 
272 277 262 114 103 103 
153 534 419 45 56 142 
285 620 280 54 58 66 
402 289 386 157 158 166 
306 404 258 130 139 152 
163 724 496 86 108 167 
278 566 273 118 118 124 
282 762 307 207 149 119 
198 305 412 87 124 156 
206 239 409 140 67 61 
262 146 423 128 81 17 
262 539 429 70 98 135 
271 706 170 168 183 203 
360 355 397 103 115 153 
327 86 412 110 94 80 
206 301 413 89 60 76 
168 256 412 132 121 124 
209 174 426 95 84 74 
166 265 352 130 128 133 
216 603 232 54 120 168 
333 500 354 152 168 208 
283 136 437 125 98 65 
182 864 408 136 105 77 
298 593 317 131 130 157 
267 573 276 65 63 62 
168 748 346 123 42 74 
158 330 423 96 113 138 
264 507 428 186 182 184 
197 746 176 161 128 81 
268 432 431 85 105 139 
192 103 349 113 99 90 
308 348 325 126 126 130 
310 525 289 151 162 178 
302 595 347 123 125 133 
308 324 334 79 48 49 
361 225 400 116 107 107 
394 248 342 85 87 101 
260 257 418 81 104 123 
193 103 351 103 90 78 
194 100 348 112 100 87 
197 391 424 127 18 56 
278 456 242 105 129 172 
161 210 412 124 47 55 
329 420 379 72 89 145 
300 639 204 118 137 164 
245 801 272 217 162 124 
349 19 400 120 109 102 
301 151 376 102 61 16 
149 927 324 82 60 39 
315 171 341 99 101 101 
239 779 401 50 59 69 
195 102 351 102 89 78 
195 103 351 103 90 79 
180 699 304 134 145 160 
317 281 408 84 123 154 
266 243 275 107 124 142 
183 710 525 122 141 212 
298 241 350 78 50 70 
270 277 282 100 104 111 
250 793 227 200 147 111 
265 29 377 155 130 125 
317 549 346 125 158 193 
305 82 387 109 81 53 
292 326 325 90 116 143 
158 672 524 47 89 131 
302 720 279 156 138 123 
197 99 344 110 95 83 
197 99 345 109 94 82 
346 84 400 109 89 67 
248 758 424 199 148 151 
354 172 412 49 56 81 
188 670 539 137 103 76 
275 349 237 73 103 129 
167 475 345 134 143 163 
363 147 385 92 67 37 
197 96 348 93 80 70 
265 405 243 98 114 132 
197 97 348 95 84 74 
198 438 440 151 67 7 
229 861 348 188 147 116 
218 514 459 144 152 167 
211 479 279 79 88 100 
202 852 301 199 145 106 
348 444 323 74 103 148 
274 269 267 127 96 79 
285 713 406 107 145 178 
401 248 351 88 86 99 
325 410 423 71 103 155 
302 167 440 55 56 69 
253 635 455 140 91 79 
236 879 376 152 122 90 
221 596 266 85 109 134 
325 404 305 84 81 81 
306 448 434 133 149 168 
289 374 286 86 97 110 
356 458 340 92 129 197 
196 101 344 115 93 78 
217 686 255 104 115 130 
257 263 283 108 122 138 
190 629 352 68 112 147 
191 634 369 74 118 150 
153 235 434 73 30 30 
298 612 328 99 82 77 
204 701 525 123 146 196 
165 336 425 104 135 165 
169 453 335 127 139 157 
210 372 312 117 125 141 
169 764 325 140 114 88 
221 622 482 89 79 70 
247 421 256 121 127 136 
163 895 409 162 128 101 
251 623 473 149 111 89 
281 526 392 132 149 169 
177 956 413 101 81 68 
322 363 324 119 105 92 
306 157 358 107 91 66 
345 19 385 119 102 87 
267 141 416 140 123 111 
223 607 266 98 118 139 
388 179 351 55 46 45 
244 380 294 72 95 120 
281 205 436 130 72 70 
284 695 227 148 29 59 
211 628 486 87 77 69 
285 744 332 176 151 133 
326 311 335 92 61 61 
199 105 340 161 71 17 
204 741 213 117 98 77 
268 295 308 72 78 89 
248 476 444 120 128 145 
198 106 341 163 64 9 
163 455 390 89 105 135 
224 815 378 180 166 156 
307 235 426 165 139 112 
250 314 314 122 126 135 
185 829 376 173 152 132 
232 515 228 90 112 136 
199 736 196 161 136 107 
168 165 454 109 69 9 
258 720 465 161 175 199 
177 155 437 137 86 30 
175 675 498 68 90 113 
312 688 303 172 82 35 
342 132 347 109 97 88 
174 510 446 79 97 144 
238 655 473 111 125 142 
280 84 394 113 103 96 
259 419 251 79 93 111 
213 939 405 197 147 120 
198 109 341 164 69 5 
229 526 458 96 117 147 
253 756 409 178 121 128 
348 208 413 145 40 25 
270 643 437 97 115 135 
170 577 415 128 135 150 
198 111 341 156 58 5 
166 378 393 132 137 148 
253 776 212 191 180 172 
171 434 372 135 136 143 
344 62 396 105 86 67 
172 977 375 80 52 41 
183 620 384 93 127 173 
214 907 329 79 64 56 
240 450 443 129 73 79 
193 104 347 133 113 98 
166 554 327 107 127 155 
221 789 214 167 146 133 
297 709 375 116 146 175 
197 819 407 160 138 119 
213 867 326 185 143 112 
277 754 370 158 114 91 
340 380 397 84 114 151 
159 560 404 92 116 166 
310 357 327 89 103 119 
160 556 359 112 125 142 
250 745 442 168 89 106 
261 602 263 67 64 64 
159 415 389 77 106 137 
302 162 375 76 65 53 
190 356 417 141 45 65 
301 326 421 152 148 149 
197 472 313 64 81 97 
196 618 280 153 160 174 
193 861 410 147 118 91 
205 544 270 88 128 162 
212 919 414 136 106 83 
238 350 310 67 95 121 
358 177 400 28 42 62 
161 182 406 79 57 71 
155 497 360 146 150 158 
205 625 226 74 124 161 
169 794 305 148 138 132 
335 379 411 97 132 164 
391 282 397 144 148 159 
229 670 507 77 89 110 
196 738 173 170 50 31 
173 715 371 141 145 154 
202 719 161 191 9 54 
206 329 416 113 128 147 
193 108 347 155 63 4 
235 142 386 79 70 63 
193 964 332 126 100 76 
268 295 293 102 108 116 
172 822 367 104 84 70 
297 518 364 119 138 161 
250 272 312 80 110 139 
185 752 251 92 82 76 
290 593 257 155 112 97 
249 471 444 128 132 149 
195 109 346 160 56 5 
195 109 347 160 59 6 
222 339 418 137 27 70 
211 809 431 85 93 124 
229 145 394 66 57 51 
277 689 161 169 191 218 
181 578 430 188 185 189 
319 463 358 70 88 132 
289 331 255 103 118 136 
278 397 438 133 119 108 
224 551 239 153 160 174 
401 286 356 103 121 141 
265 532 428 137 148 164 
359 348 400 125 121 151 
354 191 409 130 38 23 
192 632 377 149 141 142 
277 345 240 77 105 129 
346 438 317 132 74 80 
312 174 360 79 86 94 
213 172 411 133 55 8 
255 333 251 81 108 134 
194 110 348 159 65 5 
218 799 442 198 131 55 
200 642 399 70 124 163 
358 419 327 132 119 110 
273 701 188 144 36 29 
176 152 407 88 59 52 
319 195 355 76 67 81 
158 465 409 63 84 119 
284 630 195 96 91 88 
231 828 343 153 100 75 
237 602 188 87 118 147 
300 567 362 160 160 168 
234 303 328 103 124 148 
212 175 415 146 55 12 
191 528 281 152 151 157 
233 400 298 108 121 138 
303 140 362 135 79 2 
277 682 445 29 80 140 
223 565 458 44 51 71 
172 943 315 118 86 57 
169 494 342 79 94 111 
268 537 408 58 78 110 
266 769 373 193 169 151 
211 666 453 105 129 170 
283 700 231 103 46 90 
405 223 370 77 98 118 
250 764 398 151 126 107 
264 666 133 165 170 185 
261 400 433 144 61 7 
246 565 257 81 89 99 
372 147 357 132 61 7 
304 236 432 159 140 119 
294 351 430 110 130 156 
202 99 339 111 98 91 
138 895 358 76 61 50 
161 685 503 52 83 111 
286 386 421 100 91 112 
282 698 209 177 148 116 
344 264 408 94 120 145 
284 505 403 100 123 178 
295 691 361 80 119 150 
191 826 382 112 115 123 
238 775 434 162 81 85 
200 98 341 106 94 84 
190 721 416 126 132 143 
335 40 405 136 125 119 
174 557 309 109 121 142 
205 462 296 86 105 127 
212 947 397 178 133 108 
316 232 415 134 132 136 
237 819 247 241 175 142 
187 665 353 109 57 68 
239 783 398 128 116 107 
305 467 419 192 191 199 
168 413 416 79 93 127 
192 209 423 101 73 85 
232 459 250 150 147 150 
178 523 447 162 160 166 
178 726 286 110 76 65 
283 267 344 158 73 0 
324 94 377 78 71 65 
256 416 436 111 97 85 
178 603 329 96 50 70 
193 272 341 146 148 156 
277 552 398 171 167 171 
187 697 469 46 76 105 
218 698 244 124 131 142 
282 498 407 166 169 179 
161 464 364 89 109 140 
289 735 365 139 120 103 
157 672 511 71 111 143 
278 761 330 100 142 177 
201 291 411 73 113 145 
210 807 435 170 130 123 
205 96 338 120 106 95 
206 637 409 142 155 178 
156 302 426 126 149 174 
204 98 338 130 116 103 
170 356 406 150 147 150 
216 449 291 101 107 117 
220 652 241 114 140 168 
251 615 197 91 109 128 
299 656 347 122 77 91 
295 352 423 97 118 140 
170 593 365 75 143 194 
205 517 273 125 125 130 
177 486 328 121 123 129 
308 533 300 144 152 167 
257 664 127 69 92 118 
165 234 414 88 35 45 
206 647 470 47 81 122 
295 685 396 140 155 174 
245 770 400 105 74 66 
175 712 355 152 149 153 
162 459 410 135 142 155 
191 614 288 153 157 169 
269 421 438 116 133 156 
205 555 269 109 132 154 
193 829 376 172 128 99 
152 898 395 95 78 63 
167 761 393 154 8 39 
158 963 393 92 77 71 
201 355 418 138 31 71 
252 322 261 158 154 156 
214 155 401 79 68 60 
165 793 349 148 128 109 
274 762 364 186 160 137 
340 84 405 103 85 67 
169 917 313 64 50 36 
182 694 342 102 122 144 
132 938 358 78 62 54 
272 14 373 138 119 109 
182 400 425 162 145 131 
287 366 298 89 95 103 
181 981 334 129 98 76 
260 270 271 108 121 137 
261 167 388 144 57 18 
202 724 192 130 139 149 
385 308 337 154 130 109 
294 304 435 84 125 159 
259 598 268 75 71 69 
249 274 314 77 118 150 
167 796 395 69 68 73 
175 450 330 112 128 160 
269 623 438 167 112 100 
147 931 328 86 63 41 
181 762 251 131 117 106 
168 310 407 83 119 150 
305 638 234 40 81 109 
256 752 410 186 144 125 
154 218 451 160 99 80 
192 538 279 150 146 149 
273 590 246 112 102 95 
382 236 398 134 76 83 
249 423 254 130 134 142 
207 701 205 130 148 170 
218 626 492 95 81 70 
201 109 339 175 73 5 
307 104 421 109 92 76 
290 379 287 71 88 105 
378 410 355 167 148 131 
263 710 157 167 191 219 
191 672 487 64 89 118 
225 803 222 228 155 112 
154 213 441 85 48 54 
277 402 434 133 117 101 
192 973 354 77 56 49 
168 672 504 48 74 120 
171 718 460 33 68 96 
351 230 330 117 98 85 
276 390 229 47 94 144 
326 309 402 143 140 144 
371 385 393 193 77 8 
200 110 340 168 69 3 
154 204 444 79 64 72 
265 362 427 147 125 103 
164 321 382 151 148 152 
159 166 417 135 45 16 
188 663 337 160 157 162 
276 284 428 113 127 145 
181 715 391 77 102 146 
156 485 395 110 119 133 
293 139 401 130 88 68 
214 650 519 122 96 65 
234 592 244 45 57 75 
257 700 494 125 144 180 
295 620 308 127 91 79 
299 539 365 105 125 149 
297 412 428 79 103 144 
192 601 424 186 180 182 
307 345 412 102 110 120 
233 619 156 92 118 141 
293 500 357 93 105 144 
274 525 421 114 134 162 
161 871 347 77 62 48 
237 618 476 110 93 77 
194 621 282 166 166 176 
350 463 352 85 108 181 
324 174 422 82 51 73 
278 622 421 169 120 110 
216 681 259 87 96 111 
250 303 314 113 117 124 
350 120 375 103 91 81 
204 110 339 180 61 1 
209 921 322 109 86 67 
338 495 327 134 155 192 
173 815 306 172 131 99 
205 111 339 174 60 0 
273 664 148 148 155 169 
269 587 254 100 94 91 
184 649 350 68 115 153 
222 944 377 128 107 89 
269 393 250 133 138 149 
343 115 374 99 87 76 
357 312 325 103 108 117 
224 624 254 135 143 158 
314 168 429 106 42 70 
196 735 171 147 25 58 
197 112 343 150 64 5 
292 660 183 155 175 215 
180 308 347 113 87 97 
384 327 341 176 145 110 
199 113 341 154 59 7 
143 932 396 88 69 56 
277 91 396 124 116 112 
157 268 375 150 145 146 
225 831 320 193 146 116 
296 627 362 164 153 150 
275 693 159 156 184 217 
303 318 413 77 110 137 
363 237 396 62 97 124 
198 115 343 133 73 38 
182 556 296 143 156 176 
171 821 327 167 129 98 
186 684 482 80 97 115 
381 342 398 191 158 118 
260 722 440 139 170 203 
261 631 432 114 77 73 
269 625 192 99 91 83 
162 422 427 116 100 91 
239 622 432 91 74 70 
210 178 423 144 67 6 
298 454 386 105 114 169 
194 609 280 115 129 154 
284 511 398 66 55 153 
193 112 351 144 60 18 
254 293 279 151 121 92 
208 686 410 125 135 166 
345 235 412 153 148 150 
188 287 419 76 112 142 
268 317 422 103 119 138 
275 489 416 104 111 171 
251 618 471 113 93 72 
185 498 300 55 74 94 
141 936 391 102 83 70 
175 597 394 127 130 141 
204 635 503 96 81 68 
261 12 370 141 119 101 
251 320 271 123 127 135 
200 706 162 151 158 172 
195 114 351 136 61 7 
332 309 400 121 128 142 
159 438 399 79 100 136 
168 880 319 93 75 59 
235 787 419 118 110 114 
225 821 361 174 118 96 
267 589 262 91 85 83 
195 116 348 124 72 41 
325 427 416 139 155 178 
264 673 474 87 111 150 
233 616 471 83 76 70 
194 116 350 127 64 39 
183 710 457 63 87 109 
304 259 431 143 130 119 
284 414 425 70 93 123 
195 116 350 130 60 26 
280 712 216 59 50 86 
189 562 444 158 159 170 
195 118 348 105 99 93 
267 368 429 164 141 120 
261 755 394 125 145 171 
343 481 350 105 122 183 
276 562 396 64 103 141 
344 290 325 128 125 125 
252 336 417 156 136 117 
194 119 351 105 94 86 
209 889 428 151 116 94 
192 374 322 82 105 130 
277 690 161 158 184 213 
291 599 375 140 121 116 
190 529 284 129 139 156 
240 145 399 102 88 78 
362 135 357 132 115 103 
318 198 357 79 73 77 
183 702 467 90 102 116 
265 353 235 79 103 130 
173 153 438 141 76 18 
171 768 278 160 135 110 
204 698 155 119 135 159 
333 251 339 89 77 77 
199 879 420 168 128 108 
295 284 343 120 121 127 
279 602 236 114 102 92 
316 43 400 127 116 110 
202 652 525 119 96 70 
197 114 346 140 60 15 
253 321 258 134 136 144 
289 489 379 98 105 138 
288 599 400 154 105 96 
182 259 430 146 107 81 
182 681 541 180 133 110 
167 275 405 120 130 145 
172 771 428 160 160 165 
297 455 382 101 110 167 
220 597 235 60 119 163 
305 317 411 82 85 104 
205 732 201 133 25 37 
186 664 355 112 55 67 
137 923 385 79 64 54 
299 105 421 109 89 73 
201 706 521 128 140 191 
294 694 358 85 125 157 
196 117 346 101 88 78 
166 585 369 81 126 164 
188 631 315 80 130 167 
166 215 421 91 46 68 
164 518 331 136 140 151 
302 72 379 114 101 89 
169 199 434 46 42 54 
225 918 347 173 97 72 
168 460 338 172 167 171 
376 160 353 78 63 51 
294 124 432 101 92 85 
290 713 401 146 169 195 
235 238 321 139 145 158 
291 470 399 179 174 178 
245 541 241 102 121 143 
235 759 460 148 170 195 
253 652 143 84 79 78 
171 763 305 73 72 83 
267 366 231 58 94 124 
299 703 261 89 103 123 
288 180 437 52 47 63 
352 450 360 103 128 188 
234 378 425 134 14 59 
248 773 394 69 70 75 
165 748 381 152 29 36 
223 936 383 98 73 53 
263 284 260 146 114 84 
261 231 418 131 95 76 
137 982 362 163 137 115 
176 544 297 121 143 169 
260 787 287 201 146 114 
169 144 436 136 112 97 
186 742 257 87 79 74 
190 643 289 108 136 169 
193 122 351 81 90 102 
217 897 339 90 70 55 
197 314 338 122 64 71 
241 732 162 63 68 121 
183 358 338 58 87 119 
255 554 269 75 84 94 
293 265 438 96 118 142 
272 158 405 147 102 52 
311 509 274 136 147 167 
276 265 329 133 104 95 
131 974 351 123 96 72 
194 121 351 92 98 108 
284 756 294 207 158 122 
216 792 450 112 75 96 
403 199 362 121 74 67 
268 320 423 125 129 137 
306 506 267 118 134 159 
403 228 356 97 64 65 
170 789 316 66 94 117 
204 720 510 144 151 182 
294 724 326 147 132 122 
263 429 231 126 144 169 
250 471 234 60 95 126 
260 257 275 123 135 150 
262 382 234 79 112 145 
315 551 335 86 106 153 
325 232 349 109 85 81 
182 843 317 183 135 107 
220 595 235 83 84 106 
187 855 312 170 136 102 
152 943 403 122 94 79 
193 125 350 75 59 54 
278 262 335 147 117 104 
350 446 332 96 123 160 
196 684 208 59 85 147 
201 166 433 107 74 53 
166 353 370 168 121 60 
172 343 401 139 138 144 
315 301 337 71 93 115 
155 226 450 161 79 88 
190 618 401 59 76 138 
273 701 421 183 196 214 
213 617 208 99 115 132 
242 815 252 228 169 138 
278 476 444 101 119 153 
205 648 159 98 118 139 
306 716 300 181 155 136 
155 486 397 120 125 136 
317 396 310 103 92 80 
216 650 435 103 135 173 
227 350 420 167 144 121 
139 953 371 97 78 63 
236 431 280 73 91 111 
337 335 319 61 89 112 
167 798 387 142 128 119 
199 421 435 155 131 105 
258 300 260 145 113 92 
323 351 327 122 107 93 
232 578 235 89 108 126 
164 229 428 84 31 41 
181 781 446 152 132 134 
275 104 389 97 84 73 
243 145 411 104 94 85 
302 82 388 91 74 58 
197 896 300 80 65 56 
162 939 320 113 90 68 
205 444 446 161 70 8 
196 123 347 74 60 67 
177 389 347 59 91 131 
301 593 311 172 120 112 
220 324 328 108 123 140 
198 123 344 99 58 67 
233 621 443 64 54 53 
284 405 234 95 123 166 
197 124 344 108 75 65 
187 211 426 119 74 88 
274 771 303 204 147 114 
273 583 267 84 81 82 
370 255 394 60 95 122 
222 385 305 122 128 139 
227 190 397 63 78 92 
183 659 488 92 103 148 
171 750 281 138 108 74 
199 854 379 98 75 47 
396 229 389 83 88 102 
169 783 328 137 120 105 
256 339 248 74 108 137 
353 118 400 113 101 93 
189 663 303 133 114 127 
229 618 471 87 78 73 
180 606 389 88 134 194 
178 606 326 126 90 105 
255 631 460 153 104 85 
337 378 405 116 146 178 
199 695 400 104 110 144 
172 716 460 27 62 89 
280 154 433 95 108 124 
368 294 397 127 20 51 
189 441 325 113 133 164 
292 567 284 95 118 143 
182 377 422 145 15 61 
225 429 440 168 71 4 
211 270 336 144 148 159 
157 891 399 146 110 83 
232 655 495 150 102 79 
188 545 448 116 128 156 
175 714 347 139 146 158 
301 624 279 89 99 110 
240 914 363 148 107 77 
255 425 440 138 129 127 
234 815 357 197 132 116 
282 432 430 92 108 142 
209 706 203 129 147 169 
203 633 469 67 91 112 
191 719 412 130 137 149 
255 645 163 91 83 78 
215 917 331 83 68 60 
255 152 393 155 96 69 
311 478 263 102 130 161 
342 490 337 92 124 192 
176 449 436 118 104 91 
303 673 332 126 96 65 
302 625 239 17 58 88 
297 602 335 161 98 99 
262 623 456 169 117 99 
251 759 403 109 135 161 
302 645 215 65 106 143 
202 117 341 113 114 119 
229 871 375 158 126 94 
173 761 457 75 113 180 
298 663 372 155 167 185 
361 415 385 144 150 166 
184 470 337 78 93 109 
203 119 341 100 96 104 
230 549 460 139 145 159 
362 318 329 121 32 36 
309 87 417 111 93 76 
186 766 235 122 107 94 
313 43 381 98 82 64 
201 636 504 96 82 69 
249 318 265 123 132 146 
170 800 304 127 119 117 
291 533 267 135 141 151 
214 613 272 95 113 132 
286 614 217 105 89 72 
341 339 317 112 110 110 
179 929 426 191 150 127 
208 684 265 73 89 107 
306 453 370 116 124 152 
225 540 248 134 139 150 
258 794 296 206 150 118 
196 146 385 69 60 52 
383 161 385 93 102 113 
200 807 433 133 34 61 
148 506 406 106 118 140 
296 706 389 87 134 171 
207 115 340 146 81 52 
315 162 430 100 49 78 
287 745 327 81 89 100 
300 677 367 131 152 176 
347 153 418 117 44 61 
272 418 432 94 110 138 
335 505 341 183 194 211 
211 629 460 62 90 121 
201 947 414 211 160 137 
268 769 354 141 137 138 
167 769 342 93 85 84 
301 450 384 152 153 169 
329 369 315 120 102 85 
179 672 542 151 114 92 
227 578 252 94 56 72 
190 160 427 92 56 37 
207 117 341 111 108 112 
196 471 450 93 92 126 
246 174 407 111 100 99 
253 756 413 169 89 97 
308 636 304 77 77 84 
165 304 421 119 112 106 
227 671 476 70 80 119 
294 698 362 116 139 164 
214 317 415 166 143 121 
189 719 434 81 91 113 
255 291 277 141 109 80 
193 399 425 162 138 114 
313 463 263 106 123 152 
218 759 186 202 161 126 
302 319 335 75 106 139 
304 681 351 173 153 134 
292 644 385 73 126 164 
355 346 401 160 55 102 
270 602 234 105 97 93 
166 280 393 92 114 139 
293 421 430 90 109 147 
203 120 341 96 74 79 
202 120 342 90 67 78 
276 250 336 128 62 66 
236 290 329 144 145 152 
220 878 343 140 99 72 
312 502 273 119 139 169 
188 440 436 130 81 27 
148 517 396 87 104 147 
250 642 157 78 67 59 
188 665 332 160 157 162 
200 124 343 117 72 63 
205 888 319 100 76 60 
303 690 350 86 75 95 
189 626 293 159 160 169 
167 692 534 74 106 166 
191 855 303 154 117 88 
193 689 471 93 111 130 
390 289 398 152 157 169 
359 428 333 111 99 91 
172 361 399 111 125 142 
330 463 301 97 119 144 
227 902 405 208 152 125 
262 378 233 120 134 150 
237 271 406 76 107 132 
276 319 312 86 92 100 
202 127 342 126 94 73 
209 669 151 123 139 162 
206 658 221 141 149 166 
232 706 507 142 155 189 
310 412 429 101 130 160 
302 299 427 77 117 149 
304 623 349 111 65 76 
161 216 409 136 38 20 
339 459 313 131 152 178 
165 286 432 140 127 134 
156 676 515 67 101 148 
302 698 263 118 124 143 
257 348 254 76 114 150 
188 838 299 211 160 128 
331 433 371 52 77 143 
278 174 390 145 41 5 
177 428 431 164 76 9 
206 122 342 118 54 57 
325 80 411 102 89 78 
221 483 453 107 129 154 
279 547 396 157 147 145 
392 374 366 195 161 124 
168 768 339 130 105 80 
357 335 403 155 80 106 
396 310 346 171 151 134 
204 125 343 129 85 75 
369 194 394 71 45 47 
349 469 348 133 150 185 
253 383 283 61 84 105 
280 716 218 114 130 155 
333 196 327 103 99 107 
232 549 229 83 108 131 
273 573 273 80 80 83 
283 594 399 83 75 72 
284 348 436 181 157 133 
154 486 412 93 112 139 
206 124 343 133 78 70 
161 407 428 165 106 72 
305 411 286 41 72 95 
328 206 334 99 96 106 
372 371 334 125 29 49 
354 198 335 131 56 67 
276 696 188 177 15 14 
268 632 182 101 90 80 
171 210 443 136 116 107 
308 405 428 58 94 146 
289 639 181 124 133 146 
174 844 328 176 133 104 
243 808 230 210 152 118 
162 244 446 109 86 109 
286 326 253 97 112 128 
208 99 337 109 96 90 
214 803 441 210 147 112 
399 308 352 124 32 63 
176 655 486 99 118 161 
339 453 371 65 82 113 
146 918 327 87 66 50 
305 699 270 102 95 90 
278 340 242 69 101 131 
270 325 300 108 109 114 
214 671 221 117 144 171 
211 939 409 196 146 118 
218 776 462 170 181 197 
379 273 333 140 139 142 
275 581 401 121 138 158 
365 275 330 72 91 109 
320 216 352 102 59 51 
275 497 414 179 177 182 
296 108 421 99 81 61 
297 668 382 129 135 146 
183 445 437 129 114 100 
188 663 536 122 98 72 
182 649 513 102 85 69 
330 46 404 118 102 89 
234 821 303 227 170 144 
183 305 346 123 113 113 
201 735 501 133 154 209 
176 248 437 103 102 113 
193 869 311 120 85 60 
156 257 431 117 83 76 
202 520 273 141 139 143 
169 762 327 129 110 93 
282 598 413 117 96 82 
170 161 448 132 90 55 
210 102 336 136 105 70 
295 262 346 109 83 82 
287 475 412 157 168 191 
170 710 521 139 136 196 
201 410 433 157 132 105 
153 926 321 102 80 55 
187 623 324 75 126 165 
169 992 338 141 113 83 
399 322 383 166 137 108 
337 324 322 78 99 118 
190 417 317 162 160 164 
247 801 262 201 152 114 
160 537 343 120 137 157 
222 618 266 126 131 141 
216 638 150 62 92 119 
303 470 359 151 154 168 
295 654 190 98 149 204 
190 777 215 142 122 107 
288 310 327 91 114 138 
231 892 366 158 123 91 
173 969 399 103 85 74 
272 578 273 52 57 67 
214 99 337 103 92 82 
206 637 161 50 84 119 
167 808 361 180 155 133 
175 863 368 126 101 74 
170 348 390 98 119 141 
362 259 400 146 142 144 
233 387 427 137 12 61 
172 863 392 135 109 81 
227 664 489 70 58 66 
339 326 403 152 101 36 
186 555 445 108 126 159 
246 764 419 214 138 146 
176 460 439 131 36 84 
317 464 274 121 137 161 
312 175 363 45 75 97 
209 141 385 73 62 51 
302 624 248 67 93 116 
306 675 336 168 123 63 
156 507 429 147 149 158 
198 788 457 99 100 149 
261 528 261 72 96 119 
348 154 338 126 68 24 
209 670 182 65 88 136 
198 402 314 82 107 134 
255 528 448 192 190 197 
204 525 272 124 124 130 
225 871 346 157 113 84 
171 766 415 161 26 49 
230 887 367 151 116 78 
217 317 413 151 135 124 
212 673 432 104 136 168 
249 639 454 52 41 53 
292 85 404 92 81 71 
189 549 286 142 152 167 
178 864 317 134 102 73 
279 639 417 87 100 116 
249 760 416 191 151 105 
263 659 461 55 98 130 
288 670 401 107 124 157 
209 377 427 168 143 117 
201 968 379 114 94 82 
330 371 420 62 111 146 
172 761 446 92 114 161 
245 430 438 140 123 107 
221 944 383 107 83 70 
233 757 465 144 172 203 
281 543 390 187 176 174 
238 770 444 78 63 143 
199 572 446 102 119 158 
196 705 404 43 50 77 
198 876 316 127 94 74 
270 509 450 171 177 193 
404 240 365 122 16 61 
171 807 297 162 122 93 
351 126 403 140 68 3 
209 110 337 183 74 0 
289 479 400 116 122 163 
274 522 419 177 172 174 
192 716 178 137 149 164 
210 109 336 183 68 0 
328 489 307 170 177 193 
274 642 431 82 107 132 
159 361 425 123 148 174 
190 631 368 92 94 118 
188 615 341 60 111 148 
183 786 445 121 127 156 
211 110 337 183 67 0 
224 610 251 135 144 159 
192 618 294 155 157 166 
352 202 334 126 60 69 
245 742 465 136 166 197 
351 297 401 115 131 157 
355 123 384 105 98 93 
206 646 519 114 91 67 
167 140 418 124 99 75 
274 667 149 58 102 138 
181 874 311 106 79 63 
251 680 133 166 177 224 
300 664 362 136 155 178 
282 703 228 131 103 80 
220 360 311 88 109 129 
200 823 384 79 99 118 
183 610 405 155 166 187 
215 107 336 181 69 0 
328 177 421 39 53 84 
304 286 424 107 132 157 
327 94 414 115 96 78 
315 331 333 119 118 123 
251 792 228 197 145 110 
215 515 266 122 123 129 
145 907 394 72 59 47 
204 511 274 105 122 141 
210 848 305 159 114 75 
195 849 301 185 137 102 
172 145 385 82 50 84 
312 665 304 150 103 42 
211 697 257 107 115 127 
179 737 266 69 64 75 
221 497 455 90 111 145 
204 675 171 42 75 134 
300 700 352 156 132 116 
197 655 528 115 92 68 
295 241 437 160 153 148 
201 908 307 103 77 60 
195 827 272 222 163 134 
285 745 331 192 173 160 
292 144 397 140 93 75 
202 610 276 101 114 144 
230 795 411 157 137 126 
215 718 210 125 43 46 
225 876 406 180 136 114 
322 31 395 92 82 74 
316 540 326 81 87 114 
169 816 353 111 92 79 
296 87 389 88 69 67 
268 712 169 140 145 154 
287 273 346 155 74 0 
204 696 408 151 157 170 
166 505 331 98 110 127 
233 751 473 153 174 200 
271 275 263 114 108 106 
225 663 508 151 105 79 
271 229 335 103 47 54 
397 178 379 40 70 97 
148 951 393 83 66 56 
349 36 395 116 107 103 
197 576 274 151 150 155 
258 157 417 140 66 11 
274 12 395 111 84 67 
344 58 385 104 86 68 
216 700 248 112 122 135 
269 589 423 58 99 131 
306 703 284 98 94 100 
230 345 417 132 45 64 
378 153 358 91 88 84 
290 149 394 120 98 90 
189 668 324 120 138 160 
216 103 336 147 73 25 
240 774 411 134 118 107 
186 858 404 131 105 78 
169 566 424 207 194 188 
252 315 297 122 123 129 
180 720 449 77 92 107 
163 435 387 76 93 132 
269 134 427 89 82 77 
187 851 312 170 130 93 
296 695 392 132 156 182 
167 309 355 143 104 120 
269 261 283 113 114 120 
232 273 404 79 114 143 
321 136 336 121 78 28 
369 293 331 138 138 144 
281 692 411 120 147 175 
171 408 350 54 89 130 
191 636 357 67 107 139 
215 809 430 159 128 114 
296 674 355 114 134 156 
290 618 387 131 96 85 
158 455 398 76 98 135 
261 482 237 107 126 151 
197 203 418 112 84 77 
290 732 363 141 112 92 
270 137 430 123 109 97 
343 184 416 92 54 59 
303 419 430 50 85 134 
207 655 402 82 109 161 
142 907 335 62 50 41 
163 569 344 101 123 145 
332 469 360 66 81 107 
161 217 408 136 37 22 
268 757 385 177 140 105 
335 244 337 114 46 63 
210 805 438 187 119 136 
133 940 349 101 78 58 
302 385 260 88 111 134 
160 980 372 128 104 80 
228 619 457 74 68 65 
298 646 200 126 149 190 
188 305 417 80 107 130 
179 572 302 178 179 187 
221 657 246 85 134 172 
167 358 369 149 119 87 
202 681 268 67 93 118 
274 628 421 151 104 96 
238 792 388 188 141 88 
356 426 327 141 126 118 
262 246 419 116 26 61 
384 275 336 149 153 163 
163 284 357 135 142 156 
213 265 408 100 49 73 
180 279 344 119 120 127 
214 167 418 111 97 84 
201 827 265 245 175 132 
160 703 516 141 142 190 
273 134 424 129 115 102 
164 734 481 125 125 177 
358 130 393 140 67 6 
278 748 253 175 156 143 
223 101 339 100 76 50 
189 478 450 88 113 140 
225 553 244 121 125 134 
250 554 442 33 64 104 
205 676 193 117 124 135 
244 755 185 161 158 160 
366 420 361 183 151 147 
281 692 185 174 25 72 
249 653 467 149 146 148 
329 391 421 101 125 154 
243 637 147 85 94 106 
217 104 336 160 68 13 
271 697 456 79 62 130 
275 598 425 111 97 85 
331 511 330 148 167 207 
393 166 361 47 67 83 
239 517 454 165 162 168 
227 573 248 75 110 138 
218 105 336 168 77 3 
168 155 433 142 72 7 
206 699 206 111 119 131 
263 418 244 74 97 118 
276 750 251 181 158 150 
366 178 341 92 72 80 
201 517 274 141 142 148 
358 436 375 166 178 200 
179 714 323 131 145 163 
257 771 217 157 158 167 
196 670 537 146 104 78 
196 638 478 53 83 109 
216 111 336 178 60 0 
262 708 154 186 199 218 
217 110 336 183 66 0 
217 111 336 180 63 0 
188 633 295 151 157 170 
265 345 424 155 135 114 
290 306 435 81 119 152 
245 304 322 121 130 144 
255 640 433 59 68 93 
161 176 404 126 54 41 
248 144 415 106 95 87 
183 581 301 94 145 184 
258 603 447 97 89 85 
182 766 467 130 145 201 
143 879 359 85 72 59 
304 172 374 94 43 13 
305 146 352 108 97 81 
166 744 466 107 122 179 
150 534 384 93 120 151 
310 694 288 177 84 40 
400 242 388 106 59 79 
222 104 337 133 67 30 
323 250 411 128 132 143 
183 219 427 98 100 109 
238 817 258 229 168 137 
281 618 417 169 120 106 
296 141 374 78 69 61 
211 623 197 68 93 120 
304 312 413 69 113 148 
344 51 393 114 94 73 
220 109 336 184 75 0 
337 380 401 71 99 155 
268 762 271 152 113 81 
177 773 257 138 117 98 
267 259 288 98 97 99 
220 673 237 108 134 164 
232 654 137 106 135 170 
179 640 357 58 108 150 
376 399 342 173 137 95 
333 29 372 122 106 92 
320 248 412 108 117 131 
142 938 329 87 65 45 
169 246 416 112 19 45 
330 33 367 127 109 91 
223 111 336 185 69 2 
304 654 257 109 140 169 
250 144 403 135 110 94 
387 186 385 90 85 98 
208 113 339 172 72 29 
187 954 412 184 137 114 
173 240 419 78 39 59 
299 658 361 122 144 167 
268 680 470 152 160 176 
275 645 436 80 104 145 
288 731 390 214 142 138 
273 617 436 173 120 108 
209 650 215 89 97 108 
321 45 361 147 128 114 
293 397 422 77 92 115 
334 332 406 152 120 83 
321 200 353 84 61 72 
259 602 237 89 88 90 
300 174 384 106 43 13 
293 479 363 120 124 160 
297 380 297 90 95 102 
272 587 406 66 96 124 
298 377 251 96 117 139 
261 186 357 97 41 25 
229 327 325 128 131 140 
210 115 340 153 81 58 
141 905 339 60 50 43 
201 693 442 63 102 147 
280 325 282 126 99 71 
241 808 351 214 148 128 
209 642 465 41 47 87 
215 307 413 121 136 154 
279 560 273 120 121 128 
251 384 287 48 80 107 
202 686 159 147 152 165 
162 193 400 51 48 70 
314 449 425 127 148 176 
165 735 459 155 164 179 
192 719 262 81 62 65 
174 879 414 149 113 88 
306 123 374 96 80 63 
275 700 194 116 80 99 
251 541 258 79 98 119 
312 186 364 78 60 48 
210 119 341 123 107 112 
267 663 459 39 64 96 
174 729 395 86 116 144 
312 225 418 130 15 67 
233 672 486 72 87 107 
293 729 269 204 162 111 
210 396 434 128 28 62 
277 640 425 69 99 130 
230 541 461 150 158 171 
260 35 372 114 90 65 
203 776 205 224 187 133 
132 910 356 87 71 58 
341 41 403 149 137 131 
223 776 458 166 184 209 
252 143 419 105 95 88 
214 112 337 180 75 10 
161 561 364 218 202 194 
184 611 403 151 164 190 
214 113 338 177 75 24 
254 304 290 88 106 125 
168 719 465 80 99 120 
189 286 418 79 105 128 
220 689 245 110 124 144 
207 913 415 94 65 55 
237 410 292 83 99 119 
257 688 140 95 125 212 
195 721 260 87 48 51 
177 799 265 141 122 108 
217 569 456 57 95 126 
273 546 421 123 147 173 
229 653 505 159 109 85 
330 399 417 111 133 157 
169 727 379 78 90 110 
287 502 383 106 127 154 
249 266 309 86 118 146 
386 139 379 107 86 75 
258 38 367 111 87 62 
372 398 384 141 126 114 
203 290 411 88 122 151 
204 718 160 179 13 30 
207 631 419 124 146 185 
254 309 293 96 107 122 
293 650 230 114 152 185 
295 508 357 108 121 145 
264 784 319 215 157 131 
174 601 369 80 140 180 
278 489 447 164 165 175 
176 905 422 113 89 74 
274 765 338 132 137 148 
214 850 319 175 128 99 
287 741 331 193 161 135 
266 392 259 63 89 110 
309 410 271 51 87 116 
209 120 343 117 45 54 
165 573 406 130 139 162 
220 659 250 72 125 164 
304 627 236 50 72 100 
288 315 436 145 151 162 
199 869 418 120 55 60 
157 478 371 137 143 156 
253 635 178 76 73 73 
306 371 315 119 110 104 
226 740 168 222 180 124 
166 527 311 100 122 145 
398 175 375 54 76 100 
255 568 272 81 82 85 
193 566 279 97 138 172 
326 163 422 99 46 70 
201 626 414 91 119 181 
132 909 367 77 65 54 
209 124 343 135 61 60 
258 357 281 57 95 138 
183 456 440 139 113 105 
161 259 356 117 84 84 
199 690 456 38 78 116 
211 472 451 133 115 99 
169 379 410 116 122 134 
289 284 437 156 154 157 
247 639 165 54 102 135 
196 770 198 221 203 191 
314 464 264 120 132 152 
309 562 329 70 85 118 
394 189 382 114 76 94 
178 382 347 57 91 132 
196 737 248 75 72 71 
239 620 445 78 66 63 
213 121 342 146 56 73 
174 689 538 176 129 109 
287 610 231 134 104 73 
322 189 340 119 83 65 
344 271 328 81 111 138 
270 739 215 158 132 108 
303 652 263 76 113 143 
215 120 341 144 59 77 
289 676 235 58 101 134 
123 964 329 154 130 108 
225 546 244 104 129 154 
345 248 329 106 92 102 
298 689 330 97 82 72 
353 171 388 39 43 70 
297 649 233 134 166 197 
168 208 436 71 63 74 
226 169 397 113 55 11 
303 321 335 78 115 145 
282 668 212 122 154 185 
286 481 444 100 120 152 
238 446 251 88 106 126 
328 376 421 48 103 146 
265 381 242 142 148 162 
302 156 375 66 59 54 
317 474 355 62 84 124 
225 860 367 179 141 108 
165 172 423 48 55 68 
288 321 261 103 63 66 
192 634 390 122 133 150 
173 571 425 138 147 168 
270 274 425 151 149 154 
299 370 306 84 83 85 
210 714 249 105 63 72 
213 408 437 173 148 123 
212 433 313 115 119 126 
396 346 386 136 124 140 
294 625 310 105 97 92 
272 256 323 92 81 92 
334 421 377 79 93 148 
173 373 356 107 124 152 
214 125 344 142 60 62 
174 811 289 176 130 103 
275 614 201 111 98 87 
364 364 326 139 26 58 
272 477 248 81 105 151 
193 467 448 126 100 93 
298 388 249 96 118 141 
162 406 383 49 87 129 
216 113 337 173 60 19 
267 333 242 74 103 129 
160 397 426 177 92 26 
180 316 346 98 100 108 
250 424 437 131 121 114 
276 192 430 100 40 62 
181 976 380 108 89 75 
336 120 355 84 79 75 
270 755 238 132 97 90 
167 373 395 99 110 129 
250 318 271 140 139 143 
167 391 374 71 104 135 
260 171 371 129 74 50 
215 897 333 85 68 57 
219 936 339 81 64 56 
218 264 407 111 69 89 
211 733 220 119 52 48 
308 159 359 144 67 1 
214 852 405 111 89 65 
174 265 435 154 90 95 
297 506 347 101 104 134 
253 376 425 165 144 126 
282 682 168 140 170 201 
312 188 422 45 53 92 
158 182 445 130 93 92 
263 467 437 135 142 155 
259 222 319 73 29 32 
277 549 266 113 128 147 
367 199 398 71 40 49 
217 117 339 123 123 132 
287 668 399 94 117 158 
159 303 423 150 149 154 
384 396 361 200 88 10 
307 223 426 128 23 55 
317 517 305 134 151 174 
247 189 408 114 88 80 
253 232 412 118 59 77 
320 185 421 52 65 92 
215 508 459 177 171 172 
171 769 298 135 117 102 
146 966 363 101 79 54 
298 74 388 95 80 64 
214 474 279 83 97 112 
161 904 412 150 120 92 
219 118 340 137 85 94 
285 530 263 129 136 149 
267 168 390 146 38 6 
265 398 240 61 100 129 
368 403 386 144 127 116 
259 743 194 142 131 125 
326 383 317 100 78 59 
234 547 229 90 114 137 
173 824 324 169 128 101 
282 335 282 125 96 63 
216 775 465 160 179 204 
207 555 455 84 97 140 
143 895 380 74 57 45 
222 938 350 78 63 53 
183 368 421 132 81 101 
219 671 514 140 98 75 
287 663 204 141 173 206 
236 355 419 171 147 125 
223 113 337 177 73 13 
222 114 337 169 82 23 
192 685 285 90 113 137 
182 508 292 62 93 125 
400 315 356 151 123 89 
318 231 357 80 77 77 
308 607 354 169 170 178 
200 730 192 140 43 60 
304 550 360 135 146 166 
314 481 270 13 66 140 
255 300 415 144 144 150 
292 81 398 97 83 68 
285 729 399 101 143 175 
385 273 336 150 151 158 
334 116 362 98 86 74 
163 381 380 89 108 135 
299 565 293 133 152 176 
275 339 297 97 99 105 
189 810 255 187 133 101 
267 761 380 150 134 123 
261 363 426 163 141 119 
290 598 245 129 106 84 
164 338 379 171 135 98 
133 934 377 76 61 49 
158 337 425 153 157 168 
221 119 340 148 37 68 
277 553 398 174 169 170 
210 717 247 114 28 35 
310 453 258 95 124 155 
308 505 269 153 159 174 
266 278 292 97 106 117 
204 664 395 57 86 143 
320 509 354 58 77 107 
223 671 477 86 98 117 
267 479 442 95 114 151 
169 808 379 162 141 125 
173 736 312 133 23 40 
225 731 162 117 99 173 
173 725 386 113 129 149 
217 123 342 144 45 69 
218 120 341 150 52 77 
212 619 206 94 112 131 
219 120 341 150 47 71 
328 454 361 80 95 124 
183 474 337 80 91 105 
218 122 342 142 52 78 
192 403 316 130 137 149 
333 187 328 109 93 88 
316 190 360 41 66 84 
296 582 361 145 140 143 
147 972 313 85 66 56 
213 346 420 170 144 115 
274 293 425 92 115 138 
256 646 165 91 84 78 
344 104 386 110 99 90 
358 132 382 113 60 3 
247 220 409 111 52 71 
225 433 295 111 115 123 
278 620 197 105 95 86 
324 273 407 73 113 144 
179 401 425 179 154 127 
236 782 417 151 110 97 
343 399 307 149 68 0 
329 424 298 107 121 137 
285 102 413 102 74 45 
287 597 400 137 97 86 
171 659 516 104 87 71 
149 524 417 129 136 157 
289 304 334 123 132 146 
236 626 486 112 91 68 
292 742 320 190 177 170 
161 291 364 132 139 152 
322 421 299 41 64 85 
311 57 395 116 107 102 
367 312 332 140 18 55 
269 539 402 134 147 166 
378 349 339 155 133 111 
188 275 342 154 153 160 
316 391 425 110 128 149 
329 80 374 87 76 67 
262 358 254 122 139 161 
222 766 192 153 130 115 
335 25 386 106 93 82 
182 703 330 120 134 152 
169 390 412 142 117 108 
220 124 342 138 67 62 
296 707 370 97 132 162 
195 853 402 117 95 72 
224 662 508 153 107 81 
308 645 320 174 135 89 
241 808 266 212 155 121 
188 669 339 157 156 162 
236 469 449 147 152 163 
192 954 325 151 119 86 
221 126 343 110 65 30 
246 592 267 67 73 82 
210 622 208 98 119 142 
183 926 308 62 45 31 
201 687 170 62 96 126 
173 656 497 100 113 128 
245 551 457 176 174 181 
192 480 310 91 98 108 
199 636 283 103 118 148 
264 741 204 31 24 40 
170 429 375 96 111 132 
208 513 272 132 133 139 
307 310 410 71 106 132 
306 495 348 125 131 148 
245 581 266 70 79 90 
294 410 427 91 109 142 
216 125 344 147 60 61 
208 544 268 85 127 163 
359 440 337 136 121 115 
302 583 330 88 111 141 
200 664 389 61 87 147 
300 462 437 118 126 164 
211 868 325 177 136 106 
164 278 435 153 55 97 
285 602 256 142 97 83 
175 923 426 177 136 112 
198 270 412 116 25 59 
261 425 233 137 147 162 
287 588 387 103 86 78 
170 790 292 143 117 99 
237 549 230 86 116 144 
205 677 268 64 90 114 
245 181 406 78 81 96 
203 859 310 140 113 89 
226 246 402 35 55 86 
218 512 459 125 138 160 
285 657 425 97 118 164 
260 773 375 169 141 116 
181 904 306 85 63 46 
224 624 262 132 138 150 
239 630 487 121 93 65 
162 441 406 64 88 129 
158 475 413 96 117 142 
180 776 454 176 187 205 
364 425 362 101 112 178 
312 391 304 86 95 107 
215 408 308 136 142 155 
350 39 387 127 111 105 
220 220 399 110 46 50 
241 291 409 76 114 145 
248 268 315 82 120 152 
296 714 392 128 159 190 
170 287 349 109 96 92 
316 126 436 111 69 15 
360 15 383 122 103 85 
193 838 292 214 160 122 
370 302 397 128 31 50 
283 532 264 100 118 141 
221 687 231 150 153 163 
257 212 416 54 82 106 
403 268 369 83 103 122 
272 327 244 140 141 147 
171 471 442 115 130 151 
292 224 360 98 57 55 
169 568 351 86 107 128 
175 980 358 120 73 54 
184 711 277 142 52 61 
342 18 396 94 85 79 
231 341 417 137 39 73 
291 382 418 94 106 127 
211 276 337 131 143 163 
366 149 350 131 74 14 
197 100 353 90 77 65 
280 509 406 109 120 167 
308 711 296 103 116 138 
342 489 336 72 104 182 
349 129 411 144 65 5 
197 101 355 86 75 63 
168 353 424 103 134 165 
137 912 340 66 55 45 
246 637 478 159 110 91 
390 250 399 76 108 129 
327 363 320 127 110 93 
174 430 432 139 98 43 
278 131 426 119 106 95 
246 790 216 203 157 118 
132 939 368 86 69 57 
159 273 364 134 134 140 
199 920 310 62 46 39 
208 353 320 67 101 128 
203 712 258 91 42 42 
405 245 380 135 29 81 
329 504 322 97 113 137 
282 618 270 22 45 63 
168 920 423 167 131 107 
217 836 309 190 140 110 
228 598 238 54 78 101 
248 609 192 82 105 126 
169 807 329 96 70 44 
197 698 194 103 115 161 
274 596 414 52 57 62 
222 622 467 77 71 69 
377 412 353 125 106 89 
193 681 287 82 97 120 
277 466 245 174 175 186 
172 751 287 144 111 77 
348 26 401 142 132 127 
286 257 434 143 143 149 
223 937 354 91 75 60 
286 658 413 93 120 183 
286 315 436 132 138 149 
261 765 218 119 108 110 
405 245 378 134 43 82 
173 600 386 200 200 210 
162 710 483 160 158 164 
151 891 335 95 82 71 
133 924 374 76 62 53 
292 644 371 63 60 62 
178 242 435 91 109 131 
185 465 445 126 77 105 
266 691 478 82 111 170 
379 268 334 135 136 141 
183 702 466 86 100 116 
301 560 342 107 121 143 
253 288 309 143 143 149 
199 100 361 84 72 60 
148 519 391 117 125 143 
165 790 389 49 49 52 
209 729 236 111 48 45 
178 338 421 151 159 173 
293 338 320 126 124 128 
261 411 438 115 101 88 
238 398 295 90 107 125 
287 636 182 102 121 140 
173 549 302 116 139 168 
300 494 349 99 105 141 
324 363 323 119 103 88 
252 407 259 87 106 125 
180 713 455 57 83 104 
319 428 293 58 84 109 
359 433 377 143 166 197 
333 378 417 54 113 152 
225 863 384 125 99 68 
318 226 357 113 66 64 
167 427 378 79 104 132 
208 824 377 153 101 84 
231 164 399 106 52 10 
277 303 317 78 90 103 
171 761 304 126 117 116 
299 122 421 82 71 60 
292 348 253 73 100 124 
236 699 507 125 140 183 
244 615 444 82 72 68 
211 637 446 100 118 166 
238 768 445 79 66 122 
325 151 429 102 36 31 
300 530 272 107 126 152 
274 707 195 141 58 52 
209 603 437 36 65 92 
176 742 429 47 88 118 
184 564 439 108 123 159 
299 659 347 115 86 96 
271 653 447 107 129 153 
177 686 371 74 105 136 
181 495 308 95 102 111 
344 228 412 110 74 79 
316 334 410 89 109 129 
295 693 363 97 129 157 
285 684 182 160 185 213 
293 471 411 165 177 197 
235 885 384 167 122 87 
262 647 166 101 90 82 
201 890 314 87 67 50 
173 731 312 106 23 35 
263 376 230 76 106 145 
271 740 403 163 59 93 
245 553 455 117 136 163 
169 816 360 132 137 147 
229 927 374 106 84 64 
303 109 391 89 73 54 
311 314 336 76 105 129 
235 816 290 195 142 109 
224 617 433 72 84 118 
300 648 207 33 55 126 
279 91 406 124 118 115 
331 395 411 116 128 159 
195 108 358 102 81 60 
397 178 378 41 67 95 
195 109 359 107 87 70 
295 342 319 129 129 133 
208 335 418 159 147 139 
234 909 357 175 120 94 
366 184 393 69 39 35 
207 490 277 64 89 116 
334 290 328 124 123 126 
190 764 200 148 129 112 
243 320 320 99 111 126 
266 698 475 126 150 175 
180 333 344 125 140 161 
202 452 321 50 78 110 
221 678 235 150 155 168 
312 456 420 119 130 170 
294 554 278 86 107 136 
264 714 451 80 114 189 
183 522 290 118 131 150 
296 707 320 122 102 87 
254 275 293 135 136 142 
197 106 359 82 71 62 
241 688 141 148 164 201 
198 104 358 78 67 58 
277 307 317 78 88 99 
198 105 359 79 69 59 
368 413 364 175 28 88 
226 862 362 182 142 113 
217 699 513 136 153 177 
227 863 405 175 134 106 
289 576 287 57 88 114 
320 449 287 80 102 131 
208 490 456 136 146 162 
308 537 346 64 85 120 
388 154 364 73 74 76 
354 446 360 116 142 190 
167 713 471 51 79 110 
168 576 368 175 160 152 
170 591 378 88 139 178 
260 166 378 135 70 33 
216 528 460 175 169 171 
322 351 328 107 97 89 
304 106 421 101 85 70 
169 392 417 99 84 70 
178 836 364 171 123 93 
209 452 310 111 112 117 
275 12 388 121 96 80 
165 801 369 144 124 106 
182 605 331 58 102 137 
338 312 323 105 112 122 
168 969 396 115 94 79 
302 673 352 75 80 91 
164 773 368 90 72 65 
146 904 335 67 55 46 
197 647 520 102 85 68 
199 105 360 75 64 52 
301 120 430 86 70 52 
219 483 269 75 96 119 
165 273 354 154 148 149 
311 166 435 55 51 76 
157 321 425 82 130 168 
316 473 270 85 114 151 
211 668 453 116 140 173 
291 354 249 103 119 138 
233 365 421 170 145 120 
204 263 337 145 121 114 
275 374 230 71 104 134 
191 415 316 112 125 145 
189 673 319 77 123 158 
349 131 404 146 63 4 
233 360 308 74 101 127 
237 448 251 91 108 127 
255 751 193 185 160 139 
205 924 316 76 58 49 
209 943 328 113 93 76 
354 446 365 94 124 188 
151 549 384 192 182 177 
256 421 440 107 98 94 
254 242 412 123 91 86 
326 115 368 95 84 73 
272 454 241 74 99 171 
267 12 400 120 95 79 
172 813 382 157 134 113 
287 597 398 144 100 91 
182 199 435 135 56 77 
309 176 432 110 29 46 
266 193 364 124 35 25 
301 356 319 103 113 125 
344 465 372 146 168 200 
164 421 434 158 121 77 
208 735 499 145 144 194 
297 665 379 96 99 107 
163 415 401 80 99 136 
321 435 411 112 130 171 
