ply
format ascii 1.0
comment Created by CloudCompare v2.11.1 (Anoia)
comment Created 2/28/22 9:39 PM
obj_info Generated by CloudCompare!
element vertex 2003
property float x
property float y
property float z
property uchar red
property uchar green
property uchar blue
end_header
295 685 377 133 150 171 
160 499 430 112 126 145 
209 659 188 117 123 135 
211 642 153 112 123 137 
350 470 331 133 153 203 
212 702 250 107 113 123 
313 497 283 155 169 187 
250 720 156 171 79 74 
212 856 377 123 100 74 
170 947 315 158 122 89 
295 359 433 101 129 158 
407 299 364 160 159 166 
323 120 409 96 88 81 
299 135 375 84 68 55 
186 116 371 139 81 39 
297 470 385 128 139 174 
187 116 370 142 72 30 
256 206 304 89 41 48 
312 412 267 34 78 110 
272 594 414 41 63 82 
179 830 300 191 141 112 
187 119 369 152 62 7 
167 756 380 62 41 46 
173 832 347 176 132 104 
290 579 374 65 111 146 
306 653 266 87 123 154 
293 611 369 172 162 158 
362 208 390 96 28 27 
375 234 330 69 62 84 
154 511 377 94 111 132 
147 902 388 67 54 44 
169 147 431 152 75 23 
246 694 139 119 141 204 
315 280 427 136 136 143 
248 604 209 97 113 133 
172 586 404 116 144 179 
340 78 379 99 83 67 
263 488 250 95 109 125 
226 622 452 71 72 77 
250 796 234 181 136 103 
282 670 194 128 165 200 
293 700 355 88 124 153 
133 959 321 106 78 54 
183 732 438 62 70 93 
202 874 417 151 120 99 
169 471 443 99 124 154 
171 858 351 145 115 83 
187 158 417 80 66 55 
201 674 156 133 143 162 
331 326 318 88 103 120 
180 714 521 160 157 203 
173 184 441 135 36 25 
168 723 498 93 116 180 
198 738 501 199 198 213 
216 668 452 100 125 162 
289 289 426 83 118 147 
165 339 426 148 156 169 
299 81 380 87 76 65 
234 225 403 106 49 64 
177 975 390 77 62 52 
263 22 398 111 84 69 
171 724 462 80 98 122 
316 505 296 127 142 174 
166 229 437 83 32 47 
335 400 296 118 108 102 
236 397 295 84 103 126 
191 113 368 134 81 48 
185 661 534 99 83 67 
178 980 356 139 100 74 
210 361 420 157 134 111 
190 115 370 138 77 36 
179 737 411 69 92 134 
172 689 497 94 101 110 
299 173 423 53 74 93 
170 195 420 43 40 44 
285 735 257 146 131 119 
233 245 404 45 65 98 
408 189 359 93 59 69 
182 881 300 127 101 75 
227 936 354 98 79 63 
380 332 388 93 103 117 
219 631 254 142 145 154 
293 285 338 119 116 129 
185 857 370 134 103 77 
293 742 308 137 118 111 
226 819 277 209 155 118 
251 787 229 174 130 95 
277 658 156 139 152 170 
179 711 292 125 36 43 
274 689 164 153 182 214 
269 326 245 147 145 147 
149 529 412 29 55 150 
173 552 306 116 119 132 
193 562 285 78 113 142 
166 477 342 150 153 165 
185 181 442 163 64 3 
176 268 423 121 109 100 
311 227 341 95 92 92 
176 978 372 79 61 47 
207 618 192 40 91 142 
349 339 400 164 128 89 
262 627 180 100 91 85 
249 709 149 177 210 238 
292 517 373 122 134 161 
198 855 374 99 75 46 
217 189 402 96 48 75 
168 738 362 141 7 34 
351 114 389 103 93 85 
170 816 338 112 97 85 
266 144 419 128 115 102 
183 931 308 109 86 65 
278 724 227 117 103 103 
386 144 376 88 80 73 
286 287 330 123 112 108 
176 831 312 183 135 105 
182 596 415 159 163 176 
209 625 194 56 94 152 
313 310 421 82 122 154 
221 827 293 217 161 129 
162 433 382 98 111 132 
307 644 316 157 126 105 
164 673 510 92 123 152 
263 712 164 165 35 47 
171 270 408 94 114 137 
221 832 356 179 133 106 
185 120 371 154 62 6 
196 177 431 101 90 80 
294 540 272 141 144 154 
220 277 336 150 152 161 
173 152 426 156 67 5 
248 367 293 60 91 119 
216 955 379 132 108 92 
187 121 369 153 70 12 
237 507 232 88 109 131 
271 165 412 120 114 113 
404 276 343 147 145 149 
164 302 429 144 154 170 
214 617 167 90 106 123 
313 489 290 104 117 134 
248 572 270 81 85 92 
406 253 344 97 122 144 
186 122 370 154 63 13 
232 519 455 75 101 146 
235 235 404 58 46 70 
219 600 264 77 108 135 
327 295 396 126 120 118 
176 354 351 139 143 156 
197 558 449 152 154 167 
261 768 230 165 138 108 
165 401 372 72 100 139 
138 900 372 79 67 54 
288 618 291 87 61 57 
286 87 365 139 119 108 
213 929 415 190 142 118 
184 122 373 155 68 7 
182 407 320 7 61 103 
339 268 394 80 114 141 
193 780 459 192 201 219 
185 123 373 156 66 7 
184 122 374 156 71 8 
188 412 427 175 151 129 
184 123 375 158 67 7 
166 764 375 102 20 40 
340 328 316 88 107 127 
302 282 336 80 97 116 
200 857 299 184 135 101 
196 721 171 84 103 130 
200 558 269 97 119 142 
180 696 300 104 135 164 
254 634 461 149 100 81 
208 644 180 65 86 126 
226 927 382 181 134 105 
173 732 328 114 46 55 
228 803 430 94 86 92 
191 483 305 83 92 104 
184 687 306 96 76 94 
363 125 373 116 64 0 
283 749 363 131 115 106 
348 416 373 54 72 113 
159 886 325 68 55 48 
185 125 372 152 72 45 
297 95 364 132 88 68 
184 124 374 157 70 7 
176 166 434 121 119 125 
169 762 317 141 109 80 
323 389 310 85 79 74 
191 722 435 55 56 89 
236 720 503 147 162 191 
334 261 395 89 79 87 
344 394 385 89 104 154 
264 721 454 132 147 186 
192 646 284 102 123 164 
412 254 375 89 91 103 
303 389 275 71 93 114 
196 778 464 193 201 219 
163 873 359 96 77 57 
288 593 262 140 106 88 
186 126 373 153 78 50 
199 713 432 99 124 151 
279 331 302 99 101 105 
237 786 205 137 143 156 
188 121 368 151 68 11 
303 618 340 81 79 89 
282 495 416 182 187 202 
191 120 371 138 73 25 
199 164 426 102 57 34 
251 683 133 62 116 222 
238 350 300 76 102 127 
328 425 395 108 129 169 
257 164 411 155 75 6 
260 219 299 60 87 108 
188 121 375 143 71 11 
207 752 487 137 149 208 
275 572 273 111 110 113 
285 681 406 142 159 182 
308 264 337 115 112 113 
222 925 338 103 74 61 
404 219 339 81 46 44 
217 608 250 150 160 175 
299 354 312 109 114 123 
190 120 373 141 65 7 
319 207 423 94 71 89 
208 413 309 120 135 155 
185 670 353 152 149 154 
202 852 372 122 88 60 
227 806 425 148 117 100 
190 122 373 142 65 10 
189 611 283 101 126 156 
325 30 367 104 92 85 
212 646 188 68 98 154 
191 123 372 136 77 47 
160 477 374 137 141 150 
302 162 372 101 77 64 
232 617 463 86 78 72 
342 285 392 151 147 151 
271 710 444 128 162 194 
219 286 406 145 145 149 
297 295 338 124 126 134 
274 160 390 80 83 77 
256 758 206 192 155 118 
245 692 504 111 127 168 
191 125 371 118 93 84 
322 283 402 80 124 158 
398 318 386 112 134 158 
189 180 437 150 80 7 
225 343 308 59 98 129 
274 569 272 100 100 103 
151 968 311 134 97 62 
181 772 449 148 164 188 
166 778 378 134 113 94 
216 721 230 80 50 48 
363 396 320 169 148 127 
294 327 319 98 116 136 
183 659 526 97 82 67 
236 734 491 155 167 189 
308 529 283 108 136 171 
168 795 330 156 131 106 
274 615 201 103 94 87 
320 42 341 126 101 79 
398 358 354 159 10 70 
288 327 271 130 109 85 
246 746 179 154 101 74 
169 742 342 130 38 46 
290 388 239 114 133 155 
266 267 290 123 122 126 
284 733 341 85 87 97 
407 264 350 121 96 83 
178 852 357 141 111 78 
299 357 417 126 130 139 
196 824 390 163 149 139 
378 167 339 85 50 39 
227 826 305 212 158 130 
178 709 380 123 142 162 
216 749 487 139 154 202 
233 814 283 209 153 119 
163 260 355 152 141 136 
365 239 322 108 33 46 
363 317 389 138 70 95 
236 297 326 128 132 140 
348 110 377 103 94 86 
295 625 313 78 83 93 
187 121 376 146 74 7 
178 978 377 93 66 53 
367 217 329 57 81 102 
270 512 449 97 125 155 
277 382 252 113 122 136 
169 567 421 161 161 171 
348 321 316 158 135 110 
214 836 363 167 121 92 
273 581 401 119 136 156 
235 552 236 102 119 138 
274 754 267 132 90 68 
287 602 398 177 124 121 
291 578 370 83 129 165 
201 303 337 156 123 84 
184 123 381 150 73 8 
206 804 437 175 62 50 
222 821 269 235 181 147 
274 269 421 125 121 122 
287 249 425 143 103 108 
193 640 282 100 122 157 
187 124 377 145 73 7 
273 709 194 174 143 106 
314 422 265 117 127 141 
215 674 416 132 151 177 
189 769 211 160 132 102 
193 185 429 151 58 2 
187 124 378 145 71 5 
310 493 348 118 127 145 
269 556 404 167 161 163 
300 472 398 151 167 194 
262 730 188 220 193 171 
324 504 354 61 85 115 
210 706 155 176 188 207 
186 127 379 148 71 9 
173 664 510 55 79 101 
205 706 417 83 107 155 
154 463 395 69 98 134 
166 160 455 127 105 87 
185 124 381 151 75 6 
278 504 253 105 117 135 
261 161 388 129 89 67 
302 130 415 100 91 84 
209 819 403 182 135 81 
255 716 157 187 210 235 
197 640 392 56 73 94 
401 288 338 181 158 135 
164 886 403 151 114 87 
224 805 401 210 175 139 
332 420 410 171 170 177 
165 335 419 74 103 130 
258 602 258 75 72 71 
184 127 383 152 77 6 
185 126 382 153 78 7 
234 795 393 142 103 56 
410 256 356 82 114 140 
208 257 405 51 97 129 
151 900 327 70 58 48 
292 579 364 102 81 92 
231 879 358 175 134 102 
188 124 376 145 72 9 
254 746 439 168 151 161 
296 622 244 61 83 103 
396 314 333 184 156 127 
156 549 411 130 148 173 
223 680 221 107 130 154 
223 15 377 135 124 118 
241 558 257 72 83 94 
196 229 422 114 71 72 
215 660 525 133 100 70 
223 349 416 168 145 123 
223 13 380 136 126 123 
226 786 448 187 33 70 
222 823 241 254 176 142 
223 13 383 137 128 124 
179 577 302 176 157 155 
165 199 400 101 49 66 
226 376 424 170 145 120 
222 15 381 137 126 122 
265 778 341 204 171 138 
277 753 374 175 169 167 
222 163 402 103 90 80 
293 330 431 155 154 160 
222 15 382 138 127 123 
194 746 185 84 81 80 
181 658 523 99 83 66 
205 965 344 101 83 70 
312 470 403 150 158 188 
280 320 426 114 131 151 
172 951 411 136 107 95 
177 713 315 136 148 164 
179 402 426 190 161 133 
274 663 152 107 130 158 
211 658 189 125 129 139 
401 142 370 115 91 62 
396 362 368 185 108 95 
287 728 337 133 109 100 
298 692 308 75 77 94 
370 203 332 93 37 46 
241 587 249 67 78 90 
293 631 202 59 90 117 
332 316 319 108 117 131 
232 903 390 183 129 100 
338 269 395 76 103 132 
224 533 252 128 131 140 
164 548 338 140 143 153 
179 763 460 90 121 187 
267 421 236 168 173 185 
257 501 444 152 155 166 
165 978 371 94 76 57 
184 697 289 131 140 153 
280 287 264 108 62 61 
223 28 359 119 103 85 
278 20 398 151 114 90 
277 688 171 122 160 197 
281 264 335 149 126 107 
262 11 373 128 109 96 
205 597 273 84 105 127 
275 517 404 146 151 169 
296 622 364 181 112 106 
190 616 348 100 38 66 
209 738 220 91 37 52 
281 670 219 99 118 133 
184 976 327 118 96 74 
242 568 263 78 81 86 
174 494 316 97 107 120 
279 320 306 88 96 107 
311 410 289 59 79 99 
169 739 461 157 162 176 
195 172 437 109 94 83 
326 167 420 87 42 75 
302 656 253 113 146 178 
172 561 430 108 120 158 
219 30 361 104 92 80 
258 155 379 111 83 67 
211 749 489 204 207 222 
306 401 253 128 134 145 
218 31 362 96 86 75 
164 421 432 151 130 111 
240 557 246 78 90 103 
230 232 403 61 36 54 
306 637 288 83 76 70 
391 149 380 139 64 6 
261 609 456 116 98 82 
257 600 262 72 70 71 
175 768 260 141 122 105 
214 955 341 129 106 83 
156 521 431 124 133 152 
360 325 391 148 77 104 
269 627 181 104 92 81 
220 634 502 104 87 70 
276 694 456 130 146 171 
150 526 369 116 131 154 
188 717 262 59 56 82 
346 332 314 113 114 119 
269 745 224 209 170 124 
168 333 386 123 131 144 
319 408 420 120 141 165 
284 727 400 188 88 104 
388 147 353 119 59 2 
357 135 347 131 117 103 
389 359 334 191 164 136 
202 823 252 224 167 133 
175 457 331 99 130 185 
221 27 361 113 98 82 
205 886 423 71 32 28 
169 926 312 86 67 43 
387 196 332 90 36 28 
221 27 363 101 87 74 
179 363 350 59 85 122 
245 421 279 105 113 125 
342 313 318 123 123 127 
262 711 477 155 167 188 
268 521 442 135 150 195 
358 304 386 94 110 129 
281 466 436 124 137 158 
215 933 326 78 60 56 
195 664 380 66 85 132 
299 703 262 188 170 160 
187 808 252 186 133 98 
341 22 367 97 89 83 
193 304 412 73 112 144 
307 79 383 90 77 64 
347 418 305 137 119 105 
297 724 271 151 123 90 
296 548 366 109 133 160 
284 580 272 94 88 85 
217 607 266 118 126 139 
232 911 379 170 118 90 
133 929 354 72 56 48 
262 318 252 115 126 142 
243 778 402 100 98 99 
292 404 421 86 105 128 
173 152 391 91 53 64 
199 970 342 109 86 77 
234 359 417 166 142 116 
307 699 282 165 105 48 
256 644 451 29 45 84 
221 26 364 99 85 71 
290 179 419 75 77 87 
326 440 393 117 137 172 
237 567 455 123 125 135 
315 335 405 123 127 135 
303 360 314 91 106 122 
173 213 439 112 50 22 
180 608 398 130 165 199 
234 662 480 82 71 84 
294 668 385 63 104 136 
271 438 238 130 150 176 
408 236 379 117 110 110 
176 960 321 125 96 66 
345 272 323 82 114 142 
244 211 407 138 65 74 
205 400 431 160 139 115 
275 334 241 72 100 127 
172 828 342 185 139 112 
167 430 377 100 113 133 
245 627 482 116 92 64 
216 418 438 159 132 102 
208 704 526 111 133 195 
274 532 417 104 127 155 
340 157 407 136 37 26 
192 688 539 183 132 107 
275 736 236 175 143 107 
395 212 333 78 77 91 
216 469 449 151 136 128 
201 439 441 150 60 8 
255 272 301 146 141 144 
384 305 383 86 52 54 
223 19 369 116 102 91 
250 309 412 144 144 151 
178 467 337 69 94 130 
191 580 279 161 163 174 
270 771 336 161 143 127 
166 569 362 108 128 152 
234 793 405 193 169 150 
353 305 318 149 146 149 
186 823 385 119 109 103 
299 150 401 202 87 35 
286 387 424 129 115 111 
138 948 364 84 66 55 
165 177 408 77 52 69 
225 460 283 89 100 113 
300 692 254 183 145 126 
409 216 352 100 95 105 
173 337 396 137 137 143 
287 328 250 102 114 130 
278 291 317 89 93 102 
217 640 247 142 150 164 
202 362 418 138 15 63 
400 157 377 117 91 76 
294 727 368 175 41 53 
187 270 429 145 62 84 
330 221 399 108 79 90 
247 803 233 201 150 115 
204 640 506 98 83 68 
182 496 304 98 101 106 
217 884 416 185 138 114 
278 329 243 91 110 130 
165 305 422 116 108 101 
284 294 423 79 115 143 
293 624 306 104 96 92 
403 284 387 158 160 170 
173 298 415 101 109 121 
313 537 311 97 116 154 
185 461 333 111 120 134 
285 288 327 119 111 114 
293 626 305 82 71 64 
407 270 349 152 146 148 
365 362 318 134 27 57 
175 663 523 105 88 71 
351 23 345 134 114 96 
182 478 322 80 91 103 
157 526 431 121 127 153 
352 369 393 98 119 155 
208 829 368 166 123 94 
177 394 342 50 85 128 
211 547 265 72 105 134 
263 423 238 125 133 147 
228 368 301 59 92 127 
213 616 432 62 96 124 
351 159 329 94 106 119 
283 679 216 111 138 165 
250 532 257 72 90 112 
333 228 335 103 100 101 
254 261 295 143 141 145 
260 312 258 129 68 32 
252 495 241 100 124 149 
181 808 262 177 127 94 
164 325 426 85 135 175 
164 340 375 146 90 26 
220 23 373 127 113 103 
210 738 499 126 137 196 
297 532 341 75 97 135 
304 656 344 63 67 73 
397 281 332 109 123 139 
294 548 366 125 145 168 
219 22 376 137 126 120 
276 736 238 158 131 106 
219 23 376 134 124 120 
150 952 313 109 85 55 
185 250 437 100 105 114 
197 375 420 167 148 133 
226 441 442 134 84 42 
189 853 370 136 101 74 
378 158 344 94 52 47 
306 682 275 134 83 83 
252 732 169 213 150 36 
258 740 194 94 116 158 
320 330 320 122 117 116 
319 170 345 98 96 93 
168 782 334 142 125 112 
282 91 365 154 143 135 
297 622 251 67 89 110 
276 22 387 149 112 88 
172 890 307 78 65 55 
334 79 348 136 110 83 
351 229 392 79 97 114 
247 353 297 63 91 116 
237 683 508 126 144 169 
174 510 446 71 92 144 
197 752 221 106 90 72 
387 159 349 56 56 58 
285 664 168 173 189 212 
209 827 263 254 190 147 
240 581 269 59 72 86 
207 650 265 122 125 136 
207 667 151 119 137 161 
173 761 402 142 145 154 
189 817 259 202 147 116 
242 401 428 170 146 123 
215 723 231 91 42 42 
198 524 273 145 143 147 
280 100 380 79 60 42 
202 691 532 155 111 88 
179 680 370 77 104 136 
176 778 419 141 156 173 
335 279 395 77 110 137 
222 16 378 134 123 117 
294 611 363 167 157 154 
217 465 449 153 138 130 
221 713 218 122 55 58 
181 769 249 120 105 91 
223 446 444 144 128 114 
274 321 296 104 107 114 
251 725 481 157 168 198 
201 289 407 92 74 87 
265 253 291 76 59 66 
291 734 373 175 48 87 
398 355 350 180 154 124 
316 313 326 67 79 91 
282 732 397 184 37 55 
171 744 309 121 67 71 
237 559 457 166 166 172 
204 697 446 62 92 121 
197 776 206 209 174 135 
307 186 430 95 40 57 
220 710 208 123 130 145 
211 677 260 84 70 81 
240 808 286 211 157 125 
277 614 429 166 122 106 
313 339 406 111 119 130 
249 548 452 131 143 166 
238 402 428 173 147 120 
220 20 376 130 118 112 
274 734 229 160 140 122 
295 642 201 139 155 193 
296 491 370 96 124 162 
362 416 326 181 73 8 
157 538 356 202 188 182 
209 509 273 109 116 128 
278 480 440 97 119 154 
230 194 398 78 71 70 
398 138 365 106 82 67 
259 519 257 81 99 120 
184 225 438 80 102 121 
315 325 323 88 99 112 
288 461 247 154 158 176 
283 715 236 129 116 111 
286 640 406 63 94 121 
220 20 383 111 102 98 
253 791 274 204 151 115 
191 896 417 164 124 106 
263 225 296 62 88 109 
224 805 431 108 98 118 
250 793 272 204 151 115 
283 639 410 105 111 122 
284 724 248 145 141 147 
171 582 342 135 157 185 
191 487 287 106 116 130 
166 409 374 116 127 145 
218 27 369 114 101 89 
348 457 366 111 136 195 
168 769 385 148 18 45 
162 285 385 71 106 136 
165 782 356 140 101 68 
168 257 400 140 138 141 
385 359 329 171 146 120 
218 27 371 136 124 116 
178 173 467 139 122 106 
360 378 315 166 144 124 
265 706 475 76 108 172 
323 66 339 141 104 86 
297 581 312 149 161 184 
173 595 387 144 139 142 
219 24 375 135 125 119 
166 791 372 144 106 75 
239 583 268 61 75 89 
267 529 257 82 98 115 
343 481 338 92 115 191 
338 458 305 120 142 175 
239 652 473 109 93 97 
197 923 423 185 141 116 
218 26 375 129 122 120 
174 770 411 152 13 43 
228 511 244 94 113 136 
283 576 385 119 139 161 
280 745 259 194 176 166 
337 398 412 103 122 154 
261 640 436 53 66 97 
179 585 334 111 124 148 
247 678 483 129 132 141 
182 325 344 103 117 134 
303 629 272 101 118 153 
312 449 369 176 169 172 
282 180 381 102 94 85 
287 450 432 115 133 157 
217 31 370 143 134 130 
236 425 288 84 101 119 
237 819 306 210 157 131 
165 447 411 72 100 139 
272 743 231 193 156 114 
231 737 491 187 190 211 
164 188 468 176 77 10 
192 759 222 101 91 84 
218 29 370 137 126 118 
361 432 368 97 121 185 
307 649 267 83 126 160 
254 597 241 82 80 82 
220 824 275 233 176 140 
266 645 156 99 88 79 
269 542 407 119 133 155 
292 572 366 122 132 147 
272 669 463 66 114 150 
342 107 358 89 76 61 
314 478 351 88 103 145 
207 276 338 132 138 150 
302 592 354 92 66 91 
227 886 405 148 111 87 
143 913 388 78 65 52 
292 583 294 87 87 91 
251 656 468 141 146 156 
165 187 451 137 50 30 
255 691 138 167 186 220 
180 829 290 203 149 121 
257 26 356 156 137 123 
299 682 328 124 99 71 
216 833 296 208 154 122 
181 253 440 107 92 111 
335 231 332 123 97 66 
325 164 323 112 80 42 
191 299 341 137 92 67 
167 874 390 138 108 78 
379 406 354 180 79 39 
274 758 375 180 127 79 
168 307 355 127 134 143 
291 718 345 172 77 37 
321 182 419 105 40 39 
303 132 386 89 74 59 
238 598 223 77 101 126 
281 615 249 38 35 32 
299 132 371 68 62 57 
202 703 258 89 93 99 
134 905 355 79 66 53 
296 593 358 73 114 149 
348 410 306 145 117 78 
218 26 379 38 31 36 
282 645 423 86 116 149 
238 355 299 56 93 123 
163 886 320 73 55 43 
230 590 239 61 77 93 
293 517 263 107 121 139 
304 682 268 144 71 61 
291 735 369 180 111 109 
230 441 442 137 120 104 
260 730 181 65 36 95 
243 413 285 72 89 106 
272 600 432 119 100 83 
171 346 354 158 107 116 
167 785 339 139 121 106 
252 711 494 194 190 195 
200 790 225 127 141 158 
218 27 380 63 50 37 
218 27 381 74 59 43 
289 619 293 87 61 52 
178 180 455 154 101 33 
341 224 325 112 93 95 
213 373 305 82 103 126 
175 485 445 154 151 155 
184 736 420 79 100 138 
177 954 321 109 76 46 
217 31 376 56 41 31 
230 512 233 89 112 137 
171 321 405 82 118 148 
167 186 399 33 68 98 
328 313 320 79 102 125 
167 519 311 100 121 145 
254 286 308 138 138 144 
190 595 298 108 123 143 
225 534 255 132 134 141 
242 810 253 215 161 129 
194 856 378 93 72 46 
132 926 354 100 79 63 
230 328 314 122 126 135 
354 430 318 128 111 98 
276 235 341 108 48 58 
151 546 393 186 178 178 
192 525 451 94 113 150 
227 908 401 207 149 123 
344 269 393 76 110 137 
163 480 360 102 117 137 
195 721 412 144 146 154 
233 621 446 65 55 54 
234 317 409 100 122 146 
305 515 271 180 177 183 
221 936 338 86 71 62 
260 526 426 101 115 147 
203 644 166 90 118 148 
201 227 415 111 49 69 
203 702 158 159 170 188 
256 662 471 120 127 140 
191 659 484 73 95 147 
333 481 313 91 110 157 
306 548 352 120 133 153 
183 585 426 131 149 172 
294 647 233 128 153 180 
219 279 406 77 52 74 
294 605 373 150 106 87 
354 116 365 105 94 85 
250 490 443 81 102 143 
239 600 184 84 118 150 
259 11 368 134 112 93 
204 704 433 52 91 144 
354 152 334 123 70 14 
237 675 507 88 106 139 
360 127 394 141 70 3 
308 221 346 115 61 40 
317 202 425 107 70 73 
307 555 351 114 126 152 
228 447 443 124 111 102 
174 557 308 109 122 142 
215 561 456 146 156 171 
255 600 429 62 71 93 
151 898 387 79 64 51 
334 272 395 70 107 135 
182 677 496 68 87 104 
313 478 351 81 98 145 
209 610 271 106 123 142 
155 964 378 88 68 56 
191 467 322 104 107 113 
399 208 336 86 60 81 
393 157 381 143 66 10 
201 63 331 185 159 135 
179 170 464 111 101 93 
289 144 424 148 65 6 
202 63 331 184 158 131 
203 62 331 179 154 130 
203 63 330 184 158 131 
221 823 362 175 126 99 
335 403 388 100 106 160 
351 46 338 134 121 114 
158 551 363 90 116 157 
253 420 252 111 120 133 
170 793 280 90 77 69 
172 720 347 115 140 165 
185 218 434 105 100 106 
195 755 188 141 125 116 
153 547 400 182 177 179 
200 177 426 112 95 74 
291 489 394 122 137 165 
192 586 293 86 52 68 
175 866 376 103 84 62 
232 301 406 140 140 146 
248 146 397 102 90 80 
271 241 281 115 117 124 
386 328 390 107 133 160 
211 256 403 72 94 118 
276 181 377 119 112 104 
349 156 330 117 72 34 
194 880 300 91 68 49 
202 62 333 173 146 119 
191 787 448 176 193 217 
192 706 530 69 110 187 
279 647 161 130 135 145 
273 371 245 54 84 121 
266 435 436 130 139 153 
259 306 261 162 103 74 
234 449 273 76 94 112 
305 360 317 84 100 117 
139 891 364 87 71 56 
289 211 353 108 0 24 
268 711 174 178 22 50 
174 353 403 147 145 151 
218 623 439 47 57 79 
290 216 350 138 39 7 
141 960 352 102 79 57 
285 516 393 185 187 196 
169 350 426 144 152 167 
211 957 339 127 103 78 
230 741 488 100 128 197 
261 790 305 206 149 119 
186 733 423 37 69 122 
260 195 330 75 35 39 
166 266 427 112 39 66 
296 659 345 134 97 92 
355 211 323 104 60 67 
136 926 339 120 97 72 
202 645 513 100 84 70 
257 307 264 164 130 90 
263 465 246 151 153 164 
262 27 361 139 121 107 
289 87 362 138 116 101 
236 593 442 41 81 118 
257 226 289 109 123 141 
223 807 408 153 133 119 
243 348 299 71 97 122 
205 60 334 143 118 95 
169 741 353 131 141 153 
200 643 397 48 122 168 
320 357 315 118 105 92 
321 442 382 101 114 167 
221 947 368 116 94 77 
170 283 395 101 80 99 
207 60 333 143 122 103 
209 961 341 113 93 76 
392 219 331 20 75 114 
212 807 435 170 139 118 
290 711 399 177 186 202 
198 647 280 74 93 128 
169 801 299 75 102 125 
133 912 352 84 68 54 
312 491 289 101 111 125 
190 566 291 73 109 137 
177 813 388 159 139 122 
230 813 372 133 109 87 
220 677 243 134 140 152 
168 794 333 163 141 120 
138 942 328 74 51 37 
170 426 417 86 110 142 
223 845 354 150 113 81 
171 767 272 143 124 106 
270 560 407 129 131 140 
166 697 498 152 149 154 
283 315 274 120 87 64 
205 717 186 123 36 49 
259 28 389 101 85 87 
286 634 182 151 155 165 
320 131 336 142 82 14 
352 262 392 117 128 144 
193 748 191 76 83 102 
339 189 320 109 108 113 
211 658 467 49 74 147 
173 825 356 150 119 91 
312 449 427 61 92 141 
400 346 373 119 136 161 
361 418 378 131 148 177 
366 142 346 116 68 5 
204 522 458 82 105 156 
193 62 341 132 104 73 
161 213 450 129 77 63 
157 553 409 103 116 162 
367 220 388 134 29 77 
229 336 310 89 108 128 
409 212 353 135 75 63 
181 722 392 101 111 144 
282 638 398 96 64 60 
255 176 409 121 107 103 
229 862 394 140 113 84 
254 148 393 123 100 85 
210 798 224 170 117 82 
208 717 191 133 31 41 
275 694 459 131 157 185 
206 629 183 45 66 96 
186 614 366 158 155 161 
197 59 343 125 102 79 
297 561 360 157 155 162 
208 458 286 93 105 120 
337 309 320 82 104 125 
274 553 413 120 127 138 
229 621 480 87 77 69 
358 172 330 79 89 106 
260 181 410 124 99 98 
171 432 362 131 138 151 
199 58 343 123 103 82 
289 657 188 91 117 152 
356 127 353 122 112 103 
239 518 453 141 144 154 
171 669 532 125 100 77 
388 202 332 122 56 65 
271 629 181 103 92 82 
205 694 447 62 96 137 
305 353 410 85 96 110 
347 67 364 104 86 68 
217 931 409 197 147 121 
274 219 416 70 104 130 
197 62 336 156 129 102 
351 115 364 107 93 81 
200 955 404 184 133 109 
175 714 361 156 152 156 
344 36 331 157 139 126 
256 731 174 208 119 88 
198 462 316 115 116 121 
285 499 400 118 132 166 
327 214 338 79 93 111 
183 284 344 171 126 64 
396 189 380 93 97 104 
324 46 330 155 135 123 
227 661 514 157 112 84 
281 507 437 202 199 204 
196 60 341 132 108 82 
196 61 340 135 110 83 
201 332 412 150 149 155 
197 60 341 133 109 84 
337 300 393 145 142 146 
196 60 343 126 103 77 
326 447 404 134 151 173 
325 254 403 68 106 136 
266 744 401 199 77 83 
306 473 403 138 145 190 
287 560 278 43 70 111 
161 962 308 127 99 64 
301 708 271 148 110 75 
284 552 274 96 116 139 
302 353 415 114 126 143 
268 193 353 96 46 39 
267 756 232 144 107 99 
190 629 309 88 121 148 
297 381 282 63 84 103 
289 616 293 114 84 72 
193 60 346 121 97 70 
337 174 321 75 89 106 
173 725 299 50 48 96 
185 869 410 139 107 79 
243 600 220 87 104 123 
149 961 370 145 110 78 
192 62 346 121 95 63 
203 409 310 118 137 174 
174 558 300 126 146 173 
369 399 324 203 175 148 
210 868 319 158 115 85 
190 703 263 104 116 129 
399 191 341 88 37 34 
299 139 369 85 69 55 
210 752 486 141 162 213 
244 705 146 198 209 227 
182 589 303 108 141 175 
217 628 462 52 71 88 
386 374 376 203 172 141 
173 670 538 142 106 88 
324 93 352 126 100 78 
312 490 348 136 139 149 
403 299 343 100 120 140 
332 410 395 110 125 165 
174 413 366 91 107 127 
300 304 335 97 83 87 
183 162 434 110 101 96 
157 439 386 113 124 143 
227 691 513 120 127 171 
254 352 294 73 99 121 
221 915 405 121 70 64 
191 864 300 152 109 77 
270 291 289 105 107 113 
183 691 337 143 145 154 
167 700 492 99 110 133 
351 374 390 142 148 161 
257 309 268 159 119 71 
164 207 462 55 111 149 
261 731 187 221 197 177 
187 667 288 153 152 157 
302 160 376 101 78 67 
185 684 338 95 117 143 
257 167 349 105 75 64 
290 701 401 156 176 198 
295 405 243 110 127 151 
173 851 330 153 113 87 
257 163 360 105 80 71 
233 479 450 81 111 146 
151 520 368 164 161 166 
170 425 348 100 117 138 
197 58 347 116 97 77 
199 57 345 118 100 80 
282 658 217 137 163 191 
249 764 423 124 21 40 
261 525 423 95 117 145 
178 984 330 131 103 83 
279 689 446 43 69 132 
274 541 416 137 156 179 
251 753 433 122 86 91 
274 519 407 114 134 167 
172 826 337 179 137 109 
224 621 150 89 111 133 
170 425 418 82 107 139 
305 260 339 122 117 116 
196 59 349 115 95 75 
166 770 349 104 94 86 
171 350 414 59 88 113 
292 658 378 51 56 85 
176 902 417 103 87 73 
231 858 343 181 138 109 
247 807 303 219 158 133 
264 228 414 102 93 106 
231 698 145 136 160 201 
165 871 356 116 93 69 
274 18 400 145 102 79 
201 765 479 135 146 198 
264 703 482 127 134 178 
308 593 345 95 119 144 
210 517 458 116 132 154 
408 295 367 146 148 157 
218 641 433 119 142 175 
178 493 311 102 107 117 
171 389 416 104 82 73 
412 260 376 67 110 143 
364 200 391 144 39 29 
235 790 400 155 127 96 
189 418 429 164 137 108 
223 544 256 104 120 138 
298 646 228 143 160 213 
160 303 428 122 147 174 
209 696 424 122 140 168 
167 587 352 182 190 206 
163 414 399 102 117 141 
266 696 484 161 166 179 
259 170 352 103 76 63 
325 121 346 112 100 90 
207 55 341 123 106 89 
317 544 339 101 122 155 
164 208 393 82 43 50 
171 737 304 144 44 38 
339 328 399 121 83 48 
306 266 338 99 103 111 
354 115 375 111 99 91 
184 615 388 121 149 186 
221 930 401 193 145 122 
193 292 413 72 111 143 
358 290 386 84 109 134 
277 693 425 125 161 195 
261 609 209 102 95 89 
276 675 153 113 128 146 
371 369 388 151 123 93 
210 236 405 133 37 65 
189 237 430 62 90 112 
349 260 393 117 129 146 
364 388 320 175 152 129 
203 54 348 114 99 85 
195 968 392 112 90 73 
270 745 228 136 103 71 
283 758 297 206 150 117 
297 682 306 147 130 122 
309 574 350 145 152 166 
296 741 294 196 187 185 
264 324 247 139 140 147 
204 692 399 109 124 154 
406 190 353 89 41 47 
280 731 243 157 136 117 
169 779 314 164 131 91 
263 341 248 95 129 160 
334 491 359 117 127 183 
305 62 354 99 83 67 
134 959 318 102 74 54 
138 947 322 120 94 63 
150 925 403 116 94 77 
176 546 294 135 154 179 
357 452 346 114 142 184 
177 656 495 111 125 142 
197 230 421 112 66 62 
175 765 415 157 10 49 
257 665 127 113 136 197 
307 415 277 53 81 106 
161 374 376 117 127 141 
206 552 267 80 117 148 
344 327 397 151 110 62 
218 589 249 102 124 146 
206 52 347 118 103 89 
204 927 419 188 137 113 
316 309 407 69 113 145 
181 547 293 186 184 190 
201 296 338 156 116 81 
250 803 302 218 159 132 
166 187 415 104 47 63 
206 54 345 119 103 87 
275 274 315 103 100 106 
375 265 323 76 80 88 
295 366 425 106 94 83 
197 502 278 70 94 120 
163 388 375 63 99 135 
190 594 297 144 145 152 
166 446 358 88 107 136 
262 328 293 112 122 138 
339 74 348 128 102 72 
177 531 445 94 111 151 
164 208 388 98 43 34 
344 454 323 64 95 159 
221 884 342 152 117 90 
217 949 336 99 78 60 
204 680 467 64 91 139 
195 321 333 123 85 82 
308 416 284 56 77 100 
198 823 257 215 158 124 
286 528 263 142 144 153 
230 700 146 168 183 208 
316 542 345 124 149 184 
201 506 275 70 100 126 
186 695 382 97 121 152 
295 486 253 170 172 184 
277 248 419 100 58 74 
339 423 370 63 82 143 
362 130 374 129 68 0 
211 751 180 93 118 144 
284 693 408 106 144 179 
214 655 227 156 162 177 
301 161 384 84 79 73 
151 941 400 130 101 86 
278 508 254 90 105 123 
168 569 346 105 122 142 
340 49 373 118 98 77 
341 81 378 100 84 67 
200 57 342 124 104 84 
235 919 367 132 104 79 
252 416 433 146 63 19 
266 204 337 84 48 57 
163 248 384 101 55 60 
280 677 169 117 158 194 
250 754 429 177 55 72 
404 292 385 159 160 169 
278 597 229 123 109 97 
200 916 421 167 126 101 
306 605 341 132 131 137 
299 681 367 140 156 176 
203 702 182 140 148 162 
265 362 280 62 84 106 
315 322 324 107 108 112 
167 719 477 113 129 151 
305 568 340 136 150 172 
198 731 172 157 81 91 
164 209 461 62 109 142 
176 822 294 185 138 108 
231 333 411 135 24 65 
203 56 343 121 103 85 
166 711 488 158 160 169 
408 198 356 117 36 56 
204 604 274 45 88 120 
408 301 376 159 159 166 
293 636 197 71 91 113 
387 389 358 210 175 138 
348 78 362 100 83 65 
175 788 257 141 139 141 
263 322 249 143 143 149 
201 60 338 146 122 97 
261 28 386 125 98 103 
298 657 238 102 141 175 
310 664 300 157 110 45 
160 260 431 105 72 70 
207 674 189 174 174 182 
169 146 429 151 69 7 
289 257 424 158 155 159 
269 546 421 105 131 158 
184 694 480 86 96 109 
204 59 336 142 119 96 
257 724 470 154 162 193 
196 369 419 136 46 58 
298 659 351 91 101 116 
165 509 326 50 77 119 
216 814 423 158 150 149 
204 58 339 134 113 93 
157 536 427 183 177 179 
282 206 360 93 37 48 
370 318 323 145 26 63 
258 789 289 202 144 114 
194 413 429 157 132 107 
260 305 415 144 146 154 
187 473 447 121 132 148 
263 717 465 129 151 186 
233 598 219 63 90 116 
294 720 348 139 105 74 
202 844 295 222 158 116 
261 329 254 91 109 140 
208 734 205 119 40 36 
178 146 393 106 67 45 
204 57 340 128 109 90 
272 741 231 194 160 123 
216 697 524 113 147 195 
223 935 389 176 131 104 
280 581 391 75 64 88 
215 850 315 174 126 98 
169 170 417 110 39 43 
206 530 458 74 110 162 
235 187 399 50 75 95 
197 915 422 163 128 100 
321 448 420 118 135 164 
236 503 232 86 109 131 
217 373 425 141 114 85 
181 430 320 123 137 162 
164 499 439 127 133 150 
136 947 347 65 46 36 
200 56 347 115 97 80 
178 600 326 131 137 151 
287 608 399 113 87 76 
313 650 275 104 87 67 
206 534 267 78 101 120 
209 629 190 55 94 149 
295 407 243 130 141 158 
239 624 440 68 57 54 
166 280 390 70 103 132 
167 342 419 55 99 131 
260 457 243 151 156 175 
336 487 322 63 92 152 
281 637 403 84 53 51 
173 589 398 146 164 187 
164 542 431 133 139 167 
200 56 350 111 95 79 
297 383 414 92 101 124 
265 577 431 93 92 95 
193 307 412 83 116 143 
173 191 461 169 80 3 
352 425 314 139 121 104 
250 398 268 91 105 120 
232 785 442 131 59 116 
330 431 408 158 162 172 
180 833 305 193 146 116 
221 159 403 88 78 70 
288 473 437 118 134 162 
290 619 300 111 78 72 
286 308 261 112 64 72 
180 150 394 78 63 65 
215 516 265 118 119 125 
216 632 498 97 82 67 
221 180 398 117 69 49 
253 734 460 81 111 187 
322 88 390 110 93 78 
217 599 444 80 132 170 
144 946 384 84 69 60 
176 605 387 180 186 202 
300 694 318 119 117 120 
355 381 311 165 143 122 
320 457 358 85 107 157 
239 209 405 129 63 68 
358 429 375 78 108 174 
354 390 310 168 145 124 
226 707 151 174 187 208 
212 46 349 125 112 100 
205 640 163 91 114 138 
247 703 503 183 180 187 
169 447 421 82 100 138 
199 570 446 133 144 164 
320 81 348 136 109 87 
292 647 227 117 147 175 
356 402 314 161 75 4 
214 817 385 65 87 109 
213 46 350 125 113 101 
333 234 334 122 99 75 
299 559 360 130 140 157 
302 673 328 144 109 71 
168 516 311 60 92 127 
167 521 310 44 76 122 
211 811 429 80 53 115 
182 977 351 123 92 70 
281 339 293 83 94 107 
322 374 312 100 45 12 
301 482 429 77 107 170 
290 647 409 113 135 162 
358 150 403 134 45 26 
234 718 153 97 122 175 
214 467 282 89 106 125 
236 815 231 225 159 126 
220 39 351 123 107 91 
400 320 343 167 148 132 
173 435 327 57 94 133 
179 157 408 88 71 64 
151 950 396 90 71 61 
298 384 246 94 116 138 
166 498 347 91 97 108 
274 305 287 87 95 107 
205 158 399 68 58 48 
196 827 266 228 170 134 
202 450 314 72 89 108 
205 827 373 153 103 74 
161 280 434 160 157 161 
173 237 430 38 45 65 
197 778 210 195 162 127 
166 758 364 157 136 111 
189 615 347 105 67 82 
163 934 318 106 84 62 
249 510 242 115 129 149 
170 324 351 150 58 97 
359 131 381 131 67 4 
241 745 173 117 103 103 
264 274 416 63 102 132 
295 459 249 116 132 160 
216 42 351 122 107 92 
216 43 350 122 107 91 
352 372 390 98 115 151 
174 301 427 174 171 177 
170 444 337 78 105 140 
207 617 195 94 118 145 
281 741 342 153 128 107 
169 431 356 90 111 138 
247 757 445 182 58 66 
279 202 363 100 39 52 
224 766 189 201 174 151 
165 556 424 127 141 170 
165 307 387 157 152 153 
301 679 323 136 38 29 
218 43 348 124 107 89 
271 638 424 73 81 97 
274 520 415 107 127 152 
222 596 446 62 88 150 
230 425 291 109 117 128 
211 937 412 195 145 119 
193 724 415 134 137 146 
195 602 428 146 153 175 
154 504 383 132 139 151 
180 553 295 184 179 184 
167 487 346 98 110 135 
367 156 338 104 100 98 
234 763 460 132 162 194 
248 805 300 220 159 134 
290 322 261 113 84 83 
323 413 300 54 70 87 
347 287 390 124 131 143 
159 956 400 79 65 58 
279 510 440 136 156 187 
211 367 422 165 140 113 
324 180 416 105 50 34 
318 439 276 75 95 116 
209 819 386 124 118 118 
276 629 414 156 108 102 
266 688 145 153 159 209 
308 164 355 126 56 4 
230 679 512 140 156 178 
229 459 276 75 95 114 
320 176 345 95 50 64 
165 197 409 85 44 44 
203 681 468 67 92 138 
200 593 436 102 123 169 
153 556 387 226 207 196 
195 333 413 158 156 160 
226 814 376 96 126 152 
236 627 149 88 96 107 
155 925 320 101 79 55 
328 472 355 88 98 113 
364 161 379 61 39 42 
227 504 258 76 101 125 
273 589 402 63 98 127 
236 789 401 181 153 127 
286 286 331 123 112 107 
254 369 285 61 91 121 
171 373 406 144 141 146 
200 299 409 77 119 152 
296 305 335 129 133 141 
310 388 417 77 107 137 
405 172 373 119 97 86 
208 948 325 105 83 64 
341 64 373 105 87 67 
204 228 413 114 49 68 
395 145 379 127 95 44 
229 795 212 229 162 117 
297 151 405 220 55 4 
165 195 406 138 54 26 
240 593 439 96 117 139 
226 864 406 189 140 118 
301 693 256 144 104 87 
306 634 267 109 130 152 
238 786 429 172 120 127 
173 750 464 113 126 182 
221 45 347 124 107 89 
376 412 353 176 152 140 
297 368 301 89 93 100 
240 498 450 121 130 146 
239 807 362 203 141 123 
224 537 242 138 142 152 
348 149 407 148 41 24 
219 166 407 106 93 80 
222 45 346 121 106 90 
301 148 368 109 81 64 
273 695 168 170 188 212 
284 676 420 132 139 175 
210 965 364 98 83 73 
218 858 383 112 89 61 
191 704 461 65 88 108 
280 250 340 129 39 37 
329 272 396 80 118 149 
242 535 456 92 118 153 
219 561 244 74 108 135 
219 328 413 117 91 109 
212 654 407 106 127 168 
210 648 455 150 161 176 
182 977 348 116 88 67 
191 611 414 61 53 112 
235 322 410 117 131 150 
193 570 442 68 88 149 
162 416 378 89 109 135 
187 604 333 110 88 96 
345 157 406 137 37 24 
209 58 335 117 100 84 
305 615 350 187 185 194 
178 647 353 72 126 167 
176 817 280 194 144 113 
209 422 309 117 132 151 
210 59 333 147 124 101 
222 842 322 189 146 116 
239 440 272 101 109 120 
211 59 333 147 126 104 
210 58 334 130 108 86 
175 786 259 145 133 126 
161 505 354 126 131 141 
169 755 339 108 41 81 
309 325 427 129 120 126 
253 787 365 165 121 97 
356 268 390 79 103 127 
241 807 354 207 142 124 
247 256 314 91 128 160 
262 327 290 105 112 133 
177 712 295 110 111 124 
302 725 289 173 143 112 
172 354 354 126 134 147 
278 753 275 169 129 101 
242 478 450 165 166 175 
199 575 444 80 103 156 
188 651 498 91 79 69 
193 530 451 117 135 159 
235 472 447 92 113 144 
210 681 456 38 58 129 
190 666 306 89 110 137 
211 63 329 152 127 104 
247 384 424 170 146 121 
281 491 412 92 122 175 
263 470 436 144 147 157 
274 599 427 122 103 86 
179 434 322 76 110 161 
230 744 171 171 90 82 
143 961 356 105 78 52 
193 169 438 112 99 85 
190 973 344 111 85 70 
193 669 281 103 115 135 
212 56 335 118 99 82 
270 273 419 104 79 80 
177 866 315 124 92 64 
286 667 405 169 170 179 
186 345 419 104 122 143 
192 681 483 83 98 116 
212 58 333 144 125 106 
212 59 332 154 135 117 
349 233 323 111 84 65 
154 518 361 81 104 140 
283 628 392 105 61 65 
182 864 404 136 106 76 
266 779 328 211 154 129 
287 753 294 200 167 134 
219 367 423 168 145 124 
209 964 370 93 76 65 
199 690 465 77 100 130 
254 305 311 123 126 134 
304 373 307 91 87 86 
357 343 395 149 65 98 
214 326 322 120 126 135 
177 130 392 153 75 8 
367 216 330 40 66 88 
182 170 456 111 94 79 
322 34 357 99 86 75 
215 59 334 148 133 121 
338 277 395 79 105 128 
169 761 388 138 91 107 
397 272 392 157 160 171 
213 60 331 160 142 127 
297 348 257 126 129 137 
212 63 329 143 116 89 
206 602 232 64 120 166 
307 336 326 137 132 132 
197 553 449 131 139 156 
246 274 321 79 114 146 
159 567 396 177 173 178 
228 877 351 181 139 108 
292 585 287 68 66 65 
171 944 314 146 122 100 
252 215 410 117 75 71 
273 285 282 111 94 83 
179 870 312 106 79 61 
243 777 414 108 120 140 
214 61 332 139 120 101 
168 494 345 71 86 103 
327 515 351 135 158 192 
291 595 274 150 109 95 
350 162 329 49 68 92 
337 40 376 128 118 113 
232 867 382 125 100 70 
342 78 376 98 82 65 
174 733 273 120 87 62 
341 150 329 135 71 0 
239 154 403 106 94 85 
316 90 391 114 98 83 
270 687 151 127 155 192 
261 787 294 206 148 119 
410 193 363 116 49 68 
383 301 328 103 119 137 
216 59 334 149 135 125 
263 629 444 145 95 82 
172 764 402 132 142 155 
213 700 525 149 168 205 
247 728 485 168 175 196 
134 934 370 70 56 46 
247 764 195 189 150 102 
313 551 331 86 105 150 
331 479 361 71 86 118 
380 381 378 196 77 11 
171 760 268 166 153 146 
300 433 248 164 165 172 
216 62 333 117 89 53 
279 758 330 88 129 162 
188 232 431 59 89 113 
183 611 402 161 172 197 
263 642 164 99 89 81 
182 692 344 106 123 143 
217 63 334 130 98 58 
170 903 305 53 40 31 
227 925 380 170 126 100 
329 344 407 119 132 150 
160 511 434 163 160 166 
171 775 272 115 80 53 
286 278 337 149 67 6 
274 525 408 104 121 157 
335 298 321 100 113 128 
162 330 374 148 92 26 
288 726 339 179 141 139 
219 858 376 129 102 72 
254 795 292 206 150 119 
234 390 425 141 38 75 
211 53 339 124 108 93 
246 598 233 72 84 96 
211 55 336 121 105 89 
228 655 136 119 136 157 
217 667 426 107 136 169 
127 957 326 109 88 68 
216 470 282 88 99 114 
200 710 258 87 30 37 
245 239 409 51 80 104 
185 434 432 159 77 8 
313 349 320 99 107 118 
291 619 234 36 63 94 
173 194 459 107 122 143 
218 617 263 126 131 141 
288 734 265 188 168 154 
211 630 233 119 32 62 
228 823 351 185 133 109 
296 572 298 181 181 190 
195 717 437 25 53 110 
176 837 318 178 134 105 
345 56 365 109 90 68 
354 129 408 141 70 7 
255 696 497 125 137 156 
148 522 402 123 137 157 
325 435 371 92 105 152 
208 867 415 142 113 88 
300 690 323 124 69 47 
239 890 376 156 118 85 
171 438 372 110 120 138 
339 190 320 105 102 108 
181 541 445 175 167 168 
255 598 245 83 79 79 
170 776 287 125 98 68 
303 619 352 188 182 186 
263 410 250 66 92 116 
316 511 348 75 89 125 
214 279 336 148 146 150 
295 723 267 224 196 176 
289 497 436 96 110 169 
330 353 311 132 114 96 
317 432 282 55 81 106 
282 279 422 139 141 150 
167 160 414 135 40 14 
190 251 426 128 87 93 
166 325 362 167 121 66 
174 289 414 106 100 106 
358 411 317 158 72 5 
297 477 434 118 137 158 
169 157 400 91 56 45 
334 245 396 137 136 141 
293 524 370 105 131 164 
165 204 393 98 46 29 
255 442 444 77 106 142 
246 650 137 80 78 78 
309 213 431 97 95 101 
313 470 353 98 112 152 
184 703 269 135 136 157 
177 770 256 148 119 85 
278 720 218 195 170 145 
173 760 402 135 137 148 
251 760 420 170 27 61 
169 248 446 111 90 118 
212 54 337 123 108 92 
259 525 427 157 163 174 
342 290 322 136 136 140 
213 54 336 127 111 95 
209 648 518 111 90 68 
301 481 430 66 98 164 
213 367 423 176 149 121 
399 299 335 118 92 118 
322 378 413 70 106 138 
237 809 363 196 135 117 
233 145 391 68 61 55 
165 211 445 84 52 77 
155 484 408 57 87 130 
214 53 338 130 113 96 
315 480 351 54 69 126 
185 694 537 186 140 120 
217 641 239 155 159 171 
310 411 259 57 95 124 
239 437 269 86 102 118 
173 914 310 87 71 52 
344 122 351 88 82 80 
269 618 447 174 121 108 
169 796 297 157 152 153 
174 157 432 160 73 6 
247 427 247 75 100 123 
270 688 474 99 120 175 
209 51 345 122 107 91 
247 257 410 120 67 86 
172 884 307 87 70 57 
307 521 275 181 178 185 
167 268 439 143 85 81 
286 617 399 148 97 94 
230 582 246 87 103 120 
234 547 234 87 117 143 
186 351 339 86 105 126 
308 285 335 117 115 118 
185 669 495 54 73 117 
327 241 402 111 126 145 
163 322 381 109 121 138 
260 697 147 193 201 221 
253 491 442 147 151 163 
342 207 321 124 82 74 
225 807 223 232 159 122 
265 655 140 81 111 141 
210 50 347 122 108 94 
236 790 431 190 151 142 
273 278 421 148 146 151 
238 775 443 186 47 65 
266 602 441 93 84 78 
194 754 214 117 97 78 
167 866 333 71 56 42 
194 309 339 126 68 78 
370 255 322 85 115 143 
279 270 324 140 96 78 
255 772 246 138 97 65 
226 851 359 156 121 87 
189 228 429 103 95 104 
337 182 320 117 94 81 
329 120 419 103 94 85 
225 937 382 107 82 62 
277 522 257 116 126 140 
275 610 211 108 96 87 
191 609 292 83 109 152 
210 48 350 123 112 102 
263 629 438 135 90 80 
175 605 368 133 76 104 
246 801 354 205 140 120 
225 887 349 169 128 98 
208 52 345 121 106 90 
234 226 404 81 45 61 
399 158 354 60 66 73 
217 825 249 255 180 138 
239 437 267 97 108 123 
268 713 434 164 182 205 
384 396 357 201 82 10 
329 182 324 120 112 108 
304 679 272 118 90 116 
259 304 415 139 141 149 
188 859 305 141 114 90 
220 151 392 64 52 39 
166 553 327 122 134 153 
319 335 406 85 105 125 
179 824 375 159 137 125 
213 48 346 126 109 92 
301 473 254 167 169 180 
282 654 432 140 149 164 
169 519 443 161 159 165 
199 318 411 130 120 124 
321 159 333 142 65 0 
180 620 330 74 133 177 
226 781 201 212 195 183 
233 457 257 104 118 135 
185 510 286 82 112 144 
349 84 370 102 84 66 
326 499 316 79 102 144 
219 933 402 193 145 118 
170 766 299 45 37 33 
411 271 370 76 118 151 
190 410 314 150 150 155 
287 603 389 98 108 122 
268 395 235 84 118 152 
276 751 252 102 106 114 
187 566 440 91 106 142 
291 614 384 135 95 98 
166 511 442 114 127 154 
216 49 341 130 112 94 
316 43 344 112 92 73 
301 99 365 132 102 83 
348 214 394 117 39 64 
199 645 391 62 119 159 
331 118 397 96 86 78 
376 398 371 148 123 94 
217 49 342 129 112 94 
214 298 409 90 91 109 
171 742 307 115 31 57 
210 869 318 151 110 79 
290 588 379 138 99 86 
252 743 181 145 125 113 
174 717 309 155 19 45 
306 245 338 62 52 63 
296 607 323 69 44 87 
372 271 387 130 132 140 
219 603 177 106 130 153 
330 508 337 95 122 185 
229 605 169 131 144 160 
165 472 359 150 149 154 
219 807 434 153 137 158 
316 385 416 69 111 144 
311 464 260 116 130 150 
219 50 342 121 105 89 
348 113 379 106 97 90 
216 53 337 127 111 95 
227 749 175 107 80 67 
184 718 518 116 137 204 
213 228 403 134 37 67 
234 335 308 94 109 126 
295 105 393 101 82 66 
165 937 316 118 95 72 
234 397 296 93 111 132 
207 641 509 100 84 68 
320 311 400 149 147 152 
163 190 453 140 37 28 
243 560 263 69 77 87 
255 451 239 83 110 151 
313 480 284 72 90 116 
293 575 363 174 167 166 
281 712 233 116 91 66 
333 225 397 135 114 113 
220 836 313 195 145 117 
247 349 415 141 41 74 
190 490 452 86 112 149 
156 965 379 92 74 57 
177 799 407 114 68 79 
292 624 370 177 117 117 
230 798 396 142 112 81 
213 576 452 58 84 135 
168 291 431 168 167 175 
234 503 232 96 114 134 
167 352 383 152 127 100 
173 738 324 131 25 37 
220 50 342 115 102 90 
408 235 380 118 106 111 
172 355 425 81 118 151 
177 740 491 218 208 209 
294 711 337 198 69 49 
264 489 441 164 165 174 
275 726 219 133 120 107 
255 724 474 123 141 186 
177 199 449 126 105 109 
295 120 381 72 55 40 
301 344 320 129 128 132 
271 463 245 187 180 186 
233 666 489 77 80 86 
274 763 362 182 160 142 
207 727 197 92 55 80 
348 119 408 109 80 46 
159 481 415 108 125 146 
233 440 284 54 80 108 
294 515 380 97 117 146 
247 473 447 92 113 152 
268 635 422 92 76 78 
213 865 322 182 141 108 
377 193 333 97 38 31 
183 584 301 91 143 183 
267 386 240 58 91 148 
282 643 423 71 107 146 
260 730 424 172 179 199 
359 339 393 159 106 118 
181 348 347 99 116 137 
281 642 422 72 102 138 
263 720 170 144 136 118 
215 591 448 107 121 161 
227 510 241 92 116 144 
356 313 390 162 121 67 
281 618 205 97 87 80 
219 707 152 178 190 213 
269 234 280 127 132 140 
197 675 483 54 87 118 
240 463 445 83 106 139 
246 801 229 202 149 115 
226 394 299 114 125 143 
189 361 324 64 98 127 
281 741 336 154 133 120 
300 628 297 62 97 134 
338 420 371 60 83 143 
299 136 373 82 66 53 
275 753 268 135 96 72 
158 278 429 157 152 153 
235 412 293 79 98 118 
210 695 190 131 146 165 
336 84 348 135 107 80 
222 51 344 143 131 120 
323 430 421 96 116 152 
223 51 344 144 133 125 
165 587 353 188 191 205 
177 603 361 103 131 163 
185 621 339 58 101 135 
216 56 336 132 113 96 
198 640 499 96 83 71 
295 698 250 138 96 99 
370 419 359 174 59 104 
296 481 254 157 162 177 
218 57 336 151 137 127 
184 697 321 119 135 155 
157 991 328 133 107 78 
191 943 314 112 86 67 
262 231 303 66 63 68 
391 240 389 114 55 68 
152 888 338 82 64 55 
230 834 344 147 96 72 
246 700 504 187 184 190 
259 357 288 61 87 112 
402 333 363 173 148 121 
181 923 424 188 146 124 
196 973 371 107 91 79 
301 355 415 117 132 150 
327 262 398 140 138 142 
287 616 396 145 94 95 
271 767 358 146 110 75 
296 357 270 97 107 120 
280 686 438 115 142 184 
218 62 336 128 100 62 
293 580 300 48 75 128 
178 574 315 104 124 154 
266 342 285 88 113 137 
313 453 378 174 173 180 
210 655 178 68 83 130 
297 661 350 97 91 102 
268 260 417 60 96 123 
226 919 395 187 140 112 
142 918 388 81 66 54 
172 976 380 83 64 54 
264 521 434 128 142 184 
214 572 243 87 127 161 
377 331 387 105 114 131 
173 412 343 144 145 154 
249 321 310 84 105 128 
181 608 331 50 104 142 
187 632 347 69 100 130 
256 278 283 114 122 134 
199 521 455 89 115 156 
169 777 316 145 122 99 
251 378 287 59 88 115 
169 813 358 179 164 156 
333 147 419 92 54 77 
174 963 406 105 90 78 
290 735 374 209 118 133 
253 800 315 217 154 132 
307 573 354 163 167 180 
293 179 421 53 69 87 
321 415 420 76 102 155 
170 247 446 110 100 128 
168 329 359 147 64 89 
301 150 362 113 80 55 
215 854 317 189 149 119 
186 582 297 81 129 167 
281 337 242 84 108 137 
277 639 422 84 105 126 
221 624 477 88 78 72 
164 523 439 170 165 167 
337 469 368 92 112 167 
347 177 400 65 53 72 
276 701 415 154 171 192 
204 657 392 69 94 148 
306 635 259 109 127 162 
314 249 427 160 82 4 
219 305 330 157 129 104 
165 354 427 156 162 175 
164 420 403 93 104 136 
186 858 387 108 88 66 
207 694 404 164 164 172 
169 801 307 110 118 131 
323 229 416 129 25 66 
365 366 387 82 104 139 
302 635 236 87 109 132 
295 152 406 222 86 6 
257 479 246 97 113 137 
295 347 312 117 119 125 
321 34 364 100 89 80 
335 147 325 138 115 91 
195 61 352 123 103 81 
199 761 481 175 183 207 
169 784 314 158 127 94 
216 895 334 90 69 56 
406 228 339 110 58 49 
292 644 396 129 147 172 
399 300 388 105 133 162 
302 397 289 47 69 87 
152 512 383 122 129 144 
325 264 402 141 140 146 
290 185 379 114 36 12 
328 443 399 124 143 170 
166 252 391 141 138 140 
201 352 416 138 29 69 
392 300 390 128 122 125 
195 777 209 238 194 141 
169 344 426 126 145 167 
207 258 406 54 98 129 
197 59 353 117 97 78 
221 554 260 68 102 132 
299 674 310 133 55 24 
181 885 300 111 87 64 
271 583 420 68 69 79 
351 465 341 110 132 191 
