ply
format ascii 1.0
comment Created by CloudCompare v2.11.1 (Anoia)
comment Created 2/28/22 9:39 PM
obj_info Generated by CloudCompare!
element vertex 2000
property float x
property float y
property float z
property uchar red
property uchar green
property uchar blue
end_header
307 430 260 75 87 115 
283 770 347 178 174 183 
264 694 223 183 158 127 
343 451 328 101 124 165 
200 326 389 113 125 141 
177 905 386 153 115 90 
278 559 417 103 120 148 
204 128 334 133 83 71 
265 17 363 120 109 102 
285 634 385 130 84 82 
271 773 394 178 104 100 
200 869 384 133 106 78 
207 841 273 220 166 125 
229 230 396 133 47 74 
222 976 323 111 93 82 
261 25 257 132 118 109 
234 358 281 57 87 113 
347 237 342 106 64 72 
199 844 274 231 165 122 
259 356 268 58 81 103 
189 436 326 63 90 128 
330 313 384 95 110 130 
258 332 296 100 104 113 
337 394 363 91 108 141 
178 634 313 71 120 159 
228 622 175 78 101 136 
241 212 307 49 41 43 
261 597 415 49 81 138 
302 638 302 52 53 64 
169 227 344 112 99 87 
286 150 342 95 85 78 
224 476 251 55 83 106 
161 961 369 80 66 56 
274 147 365 79 73 67 
187 828 377 168 145 125 
180 280 332 119 131 146 
209 249 427 55 78 108 
272 428 418 85 84 109 
170 756 292 104 84 69 
388 185 319 115 65 55 
207 399 425 169 132 94 
180 591 329 181 173 174 
262 690 220 172 133 115 
326 470 292 43 63 117 
284 161 251 148 66 0 
168 225 350 117 41 64 
168 225 351 115 38 65 
290 391 414 127 116 111 
230 330 405 102 112 125 
258 791 386 126 107 95 
166 465 386 103 121 142 
280 523 249 91 107 126 
253 676 478 125 86 69 
253 666 467 118 83 73 
260 338 272 81 87 95 
231 677 519 124 98 68 
218 871 306 164 130 100 
327 496 294 127 145 196 
260 416 418 140 102 81 
191 449 431 146 130 117 
190 615 356 79 117 148 
264 321 407 158 155 158 
169 228 346 125 122 122 
202 735 508 112 133 201 
317 275 259 84 109 136 
188 654 277 99 128 159 
298 330 409 139 140 146 
310 160 323 111 47 16 
259 241 260 62 115 152 
174 429 347 94 116 144 
181 885 374 145 112 82 
201 457 299 127 131 141 
383 204 306 74 34 35 
321 371 256 151 139 132 
284 408 253 114 124 137 
192 623 351 164 161 167 
202 618 403 89 98 133 
298 218 372 94 87 95 
239 225 317 89 87 94 
262 793 360 188 147 98 
217 648 127 144 150 163 
168 228 351 122 91 91 
232 930 398 103 77 58 
180 358 374 89 114 139 
183 585 308 166 160 163 
210 573 428 161 160 169 
250 885 353 147 118 87 
207 689 227 104 114 127 
171 232 339 82 110 135 
204 418 423 170 109 52 
189 312 383 74 102 128 
171 234 339 77 106 131 
251 551 437 96 109 142 
288 587 269 72 88 105 
305 626 340 149 134 129 
328 355 386 127 130 138 
353 371 324 99 52 41 
348 192 316 87 31 63 
193 996 309 134 100 86 
369 254 279 81 106 130 
309 132 305 72 54 37 
274 635 410 129 86 79 
171 306 368 152 148 151 
198 920 287 56 47 43 
217 945 404 189 140 112 
279 280 399 81 59 72 
188 908 397 163 129 104 
180 626 233 153 159 172 
239 213 310 77 69 65 
194 181 334 142 89 47 
171 232 340 77 107 133 
219 128 269 152 112 88 
173 493 412 151 153 163 
221 697 392 86 107 153 
270 397 248 85 103 121 
257 615 444 96 86 79 
200 691 377 95 118 144 
206 571 426 105 120 156 
180 661 230 70 130 193 
189 677 295 114 69 88 
202 226 430 148 43 56 
186 673 275 107 129 155 
222 696 475 63 93 139 
342 334 273 170 142 112 
311 565 325 111 129 159 
252 591 254 63 76 89 
188 1007 326 152 119 91 
281 725 417 155 175 200 
268 27 375 125 116 111 
169 237 341 75 98 120 
347 240 274 74 107 134 
232 690 414 105 137 172 
158 518 359 121 134 156 
168 237 343 78 106 129 
236 927 322 138 78 55 
206 207 328 117 43 56 
247 605 420 51 76 108 
269 14 251 120 103 94 
211 910 401 154 113 97 
260 230 399 51 69 91 
233 823 276 191 140 110 
336 397 394 122 137 156 
310 682 328 104 122 141 
191 461 264 117 134 154 
168 239 343 74 103 131 
327 447 286 78 113 146 
189 753 222 96 86 81 
312 470 263 133 150 180 
353 222 345 102 49 56 
196 442 270 141 147 161 
242 755 489 197 195 209 
225 757 170 174 157 147 
260 145 347 79 70 61 
172 233 338 77 101 126 
288 762 340 142 97 69 
201 468 278 143 149 161 
168 266 368 155 148 149 
272 299 272 140 136 137 
314 245 261 114 40 44 
190 376 325 59 91 130 
270 751 404 162 50 67 
283 280 253 137 134 137 
287 745 260 153 104 75 
172 236 337 79 107 132 
171 512 334 92 102 115 
334 485 380 134 144 161 
216 887 309 152 112 85 
389 163 308 147 127 131 
297 540 388 174 171 175 
226 818 239 224 169 136 
172 238 336 79 104 126 
192 1001 341 127 103 78 
219 199 335 104 84 79 
244 745 198 132 119 109 
303 605 306 55 63 81 
179 875 345 141 114 86 
301 662 286 191 135 57 
350 160 335 120 38 24 
355 207 335 73 42 57 
173 962 387 95 74 61 
169 233 344 66 72 79 
341 145 267 126 85 53 
306 600 290 147 105 95 
234 864 381 119 97 74 
186 682 337 80 82 105 
285 546 415 121 144 175 
278 723 451 86 116 172 
340 346 272 175 148 118 
168 235 345 82 79 86 
168 234 346 100 75 73 
228 237 414 52 81 104 
173 341 330 148 65 89 
209 204 443 51 66 100 
221 328 430 85 130 167 
252 811 334 204 144 122 
390 224 297 132 105 98 
246 597 198 53 76 99 
195 636 332 67 115 153 
173 242 335 81 108 132 
246 685 130 132 150 193 
193 398 321 51 85 134 
339 239 335 70 87 106 
303 622 301 57 67 94 
295 150 324 81 76 76 
356 179 297 74 34 35 
358 150 326 128 43 15 
204 369 277 53 88 123 
174 242 335 81 108 132 
178 722 233 140 48 47 
235 786 200 146 121 98 
175 242 334 81 96 112 
185 523 422 155 158 169 
172 244 335 74 100 123 
172 701 248 137 152 171 
353 220 340 114 53 42 
262 10 241 111 101 96 
197 781 434 104 119 173 
260 604 214 81 80 82 
298 660 359 71 70 74 
327 268 267 84 94 105 
173 246 335 81 88 98 
191 406 404 137 122 110 
330 516 318 123 141 182 
215 692 207 109 111 117 
244 559 437 134 134 141 
212 592 425 190 185 190 
175 245 334 84 57 55 
353 147 273 108 92 85 
147 946 339 128 103 75 
300 686 330 97 79 72 
237 680 448 53 79 161 
210 247 428 69 49 78 
234 177 288 41 48 83 
293 522 405 92 113 170 
176 813 248 180 128 96 
194 749 452 120 135 155 
310 344 409 110 132 157 
238 633 211 82 95 120 
304 393 419 90 110 140 
280 193 384 126 97 99 
187 827 248 213 156 125 
275 478 244 111 119 136 
173 250 334 102 81 71 
289 176 251 145 136 134 
274 397 249 101 116 134 
204 355 410 156 149 149 
256 783 258 196 145 111 
371 244 300 77 69 66 
311 587 334 85 100 136 
307 582 330 133 136 144 
182 694 258 140 152 168 
252 620 440 103 91 81 
288 526 422 153 168 192 
158 511 387 104 121 143 
158 513 359 132 141 155 
190 600 307 153 151 157 
175 887 355 96 75 52 
236 685 428 112 129 172 
172 254 334 121 116 116 
204 784 453 112 149 193 
290 337 256 128 131 140 
168 895 363 156 101 82 
187 612 382 182 188 203 
211 319 297 99 104 111 
182 257 330 148 145 149 
259 448 424 93 107 142 
168 500 406 95 113 142 
223 479 245 83 103 123 
253 897 350 135 104 66 
393 193 308 82 98 113 
198 297 387 106 118 134 
229 764 178 168 133 93 
247 620 162 120 126 137 
336 376 277 196 166 133 
315 319 406 112 102 114 
240 736 176 153 129 122 
248 344 411 157 135 111 
225 293 426 155 156 164 
260 349 404 139 17 67 
254 674 481 134 91 69 
202 435 255 98 120 150 
253 802 373 156 131 107 
155 911 337 82 67 54 
173 774 241 172 129 68 
194 627 271 92 117 141 
199 172 333 138 73 55 
311 248 260 115 48 45 
287 552 410 120 147 183 
266 643 459 156 109 85 
220 140 334 137 99 70 
239 236 394 93 37 48 
278 451 428 97 116 142 
280 750 396 158 47 62 
189 411 403 119 108 101 
147 976 312 118 85 62 
188 459 329 80 96 113 
179 606 297 117 134 154 
372 169 300 73 25 28 
228 534 437 138 146 162 
259 787 385 170 139 106 
203 760 481 174 182 203 
249 160 383 62 50 36 
329 215 361 89 35 45 
236 802 218 189 144 111 
358 350 318 82 85 93 
204 445 288 141 144 153 
379 274 315 78 99 119 
165 901 326 67 54 45 
205 350 412 126 137 152 
167 240 346 70 102 128 
228 488 247 79 94 110 
237 477 429 67 99 149 
280 770 360 162 144 134 
174 740 325 136 21 36 
243 873 373 156 125 93 
310 646 286 97 95 133 
262 555 248 76 88 101 
166 243 347 74 109 139 
188 593 301 98 115 138 
207 256 312 83 109 134 
166 241 348 75 109 137 
247 438 252 74 98 121 
170 792 342 132 101 72 
336 376 359 57 86 131 
225 217 335 127 63 39 
177 326 371 148 147 153 
258 776 257 185 140 104 
193 629 318 70 122 160 
202 605 232 32 89 139 
300 582 358 118 83 107 
166 242 350 77 104 131 
194 359 393 133 130 133 
166 243 350 73 102 130 
237 304 400 121 129 141 
203 262 317 72 99 126 
230 216 338 130 97 47 
299 534 390 129 142 160 
227 747 162 156 145 148 
199 387 287 103 121 150 
237 703 520 173 122 98 
254 132 332 113 88 68 
401 151 323 151 74 4 
227 609 212 91 109 128 
223 646 232 82 99 125 
207 911 401 139 98 84 
229 883 397 122 47 55 
175 887 353 110 88 65 
166 246 347 76 110 137 
166 247 346 72 100 129 
201 831 394 167 132 108 
205 335 404 74 114 149 
289 607 402 155 107 97 
330 306 348 124 95 50 
194 647 332 81 105 128 
188 953 298 131 99 68 
315 540 341 98 116 162 
207 335 412 82 120 153 
288 179 252 135 124 126 
274 378 252 77 103 125 
277 17 383 129 102 85 
181 584 289 136 133 138 
206 371 313 56 86 122 
321 353 398 119 127 141 
283 604 411 132 105 87 
280 735 438 114 139 177 
331 471 344 94 121 163 
331 524 376 132 151 179 
166 245 348 80 114 143 
178 712 286 130 143 161 
231 177 339 121 108 113 
235 298 399 132 131 135 
269 656 209 124 154 184 
246 220 391 51 30 33 
167 249 341 75 108 137 
178 726 359 128 138 155 
299 170 346 57 67 81 
275 567 254 119 118 122 
333 450 343 108 123 160 
201 305 315 133 92 37 
285 655 209 159 183 212 
241 201 293 84 14 49 
215 895 309 92 69 55 
271 612 441 118 101 86 
243 188 294 56 41 55 
166 910 310 77 63 52 
218 950 402 185 133 112 
183 687 255 74 126 164 
186 687 284 76 116 147 
203 594 237 63 89 113 
186 686 264 99 108 135 
332 460 332 144 148 160 
292 676 230 130 115 127 
246 149 292 81 69 60 
359 387 310 170 65 7 
309 342 410 109 130 153 
276 778 335 197 173 154 
221 277 401 130 119 118 
232 671 114 110 138 201 
197 411 427 179 81 14 
295 261 380 126 125 129 
188 642 246 111 140 172 
171 312 333 136 76 83 
167 894 364 148 106 81 
252 777 247 180 130 95 
195 776 432 151 158 172 
185 583 302 123 132 146 
260 256 399 94 61 75 
336 263 325 134 134 140 
352 133 323 119 61 2 
215 664 388 88 108 157 
313 664 314 80 62 121 
165 250 347 74 110 142 
206 181 442 158 73 7 
186 685 285 88 107 129 
214 856 294 170 127 95 
318 435 259 111 113 144 
283 675 225 88 139 172 
264 774 435 138 158 183 
323 477 279 136 149 167 
273 544 430 157 169 190 
248 698 141 166 188 215 
173 308 371 152 147 148 
168 972 367 111 89 71 
379 243 304 77 22 45 
190 660 302 140 145 157 
166 250 346 76 114 145 
191 851 356 167 121 94 
370 306 278 148 17 63 
179 793 232 132 134 141 
287 166 361 121 70 33 
272 718 484 182 180 187 
303 357 249 152 109 71 
386 290 307 111 127 145 
224 717 433 79 105 135 
175 561 405 174 178 188 
165 249 351 74 112 142 
250 272 321 104 93 105 
315 542 336 107 137 170 
209 673 382 92 107 144 
175 741 322 143 17 39 
301 689 337 98 119 141 
303 718 372 135 156 180 
278 358 260 56 88 120 
243 661 124 103 130 188 
243 192 259 68 102 131 
236 646 212 106 115 129 
284 574 379 72 120 157 
392 187 309 85 97 113 
197 876 290 162 117 82 
191 614 307 129 131 141 
146 941 340 109 85 55 
291 751 285 186 170 163 
356 328 316 130 100 50 
280 645 392 68 61 74 
247 885 351 153 124 94 
163 552 343 161 158 162 
179 380 382 112 112 120 
203 363 318 43 84 116 
197 788 205 168 160 159 
166 255 345 75 111 140 
170 796 316 144 117 88 
232 941 397 195 145 120 
261 513 439 174 173 179 
297 354 250 169 140 109 
218 375 274 57 93 121 
165 252 349 75 113 144 
289 758 359 109 32 88 
334 488 381 113 127 152 
202 765 475 134 136 194 
239 634 412 63 53 57 
213 405 262 73 99 125 
242 729 180 83 114 143 
341 342 273 176 149 122 
164 494 364 121 133 151 
336 385 351 59 91 143 
381 153 302 181 71 7 
223 925 303 77 62 49 
314 276 257 84 107 134 
316 250 380 107 100 97 
191 469 259 123 135 152 
307 485 427 51 83 157 
270 282 268 84 116 148 
207 789 451 98 117 189 
247 132 353 117 90 59 
198 684 374 46 75 141 
352 353 313 78 73 72 
225 673 466 130 147 167 
204 576 250 131 121 126 
187 483 269 113 128 146 
187 605 343 127 13 63 
171 241 338 77 104 131 
281 15 396 118 88 67 
319 212 355 83 48 40 
355 183 341 33 58 86 
225 221 413 98 95 103 
311 325 408 158 153 156 
379 194 304 73 42 34 
171 242 338 79 109 136 
200 434 320 55 82 113 
228 205 428 149 90 89 
259 787 380 81 40 49 
172 551 404 117 131 166 
306 631 323 60 91 117 
373 337 305 159 45 78 
177 692 330 100 121 149 
290 396 414 109 100 95 
220 568 237 90 107 124 
255 721 215 138 111 78 
217 929 296 65 51 42 
231 137 369 97 78 57 
169 243 340 73 103 131 
289 154 343 90 78 67 
265 635 168 101 91 83 
214 170 396 135 43 16 
250 357 411 164 137 109 
228 652 121 67 77 87 
267 753 464 136 145 181 
371 168 301 75 35 33 
184 891 387 146 109 80 
169 246 338 78 110 138 
194 1000 344 103 70 47 
292 316 251 94 114 134 
234 414 279 67 85 102 
179 824 254 209 156 126 
165 1001 344 117 96 73 
191 777 407 148 160 177 
255 275 398 71 98 121 
286 724 391 149 163 182 
334 164 267 104 71 70 
221 623 242 65 90 134 
280 417 249 140 141 149 
324 381 264 147 126 105 
317 532 344 126 148 173 
147 924 350 99 85 72 
168 799 297 100 99 102 
276 735 457 167 171 186 
170 511 335 98 103 111 
288 262 256 94 72 83 
174 479 409 151 152 160 
276 777 357 97 98 117 
311 568 299 46 88 125 
185 1006 345 108 84 60 
253 340 299 66 95 122 
227 663 189 34 53 100 
267 180 383 52 55 61 
258 304 291 123 92 73 
235 636 453 65 82 102 
200 990 363 105 79 65 
301 676 349 122 140 161 
229 160 411 142 75 7 
159 493 349 123 136 156 
193 671 351 139 125 123 
177 673 243 68 124 164 
185 468 331 119 121 129 
197 791 425 142 160 181 
320 577 345 74 108 140 
165 769 254 141 118 96 
207 295 412 127 133 144 
203 682 510 118 96 73 
281 731 420 140 169 199 
217 159 398 139 61 4 
166 810 273 155 122 93 
169 248 338 78 110 138 
197 730 196 118 55 61 
238 638 206 69 89 120 
247 717 507 92 119 180 
206 375 316 78 97 115 
179 966 389 102 85 72 
321 473 272 158 169 187 
243 665 506 122 96 67 
201 720 475 69 86 102 
246 152 332 122 79 60 
170 249 337 80 110 136 
253 628 422 90 67 59 
200 217 428 147 63 58 
226 602 239 55 92 124 
195 627 336 144 139 140 
281 766 300 156 154 158 
257 351 282 61 89 116 
183 414 324 78 118 167 
182 558 282 121 137 156 
286 654 416 103 126 150 
249 799 267 212 158 124 
195 456 255 83 108 140 
168 250 340 77 107 133 
263 745 478 166 177 199 
243 726 508 136 151 187 
316 533 387 104 124 169 
159 492 352 156 155 161 
220 191 446 166 78 9 
198 994 349 168 141 116 
210 546 246 123 125 134 
390 205 321 109 41 61 
210 331 291 107 115 126 
312 319 407 122 124 136 
244 821 344 194 135 115 
361 130 286 124 100 82 
281 599 398 43 49 56 
192 548 266 144 147 157 
186 646 307 89 65 94 
253 575 251 85 88 93 
169 254 338 75 97 117 
248 262 305 82 86 96 
171 477 399 115 127 142 
182 711 277 131 142 156 
334 503 376 134 148 167 
301 143 251 125 112 101 
345 134 271 112 80 39 
295 240 385 135 94 94 
252 268 308 78 94 111 
329 507 366 139 147 162 
392 244 302 118 10 58 
224 517 234 130 137 150 
193 337 327 148 92 102 
196 318 299 117 132 150 
177 225 334 85 114 139 
233 662 447 109 133 161 
177 1000 307 88 61 43 
264 791 298 208 151 120 
224 624 162 63 106 141 
206 220 437 152 81 73 
197 373 290 110 131 156 
232 614 222 82 100 128 
253 695 155 113 151 187 
319 260 263 83 112 136 
285 194 376 99 100 105 
291 754 334 143 124 113 
171 279 333 144 140 143 
255 435 422 127 23 66 
297 453 436 176 175 181 
328 535 363 124 140 160 
195 800 412 155 64 93 
240 735 174 120 105 104 
279 354 405 140 108 94 
224 436 264 76 101 124 
285 752 268 152 153 163 
186 691 311 79 119 153 
181 611 372 133 95 115 
387 253 319 120 123 129 
245 184 326 81 56 51 
207 745 407 139 141 148 
338 326 269 154 134 115 
200 762 425 55 84 105 
170 575 331 139 152 171 
348 168 338 109 43 35 
257 101 252 129 104 77 
320 362 394 120 123 132 
365 213 299 79 54 60 
280 135 304 80 71 62 
319 413 257 147 131 115 
178 228 333 81 108 133 
219 164 426 113 98 85 
251 620 449 99 87 78 
301 672 345 112 127 146 
302 512 405 193 197 210 
178 230 333 86 116 142 
178 231 332 83 112 138 
275 394 419 154 86 29 
361 367 305 160 129 93 
234 723 146 122 97 142 
290 521 254 86 115 144 
213 688 176 123 127 135 
181 257 380 134 130 132 
320 468 422 89 115 150 
253 605 196 53 80 104 
314 387 252 170 158 153 
374 277 276 149 149 154 
364 225 283 49 78 100 
347 431 297 154 136 124 
317 191 259 154 73 67 
270 21 245 132 102 85 
330 257 339 140 136 138 
191 533 424 127 133 149 
246 144 291 79 70 62 
352 177 312 61 40 56 
262 719 491 134 146 169 
224 449 264 71 93 115 
190 669 294 156 155 161 
199 378 276 49 93 132 
297 576 275 114 132 153 
213 365 278 88 110 132 
161 897 357 146 104 85 
343 343 338 124 129 139 
234 659 503 112 91 69 
210 167 435 120 105 93 
263 175 377 77 40 17 
222 270 424 102 74 99 
280 313 267 72 109 140 
333 463 349 95 126 159 
230 161 407 123 103 83 
188 469 328 125 122 124 
329 475 402 109 118 151 
197 707 380 77 97 144 
219 734 150 184 24 55 
170 906 375 96 74 52 
227 647 483 102 87 73 
183 231 330 91 71 73 
303 599 347 74 125 164 
302 601 314 89 121 158 
272 781 310 191 147 119 
221 280 402 114 100 104 
271 743 239 174 157 144 
234 311 401 120 118 121 
272 594 243 103 97 94 
228 623 416 104 112 136 
302 703 331 86 87 91 
202 627 395 103 115 147 
165 801 263 123 131 144 
259 774 256 180 135 100 
219 930 299 91 69 54 
163 968 303 101 78 46 
185 383 392 118 128 143 
295 666 357 128 125 128 
303 133 258 102 47 11 
272 15 381 131 109 99 
205 913 287 68 54 39 
339 351 344 82 96 125 
176 711 348 110 128 151 
231 147 286 77 68 60 
233 494 249 64 84 104 
278 556 254 121 130 146 
275 662 167 140 176 238 
179 234 332 85 97 113 
283 284 394 136 134 138 
249 192 389 85 61 73 
328 293 392 119 134 152 
197 936 407 175 136 111 
228 832 412 74 54 88 
232 636 137 111 116 124 
221 662 227 86 102 125 
176 904 295 86 69 56 
318 266 260 78 106 133 
203 227 326 140 137 140 
265 26 222 173 156 146 
177 474 337 134 135 142 
226 973 367 114 91 77 
265 703 489 138 150 168 
219 229 442 152 64 74 
238 824 388 178 158 143 
270 463 425 97 117 140 
345 196 275 143 57 34 
225 316 429 129 147 168 
231 191 342 117 64 64 
179 239 332 93 73 68 
357 313 319 122 57 72 
228 408 274 76 103 127 
267 10 239 120 107 99 
174 736 279 135 23 46 
324 397 413 51 88 129 
315 574 354 168 167 175 
274 633 413 134 89 77 
252 805 389 118 106 103 
347 420 293 142 110 83 
182 233 330 91 63 62 
251 395 263 66 89 109 
183 232 330 96 71 66 
235 472 429 74 102 147 
178 600 375 68 122 162 
162 724 249 136 24 35 
196 643 355 129 96 106 
199 188 332 70 91 111 
196 347 392 68 100 126 
305 515 398 87 108 151 
227 266 410 106 79 85 
212 765 482 231 227 232 
258 628 171 101 91 81 
205 546 223 147 159 178 
250 600 224 103 110 119 
280 266 256 75 95 113 
196 548 424 108 123 154 
215 727 445 76 93 126 
247 333 408 121 33 62 
171 342 362 155 133 111 
340 315 346 127 49 77 
166 434 338 156 156 162 
312 496 419 117 136 172 
198 822 402 62 85 121 
277 159 250 159 67 0 
248 411 259 25 84 125 
230 611 215 80 99 120 
295 505 428 125 136 157 
228 729 516 68 111 182 
234 551 246 89 96 106 
235 870 389 184 135 116 
238 959 343 95 80 66 
317 468 423 78 105 146 
269 451 244 88 108 133 
232 144 368 84 74 65 
180 237 332 104 65 58 
315 328 407 151 149 153 
189 810 397 165 122 52 
190 225 327 139 129 125 
354 352 280 165 137 107 
185 404 323 84 118 161 
229 615 185 48 78 129 
255 805 357 134 121 114 
242 631 464 102 89 77 
191 227 327 148 138 135 
243 252 301 85 61 80 
244 459 426 94 100 140 
227 292 316 104 77 77 
256 716 494 83 108 152 
266 775 416 59 54 125 
238 818 280 196 140 113 
186 984 370 141 108 81 
171 442 391 38 78 126 
231 131 257 142 113 78 
191 632 279 148 150 160 
294 744 279 201 186 180 
301 517 263 114 135 162 
205 867 384 132 106 78 
251 176 386 131 54 5 
238 832 404 148 145 151 
194 761 464 134 147 188 
275 375 412 156 133 111 
290 741 302 123 105 89 
187 226 329 116 106 105 
160 537 394 119 121 159 
255 796 380 76 58 60 
233 209 340 111 49 44 
335 295 379 82 121 154 
311 141 317 71 63 57 
189 748 393 135 138 147 
331 490 328 75 90 132 
225 676 519 113 92 69 
176 431 328 112 133 179 
200 285 393 117 87 69 
147 944 338 113 87 61 
195 750 480 200 194 197 
269 623 189 104 92 82 
265 768 439 152 168 190 
326 522 317 112 134 158 
302 624 298 98 68 60 
316 545 374 115 147 188 
195 332 299 138 142 152 
181 329 375 144 143 148 
247 139 355 95 96 101 
188 669 331 66 114 150 
223 618 236 89 86 116 
220 898 313 101 75 56 
355 385 291 220 182 131 
189 225 328 134 122 118 
165 801 266 122 115 111 
211 663 473 81 110 152 
180 908 391 163 125 101 
209 331 290 126 127 133 
189 226 328 137 126 122 
251 637 159 98 88 79 
281 299 254 82 117 146 
310 557 331 115 142 170 
220 978 319 156 124 90 
290 585 273 91 104 120 
385 189 309 88 37 33 
228 630 231 73 92 122 
396 212 309 103 106 113 
203 415 283 123 137 156 
282 21 391 140 108 81 
308 580 300 106 137 181 
206 709 529 180 126 111 
211 682 134 101 118 154 
196 538 259 146 146 153 
221 618 236 89 62 110 
198 884 395 136 103 76 
240 601 219 76 92 109 
184 742 235 106 106 110 
223 697 395 122 139 170 
202 645 381 133 142 158 
197 333 324 138 93 105 
300 666 338 70 111 142 
298 654 375 145 154 171 
194 591 232 100 130 159 
259 423 421 123 109 96 
316 248 379 108 109 113 
348 370 318 65 60 57 
197 686 372 85 104 143 
283 142 262 131 112 97 
292 630 266 61 57 57 
337 373 368 85 117 148 
302 140 251 146 132 117 
262 556 432 105 125 159 
227 667 402 109 116 163 
219 560 436 105 121 155 
214 841 363 116 100 89 
340 373 339 112 125 142 
224 718 423 103 137 168 
260 720 492 106 117 160 
320 330 253 172 143 112 
347 230 310 52 90 117 
278 606 425 127 106 88 
166 788 267 143 130 122 
210 545 433 89 113 155 
249 375 411 134 17 59 
328 437 285 133 116 98 
252 796 269 209 154 122 
190 562 417 120 134 160 
185 237 329 148 141 140 
184 236 330 143 134 131 
193 805 217 165 113 81 
304 403 256 95 83 72 
323 460 272 122 144 171 
252 498 243 97 105 117 
214 462 429 112 99 89 
184 238 330 148 141 141 
184 239 330 146 141 141 
360 175 287 40 69 99 
281 765 285 197 157 120 
330 353 383 122 125 134 
185 449 330 106 124 148 
237 963 364 132 106 88 
248 626 461 96 83 73 
217 640 247 74 95 134 
335 430 376 102 125 157 
304 676 340 141 157 178 
187 238 329 158 149 148 
237 872 341 175 141 109 
233 669 455 15 42 119 
283 750 317 160 129 99 
264 727 227 179 163 152 
336 412 350 86 107 150 
276 363 407 150 130 109 
179 275 332 119 130 145 
337 445 317 87 109 153 
245 242 397 48 60 84 
300 715 265 132 112 94 
183 696 260 132 148 168 
288 267 256 85 115 141 
243 762 203 155 140 130 
204 194 428 99 49 42 
193 724 482 62 69 85 
190 235 328 152 145 146 
335 447 365 94 114 158 
229 915 319 99 78 58 
330 487 307 148 163 184 
228 922 394 125 89 70 
213 870 391 152 118 95 
189 322 329 142 51 75 
217 652 467 66 100 135 
172 452 376 90 106 140 
177 474 412 154 151 155 
189 239 328 158 150 148 
175 439 394 43 80 133 
208 481 244 92 109 127 
334 446 376 100 121 157 
235 269 430 143 106 96 
293 498 430 114 132 167 
184 664 312 144 142 148 
170 972 369 111 91 70 
218 400 263 84 107 131 
325 380 268 164 144 127 
197 972 311 130 100 69 
203 351 310 70 90 122 
195 631 331 69 122 159 
207 178 433 142 72 5 
197 377 286 105 129 153 
280 429 246 141 144 155 
176 243 333 93 61 55 
187 670 264 80 116 149 
168 787 251 162 154 152 
320 189 338 36 29 24 
295 667 356 136 132 135 
170 472 373 85 108 136 
334 454 356 110 129 161 
310 666 274 182 141 84 
255 613 189 82 83 85 
178 242 333 114 91 87 
174 781 371 113 16 39 
294 743 274 112 108 111 
287 557 403 182 183 193 
277 594 411 82 111 138 
280 622 232 91 61 46 
322 521 357 105 124 160 
200 549 258 71 108 140 
169 983 298 134 99 65 
242 933 384 169 125 104 
246 160 386 69 57 45 
324 289 394 131 136 147 
331 474 398 114 122 147 
208 703 532 180 124 112 
165 934 384 87 71 59 
209 983 316 119 93 71 
178 245 333 141 134 132 
292 186 251 120 99 84 
345 258 362 104 126 149 
191 639 253 94 116 143 
305 255 373 93 83 79 
245 596 207 72 84 101 
175 332 345 166 122 63 
175 705 342 123 136 156 
233 667 444 165 173 189 
327 452 287 50 81 135 
321 437 261 124 116 134 
237 183 435 139 119 98 
226 294 401 68 105 133 
259 145 329 111 78 60 
176 735 325 144 10 31 
177 573 311 152 154 163 
337 382 368 90 117 142 
326 479 292 52 74 126 
219 171 413 138 67 3 
218 418 258 104 127 152 
317 349 391 103 116 134 
236 627 411 77 83 101 
271 707 485 137 142 161 
275 767 274 212 159 124 
223 640 157 95 121 149 
206 634 393 52 53 87 
344 436 299 84 104 167 
244 885 379 156 120 87 
200 467 277 152 154 164 
291 739 385 173 57 67 
208 239 429 66 51 72 
262 354 259 56 88 117 
193 444 432 133 119 110 
190 876 382 142 111 80 
322 296 357 110 123 140 
265 597 240 93 88 85 
193 884 294 123 90 65 
253 650 138 113 129 149 
203 350 308 73 91 123 
152 907 353 83 66 49 
212 623 233 29 102 153 
318 527 292 84 115 159 
232 274 416 111 43 68 
215 949 403 190 140 113 
229 943 308 85 67 57 
230 285 399 60 95 121 
253 325 408 150 137 128 
256 585 422 67 114 151 
197 364 293 59 93 140 
244 775 227 139 100 69 
174 887 357 81 64 43 
210 372 430 190 158 123 
333 445 323 70 81 130 
204 700 493 47 79 112 
192 589 285 68 110 142 
244 716 163 144 52 64 
187 967 305 90 66 36 
190 858 291 180 143 109 
162 486 388 94 116 138 
210 881 395 136 108 84 
383 142 318 136 76 8 
216 180 400 45 51 70 
259 167 323 81 58 47 
217 655 466 91 107 148 
328 500 361 148 155 170 
195 477 255 100 121 146 
234 662 423 110 125 173 
285 628 212 132 132 136 
389 245 297 78 100 117 
174 513 328 169 160 157 
256 308 404 130 131 136 
175 388 325 68 106 150 
175 690 335 150 153 163 
178 251 332 147 141 141 
202 240 397 86 42 40 
288 654 201 76 125 217 
307 648 299 114 76 62 
179 254 331 146 141 142 
279 575 388 115 77 89 
335 323 266 115 61 42 
296 492 430 108 126 161 
263 651 465 149 103 80 
252 219 259 171 78 58 
219 515 437 109 128 151 
308 568 359 172 170 178 
173 298 372 67 110 144 
186 990 361 85 59 43 
261 310 406 140 140 146 
258 363 268 49 80 104 
171 939 304 86 63 40 
176 824 260 203 147 118 
286 697 428 60 76 117 
198 249 400 81 46 77 
215 539 227 132 150 173 
184 694 273 122 140 161 
302 666 328 116 70 93 
321 163 323 88 79 70 
212 142 389 114 88 69 
297 574 363 131 88 114 
170 802 346 146 134 127 
219 618 235 25 115 163 
179 710 328 132 139 151 
240 637 155 63 71 81 
198 470 276 95 119 144 
294 385 412 108 94 81 
182 248 330 142 138 140 
216 775 474 144 144 202 
226 218 409 94 72 99 
190 670 290 157 157 165 
165 801 273 125 118 117 
227 972 364 124 96 81 
213 541 226 105 130 155 
255 799 371 185 154 125 
173 973 373 115 92 72 
215 779 184 227 206 193 
177 846 331 178 131 105 
307 530 391 136 154 184 
305 575 329 142 146 157 
201 721 474 80 94 109 
281 771 334 183 164 140 
245 747 202 172 146 120 
269 26 377 93 91 96 
219 763 172 194 166 142 
287 623 257 78 57 48 
318 514 396 123 141 169 
187 491 296 85 98 112 
222 672 393 94 109 159 
221 793 195 227 172 123 
238 328 296 85 100 118 
182 254 330 152 147 147 
237 214 315 109 104 104 
208 713 389 96 100 135 
308 130 299 72 56 40 
231 865 374 106 84 58 
275 375 255 50 84 113 
320 489 414 171 176 189 
205 382 318 67 93 121 
230 780 470 134 136 195 
252 416 253 56 89 121 
183 610 378 180 180 189 
160 964 365 85 68 59 
185 946 296 94 71 50 
244 740 500 122 141 184 
248 764 476 189 188 199 
196 853 355 152 107 80 
333 428 391 105 123 149 
281 646 396 75 78 87 
231 663 460 77 119 152 
229 231 396 131 44 68 
173 364 339 114 129 147 
186 240 329 156 149 149 
237 418 270 41 73 103 
296 679 241 105 85 107 
197 437 258 111 124 141 
187 241 328 160 153 154 
233 642 445 70 99 138 
174 876 326 103 78 54 
289 539 255 65 97 128 
307 638 316 66 57 91 
225 658 173 71 95 139 
348 152 272 112 50 69 
304 514 269 84 104 137 
302 625 348 155 106 94 
271 671 172 168 187 213 
193 761 456 112 132 170 
206 330 409 81 126 162 
228 658 187 27 45 96 
330 485 397 178 173 176 
339 347 365 132 142 157 
248 484 245 70 89 108 
269 135 300 85 77 70 
228 401 274 79 96 114 
216 971 386 112 84 71 
236 348 410 134 115 97 
164 567 356 100 124 159 
186 247 329 158 151 151 
250 918 349 152 108 80 
301 297 398 73 109 137 
245 934 358 126 92 74 
310 423 429 88 112 153 
234 322 301 115 116 123 
297 732 328 154 102 60 
273 741 461 156 168 187 
320 542 353 87 118 151 
256 680 140 91 128 185 
185 448 411 95 116 141 
173 267 373 148 143 144 
331 372 396 67 105 135 
246 185 391 115 81 63 
298 647 223 101 131 174 
234 584 434 70 106 136 
265 156 356 72 54 32 
207 861 356 127 92 71 
298 472 254 66 100 136 
259 348 406 135 18 61 
205 788 450 117 147 188 
383 230 307 58 47 58 
181 334 374 145 142 145 
169 454 332 138 152 175 
299 392 418 107 110 124 
258 780 447 167 178 196 
218 608 237 57 108 148 
243 192 323 76 45 50 
276 602 221 111 102 94 
257 691 169 172 45 89 
248 907 369 171 123 91 
220 852 348 165 119 89 
297 460 435 118 133 166 
201 311 297 95 112 131 
262 737 227 181 145 103 
297 747 350 173 106 111 
245 649 140 97 88 80 
254 405 414 169 141 108 
223 416 423 180 150 121 
192 487 292 113 118 128 
167 688 237 156 171 191 
218 638 411 85 120 170 
266 402 247 76 96 116 
180 709 330 134 141 153 
329 233 368 105 66 78 
178 716 307 137 148 164 
267 150 353 86 73 61 
207 865 368 94 72 45 
348 418 315 102 111 134 
277 731 448 111 125 172 
322 490 284 137 148 173 
298 119 259 125 90 60 
225 751 167 164 146 140 
230 193 417 133 87 64 
167 466 392 68 94 134 
259 704 217 87 19 85 
269 372 406 153 132 112 
290 623 260 98 73 61 
235 151 287 79 74 69 
234 226 336 132 51 8 
173 905 378 114 85 62 
170 555 310 143 151 178 
204 732 454 83 97 112 
351 269 273 146 147 153 
158 917 326 70 58 46 
231 731 150 204 134 97 
279 708 456 96 119 180 
326 168 260 113 49 45 
240 256 328 113 107 106 
185 254 330 154 151 154 
227 227 438 129 85 98 
293 137 310 75 65 57 
158 548 362 133 141 157 
287 375 265 47 90 121 
236 181 397 148 56 4 
358 134 310 110 74 38 
327 325 386 131 132 139 
310 273 255 84 112 140 
321 204 266 124 52 65 
219 869 309 155 120 93 
185 695 304 77 120 153 
227 682 524 123 97 70 
168 989 354 107 80 53 
165 491 343 101 115 139 
188 251 328 142 140 145 
250 813 336 201 141 118 
182 740 234 61 83 105 
302 736 364 100 156 198 
175 331 330 115 115 132 
192 230 327 148 142 143 
187 682 310 78 125 161 
218 327 296 81 101 121 
278 270 255 136 127 123 
181 700 236 129 67 73 
293 705 386 139 155 176 
287 699 237 168 146 127 
185 666 312 144 145 154 
385 186 310 86 41 39 
246 757 205 136 111 84 
190 730 233 133 70 80 
222 951 401 194 143 118 
309 229 258 58 91 118 
182 462 413 63 90 132 
380 187 302 83 60 61 
289 391 262 60 90 113 
252 697 171 175 70 77 
276 741 415 147 169 195 
190 253 328 130 135 145 
244 616 418 79 84 108 
194 783 421 143 145 165 
246 915 333 169 119 93 
259 17 404 133 110 98 
242 950 366 123 96 78 
226 615 171 91 117 146 
216 806 205 234 164 125 
195 583 415 127 135 149 
309 687 328 73 103 129 
312 583 336 83 103 133 
232 145 338 86 76 69 
322 460 270 127 143 166 
230 696 411 114 122 167 
192 601 222 81 109 142 
169 811 306 112 108 111 
182 829 258 213 158 127 
167 231 354 139 131 126 
229 130 259 133 104 70 
211 465 429 125 111 99 
282 642 388 138 88 81 
244 248 294 99 111 123 
258 281 281 108 42 54 
268 18 364 121 110 103 
208 165 333 131 65 65 
280 145 354 97 89 82 
232 243 434 121 78 76 
232 184 278 34 68 117 
181 788 226 142 134 132 
261 309 280 91 54 68 
222 332 294 90 103 118 
191 853 289 183 133 101 
393 197 308 77 87 99 
274 127 328 112 96 80 
306 403 255 123 110 95 
216 816 429 171 129 148 
202 547 228 114 141 169 
268 766 401 83 24 49 
167 234 352 111 98 98 
208 718 525 88 120 183 
280 617 427 167 120 106 
250 320 308 102 104 110 
166 235 355 91 57 61 
227 815 246 208 155 122 
167 232 356 130 121 117 
289 568 371 78 123 158 
201 376 320 62 86 117 
165 982 349 120 97 71 
178 385 350 88 105 139 
252 689 140 161 197 232 
181 473 333 129 127 131 
177 729 321 122 133 146 
208 400 300 76 95 125 
202 949 294 100 76 56 
302 656 338 75 121 157 
273 634 178 89 99 111 
173 425 390 72 99 133 
190 662 286 77 116 155 
293 614 385 140 103 92 
354 177 296 69 19 23 
327 382 271 165 140 114 
181 630 219 162 163 175 
305 189 343 55 70 84 
219 650 147 99 119 143 
235 637 429 50 69 99 
232 660 439 80 105 170 
166 236 355 83 80 89 
210 352 429 150 154 166 
166 991 354 129 104 77 
292 746 330 146 118 97 
224 718 429 104 130 157 
350 249 313 125 117 112 
248 915 336 157 111 85 
229 243 332 99 89 82 
249 931 342 140 110 86 
363 294 312 92 108 126 
337 169 269 82 76 98 
395 142 307 135 116 102 
323 502 288 117 126 160 
230 158 264 173 74 6 
337 396 346 86 105 144 
284 633 198 83 112 141 
248 138 334 123 88 62 
196 611 251 91 126 157 
243 939 332 102 83 71 
232 182 442 144 110 66 
209 258 423 67 98 128 
234 639 462 93 84 78 
252 267 283 122 101 68 
202 645 374 160 156 159 
207 420 293 88 109 138 
333 301 375 82 124 156 
221 884 314 155 121 91 
319 515 287 119 131 161 
264 235 400 54 79 103 
265 128 268 104 89 73 
177 675 322 142 146 158 
234 608 423 74 95 148 
237 678 442 142 156 183 
326 341 376 114 92 72 
212 259 313 75 104 131 
285 764 334 97 86 82 
197 975 392 89 74 62 
194 771 443 144 148 176 
199 297 388 106 107 112 
352 408 314 129 113 101 
300 741 366 192 22 47 
259 715 220 136 114 93 
166 981 299 143 105 65 
197 437 323 56 84 117 
163 997 353 189 161 135 
330 485 346 102 122 159 
281 598 387 64 69 75 
210 845 359 152 101 70 
327 220 268 52 71 104 
243 225 272 161 85 72 
168 224 353 105 76 83 
170 789 314 144 127 112 
248 808 372 150 116 87 
168 749 278 116 101 87 
180 931 296 87 69 49 
197 725 475 72 92 115 
254 381 409 161 133 104 
172 905 303 74 58 45 
289 158 348 111 52 7 
249 403 414 171 144 117 
291 187 365 107 76 78 
218 161 400 141 65 4 
168 226 355 103 71 81 
294 603 364 175 161 154 
210 155 388 128 70 54 
188 725 376 59 94 142 
233 528 245 55 79 99 
319 500 409 170 174 188 
285 691 435 34 65 110 
333 446 332 90 105 153 
304 640 251 97 111 135 
297 675 359 76 75 81 
217 855 298 163 121 93 
173 347 355 143 88 20 
222 330 429 82 121 154 
317 366 411 129 116 107 
231 298 315 121 117 118 
268 568 420 174 169 172 
199 354 323 83 98 115 
163 543 397 127 135 175 
234 179 442 115 102 95 
295 751 356 228 185 131 
216 128 376 99 70 49 
226 664 205 99 107 120 
343 372 321 70 92 113 
280 733 428 116 149 187 
191 622 278 110 130 153 
178 401 389 116 125 138 
188 608 388 83 116 150 
229 758 174 168 149 134 
232 936 398 190 142 117 
233 254 433 120 106 130 
216 688 215 97 104 115 
192 492 288 113 118 128 
259 785 267 197 145 111 
228 887 399 165 112 97 
307 683 260 136 74 81 
363 336 321 126 111 100 
168 230 359 121 19 63 
213 686 224 73 83 95 
169 400 336 80 105 149 
290 375 266 41 75 106 
215 511 436 81 115 161 
292 593 269 69 67 67 
214 732 439 51 51 88 
287 211 383 103 104 110 
247 772 223 147 105 76 
222 296 311 115 107 103 
217 644 123 123 137 156 
172 822 327 143 131 123 
176 703 341 132 141 155 
296 667 388 138 155 180 
185 684 260 85 101 129 
277 743 397 137 106 114 
186 964 394 97 80 67 
336 238 364 121 109 102 
234 900 392 158 107 90 
342 442 300 49 88 167 
172 331 365 128 135 147 
233 824 424 177 136 121 
172 750 340 151 15 38 
302 615 321 127 121 120 
220 211 331 120 102 98 
296 698 381 149 159 174 
225 826 272 222 166 137 
293 630 269 67 53 55 
345 207 324 92 32 22 
293 675 408 144 155 175 
230 618 144 80 116 146 
339 457 297 83 121 181 
198 694 522 133 103 80 
202 440 277 134 144 159 
340 174 339 71 46 57 
175 349 341 151 83 46 
279 645 179 44 80 108 
291 636 209 70 96 119 
189 605 292 110 114 126 
169 790 308 125 104 82 
358 194 300 43 40 65 
186 557 279 151 144 143 
261 790 421 111 83 118 
339 397 382 157 161 172 
212 368 418 137 103 115 
274 141 349 92 75 54 
342 121 281 110 82 64 
235 912 390 187 134 118 
217 490 435 86 114 155 
184 761 232 94 86 81 
266 751 467 131 132 175 
328 290 360 118 111 112 
224 216 334 108 90 76 
229 814 256 224 171 136 
166 570 380 236 212 195 
261 77 254 98 81 63 
213 771 475 124 147 205 
181 763 389 111 119 156 
175 993 301 175 134 91 
260 612 437 93 84 78 
225 766 483 212 219 236 
201 719 214 93 60 43 
192 128 366 130 59 4 
197 416 267 82 106 128 
249 234 267 127 94 97 
281 700 232 124 77 93 
228 656 498 107 89 71 
170 229 364 113 52 71 
276 133 330 110 85 56 
251 621 439 103 90 79 
327 506 359 94 116 158 
236 934 394 109 85 76 
332 447 325 64 74 137 
292 601 383 135 97 87 
253 617 180 63 74 86 
228 831 368 72 90 109 
222 696 530 155 111 88 
249 764 213 181 155 150 
347 232 341 73 102 126 
204 572 242 79 126 162 
238 867 378 129 105 80 
151 933 328 71 60 50 
231 862 343 150 119 88 
157 926 321 75 61 48 
199 418 276 90 118 150 
186 785 395 72 71 118 
168 232 360 125 37 72 
148 942 334 97 77 57 
361 376 310 169 117 17 
171 506 336 81 93 109 
168 232 362 127 29 66 
194 237 388 89 46 47 
168 233 363 124 31 69 
201 314 312 139 101 51 
203 502 252 70 96 148 
199 570 422 85 105 154 
204 441 284 127 135 149 
206 432 303 109 115 125 
244 340 301 82 97 121 
163 992 304 99 78 58 
333 123 296 88 69 52 
242 936 381 190 149 121 
208 773 470 127 141 202 
250 612 174 107 121 137 
302 664 332 116 116 120 
220 610 421 73 120 155 
268 787 321 193 153 110 
162 908 323 103 88 75 
221 703 470 76 101 133 
378 212 300 34 35 36 
283 488 439 167 168 177 
146 936 353 70 56 47 
169 400 332 88 112 141 
227 142 265 123 94 55 
277 727 402 144 168 196 
227 128 369 105 83 56 
169 235 366 120 32 70 
176 330 347 165 118 63 
302 723 348 92 131 164 
271 164 320 76 57 41 
160 548 384 191 187 191 
170 234 366 118 16 62 
340 338 272 162 134 103 
187 739 232 65 80 94 
203 718 202 92 35 46 
208 414 260 72 98 125 
162 909 319 99 87 78 
245 255 293 96 118 141 
247 907 377 196 144 116 
321 189 262 156 67 55 
172 445 376 85 103 140 
172 757 317 153 82 81 
229 237 437 153 75 84 
301 158 330 105 55 6 
280 336 396 95 102 114 
242 725 169 129 53 79 
237 946 384 194 145 120 
179 714 278 125 136 147 
169 237 366 93 92 105 
396 217 309 109 110 117 
170 570 391 67 85 143 
224 414 267 77 96 123 
171 762 344 123 43 72 
364 271 305 87 106 127 
371 245 285 84 102 118 
186 613 305 129 134 146 
225 667 464 78 101 149 
260 792 420 91 48 125 
179 391 350 60 101 134 
230 157 335 104 89 105 
217 733 419 115 139 164 
252 884 358 152 121 89 
242 304 314 88 102 117 
246 251 289 112 38 58 
188 897 287 87 65 46 
244 583 428 100 101 128 
294 745 378 136 102 131 
190 394 399 98 88 78 
296 739 381 105 156 193 
222 349 410 121 18 55 
181 770 387 160 165 178 
299 674 295 164 118 39 
246 818 391 183 158 137 
201 765 474 159 168 206 
175 354 367 128 125 126 
241 446 252 83 101 119 
209 341 418 98 91 104 
394 240 305 127 0 61 
261 642 474 132 101 71 
184 861 302 130 88 56 
216 571 433 145 152 164 
213 652 391 99 115 150 
173 224 371 40 50 68 
278 185 251 168 130 97 
209 402 303 87 103 129 
180 603 296 106 129 152 
305 666 253 102 105 115 
235 556 438 185 177 176 
308 563 287 91 122 165 
255 694 162 161 190 220 
218 785 466 139 143 199 
265 642 414 139 139 150 
291 280 381 108 108 111 
234 840 313 169 123 96 
220 281 420 152 137 140 
236 805 247 198 147 112 
303 495 426 87 111 153 
200 707 526 131 103 127 
230 258 412 0 64 96 
187 468 424 75 101 145 
294 352 265 121 129 142 
389 236 295 129 26 61 
257 667 477 138 93 68 
267 642 458 157 109 86 
175 227 373 105 43 35 
324 152 256 137 97 58 
179 850 302 188 141 112 
206 317 408 159 157 162 
360 133 285 117 100 87 
175 586 383 125 140 171 
327 140 258 138 65 0 
180 495 332 93 104 118 
340 120 270 111 89 76 
230 167 422 124 64 2 
265 348 401 119 100 112 
224 974 323 110 88 77 
173 230 371 116 26 46 
250 659 133 175 174 186 
173 228 372 93 39 34 
176 777 377 84 43 59 
241 805 261 217 163 127 
289 531 399 86 102 161 
282 353 407 150 130 110 
200 331 308 113 110 113 
260 769 256 170 126 92 
209 546 432 83 110 146 
330 192 346 71 39 32 
334 458 367 154 158 170 
277 723 237 61 65 71 
303 720 370 121 148 175 
184 629 237 148 156 171 
267 635 172 99 88 78 
266 479 243 177 170 172 
334 303 341 111 95 90 
240 823 387 160 135 110 
297 721 337 130 49 68 
202 778 190 189 159 130 
287 754 274 132 117 107 
236 686 446 90 110 161 
326 503 351 110 120 160 
266 32 229 173 156 146 
274 516 437 100 114 172 
320 464 420 137 148 164 
238 959 364 124 95 81 
378 232 302 56 46 57 
199 598 245 84 124 158 
281 512 433 117 119 161 
170 780 335 139 123 110 
220 465 247 91 111 130 
338 396 387 106 124 148 
356 309 275 203 169 134 
388 188 318 111 52 58 
169 239 368 84 110 130 
207 546 240 127 141 160 
240 932 388 170 134 110 
229 619 182 55 87 129 
213 697 210 109 110 117 
263 646 152 158 158 164 
263 739 484 97 116 176 
237 830 330 179 124 105 
184 760 232 94 88 85 
209 189 416 124 35 33 
254 671 495 153 106 77 
170 239 368 91 101 116 
237 195 395 93 58 57 
230 893 323 145 111 83 
254 592 255 65 79 93 
200 295 314 97 107 121 
291 602 390 132 100 89 
199 626 222 57 139 200 
237 872 342 173 139 108 
313 129 300 71 56 41 
172 426 328 142 151 168 
249 656 496 122 96 66 
272 616 445 123 102 81 
230 409 421 174 147 120 
254 683 478 68 89 108 
297 731 337 166 74 78 
230 595 201 67 88 110 
244 484 428 90 113 148 
173 235 371 100 90 98 
218 361 281 71 94 117 
228 615 232 63 90 129 
173 804 368 142 120 101 
328 307 375 116 128 143 
206 726 461 43 72 95 
258 64 259 92 76 59 
204 416 317 58 76 120 
174 233 373 120 7 46 
220 679 523 115 94 73 
175 233 373 119 9 43 
334 420 393 147 152 164 
282 733 394 132 151 173 
174 234 372 123 32 69 
232 240 424 63 86 106 
165 265 346 146 142 145 
306 568 361 150 152 162 
231 681 409 75 109 167 
207 710 480 76 91 107 
258 783 262 194 143 109 
225 852 308 176 135 104 
329 481 403 173 170 176 
236 954 379 188 142 117 
234 964 348 88 63 57 
366 167 291 75 69 69 
193 754 451 126 140 160 
310 682 271 180 104 24 
179 839 282 203 151 120 
172 401 372 99 115 134 
236 159 338 93 66 58 
273 751 248 157 153 154 
200 598 254 97 122 156 
280 687 454 131 151 176 
313 486 266 145 161 186 
173 237 372 100 81 91 
195 357 287 95 127 155 
252 406 258 47 83 109 
293 610 255 142 105 86 
216 645 132 71 108 142 
174 237 372 100 80 91 
304 541 274 90 108 136 
203 865 358 107 77 57 
218 708 470 122 129 141 
175 236 374 112 60 81 
336 387 392 125 138 155 
280 137 318 100 92 85 
219 446 251 97 110 123 
268 141 259 123 108 98 
335 123 298 90 71 53 
192 874 291 148 104 71 
235 145 367 85 74 64 
290 131 265 110 81 59 
242 823 348 183 130 111 
223 630 153 59 97 139 
179 630 234 153 158 170 
166 240 352 79 110 137 
322 477 276 140 152 171 
226 444 426 159 63 8 
274 752 416 142 164 190 
296 142 251 146 128 109 
201 588 262 91 110 129 
179 714 266 129 142 159 
304 512 403 124 142 188 
258 771 252 166 125 90 
166 242 353 72 103 131 
227 673 113 111 140 224 
290 607 401 155 106 97 
233 723 146 142 99 140 
235 458 251 70 88 105 
228 659 186 24 49 92 
198 227 327 143 136 135 
388 290 318 82 127 162 
263 643 471 143 107 78 
204 990 360 87 71 60 
216 367 411 145 116 88 
186 746 389 121 134 150 
199 284 391 126 108 90 
166 241 358 80 113 140 
182 922 397 154 123 96 
356 157 279 109 75 85 
290 737 301 167 141 116 
180 736 368 96 115 138 
166 242 358 77 108 135 
233 601 215 76 94 113 
338 289 331 102 44 58 
242 415 264 53 93 124 
334 432 290 104 91 80 
159 899 356 145 100 80 
292 264 385 129 121 120 
192 631 248 123 142 164 
165 244 354 75 108 137 
174 319 369 106 125 147 
165 245 354 74 112 141 
194 363 394 137 134 138 
306 612 323 140 135 135 
206 431 301 131 131 137 
188 654 261 71 103 148 
311 547 286 108 134 163 
296 426 254 144 146 155 
175 873 333 140 108 77 
178 760 238 129 116 106 
274 549 425 91 105 160 
261 165 323 81 61 53 
175 277 333 136 140 149 
188 653 307 137 138 146 
163 506 398 93 115 139 
174 928 299 62 47 33 
222 585 434 66 82 112 
190 404 402 132 117 106 
165 246 357 79 112 141 
338 405 377 128 140 158 
166 787 264 101 104 111 
250 393 265 56 87 112 
200 456 303 126 126 132 
249 701 183 114 54 99 
264 515 440 179 178 185 
166 244 358 70 98 126 
203 701 494 40 77 105 
178 710 238 124 93 89 
176 760 239 162 146 136 
223 822 227 239 173 137 
236 693 127 166 183 227 
170 777 317 124 105 92 
252 658 136 177 173 178 
196 455 312 73 91 110 
223 689 477 117 123 150 
321 494 283 145 156 175 
169 901 365 154 115 85 
296 734 331 157 144 141 
178 434 398 50 85 135 
211 687 486 112 123 138 
268 780 372 170 127 106 
316 492 418 102 126 161 
193 636 289 157 157 165 
166 243 361 72 102 131 
229 628 231 73 91 123 
237 170 259 133 94 76 
308 588 316 127 147 177 
148 948 338 133 109 84 
292 650 378 86 93 104 
167 243 363 76 112 143 
288 555 258 145 145 151 
305 635 316 100 88 85 
178 669 234 141 162 203 
197 466 433 81 97 136 
243 411 416 163 136 107 
187 485 302 56 83 110 
260 346 267 70 82 95 
168 816 291 162 126 102 
256 53 240 117 95 73 
382 198 300 107 77 64 
278 462 245 155 158 169 
179 274 379 102 118 137 
210 631 243 87 101 137 
199 496 251 72 104 138 
272 770 394 173 81 86 
266 176 380 64 52 39 
184 757 393 98 117 148 
227 874 316 155 119 87 
288 355 269 99 105 115 
236 259 421 135 97 69 
215 176 447 141 120 97 
176 839 300 190 144 116 
241 346 297 60 89 121 
183 613 364 74 135 176 
211 661 239 60 91 127 
172 512 307 115 121 133 
151 944 358 80 58 45 
166 804 261 156 128 99 
275 660 194 193 218 249 
192 547 422 77 101 153 
251 890 365 162 117 86 
325 384 268 170 147 125 
167 245 366 73 104 133 
312 654 261 139 127 118 
191 264 328 112 126 145 
248 816 303 193 133 109 
223 334 423 105 121 139 
208 913 289 70 53 36 
258 798 392 130 133 143 
288 160 354 129 56 2 
323 443 416 117 134 158 
359 350 321 110 99 92 
177 574 313 147 151 160 
372 156 305 105 40 33 
286 626 228 47 67 88 
257 601 220 70 83 97 
230 794 201 202 146 107 
267 695 473 120 131 147 
165 250 353 75 112 143 
304 657 248 138 175 209 
205 530 232 130 145 165 
353 191 344 46 44 45 
358 337 280 205 171 132 
305 635 321 52 63 82 
243 252 321 103 105 113 
304 446 257 102 123 149 
266 23 249 158 143 136 
165 249 356 77 107 134 
181 887 302 103 81 63 
204 761 482 221 215 219 
367 307 276 164 23 80 
293 630 270 71 55 53 
239 831 403 138 137 142 
222 688 391 87 107 151 
347 407 306 106 81 52 
250 810 293 202 143 117 
316 301 254 130 127 128 
194 760 440 102 121 154 
319 181 333 45 57 68 
239 356 297 50 81 115 
186 689 307 71 116 152 
250 758 481 146 161 199 
195 610 217 69 104 142 
238 818 279 199 144 116 
288 537 414 93 117 166 
183 490 319 116 126 141 
158 543 372 98 114 141 
167 744 271 42 27 62 
165 253 354 72 106 136 
258 261 398 113 52 72 
261 70 254 99 83 68 
165 254 353 71 102 129 
289 760 347 121 127 141 
363 364 324 171 93 34 
223 963 388 196 142 115 
254 699 197 143 95 96 
205 360 416 159 157 163 
333 440 330 158 155 158 
334 220 272 17 60 102 
177 420 350 93 109 137 
213 843 283 193 145 111 
165 253 357 75 113 143 
232 245 394 124 71 60 
165 252 359 77 116 147 
250 746 211 166 136 103 
214 637 402 94 119 160 
165 254 356 77 109 135 
338 371 346 121 134 151 
165 255 356 82 94 111 
140 983 328 135 109 85 
354 126 279 110 87 75 
214 478 432 87 111 147 
185 749 389 110 126 147 
201 721 215 102 44 48 
255 667 493 152 106 76 
218 144 398 119 102 88 
295 547 264 91 108 129 
301 355 249 152 115 61 
305 665 302 193 131 60 
257 64 241 115 93 69 
187 999 354 154 125 95 
168 289 352 88 117 144 
300 615 354 177 113 109 
237 412 280 58 74 99 
284 615 244 127 93 74 
276 257 400 128 40 77 
166 250 361 66 105 137 
163 497 369 63 93 125 
147 931 341 84 68 52 
212 139 334 137 69 74 
191 586 284 68 108 139 
263 745 230 173 154 141 
173 816 358 133 115 100 
320 423 419 156 159 168 
313 201 260 136 39 58 
185 689 261 67 118 154 
283 699 437 76 92 149 
290 741 387 125 106 108 
279 655 430 108 124 147 
182 701 346 147 148 155 
274 131 307 85 77 70 
335 365 354 56 86 136 
256 144 329 113 79 59 
208 688 529 111 91 68 
232 236 429 83 88 102 
246 606 420 62 80 100 
167 250 366 73 110 140 
278 771 364 146 116 101 
331 385 400 117 128 146 
289 752 380 170 32 30 
219 672 171 119 126 139 
175 424 361 79 107 138 
231 944 396 195 146 120 
242 747 192 122 104 84 
236 889 329 180 139 111 
350 264 275 152 150 154 
316 596 337 101 118 137 
166 253 362 84 99 114 
192 382 397 97 113 132 
370 233 299 61 58 60 
206 754 172 90 77 79 
293 396 415 106 102 107 
363 385 318 156 128 90 
179 620 222 117 26 56 
189 312 329 146 69 89 
166 255 363 109 28 39 
240 818 286 196 142 113 
349 245 312 79 61 70 
358 351 319 97 96 98 
167 253 365 93 76 82 
269 758 446 148 169 194 
393 177 326 76 98 119 
252 651 137 108 126 146 
