ply
format ascii 1.0
comment Created by CloudCompare v2.11.1 (Anoia)
comment Created 2/28/22 9:40 PM
obj_info Generated by CloudCompare!
element vertex 2006
property float x
property float y
property float z
property uchar red
property uchar green
property uchar blue
end_header
255 522 410 166 162 166 
217 772 405 106 113 125 
176 728 313 133 134 142 
207 341 265 88 116 142 
282 298 401 148 145 150 
248 674 387 117 134 162 
317 300 246 105 119 135 
265 152 356 80 74 69 
175 814 351 159 129 107 
237 734 161 143 34 82 
207 326 261 141 144 153 
322 223 241 100 105 114 
258 645 170 102 91 82 
319 371 239 200 165 127 
191 717 258 90 104 119 
168 833 291 178 135 107 
277 772 259 196 160 128 
213 866 280 162 118 80 
318 543 396 142 153 167 
199 464 386 85 108 132 
181 754 195 109 28 39 
183 793 186 194 150 109 
237 730 160 152 29 45 
317 496 300 82 105 127 
184 829 223 206 143 114 
276 572 235 118 119 124 
202 373 276 152 155 166 
198 437 217 81 111 160 
279 713 477 76 105 149 
300 718 363 117 135 156 
197 113 268 136 104 82 
301 437 264 68 83 114 
273 394 409 193 163 132 
316 627 304 145 145 152 
197 113 270 126 99 76 
225 131 279 76 65 52 
187 305 312 99 113 128 
304 133 235 131 105 83 
193 996 344 121 90 63 
278 797 344 179 162 149 
292 539 236 146 154 170 
168 938 307 68 55 48 
191 707 115 165 174 192 
197 115 271 122 97 73 
210 624 380 169 175 188 
272 146 228 102 82 64 
268 11 380 126 107 95 
174 801 208 162 125 70 
181 930 364 84 66 52 
177 793 195 174 152 134 
179 897 304 104 80 58 
258 222 409 140 80 77 
269 678 446 99 76 69 
270 928 324 136 109 87 
242 723 453 76 94 112 
192 420 343 90 110 131 
295 666 362 110 117 129 
289 615 415 146 108 87 
206 642 352 171 165 168 
252 832 347 119 127 138 
226 378 231 110 118 130 
342 478 363 121 133 154 
324 158 244 156 77 5 
188 812 201 187 133 98 
340 508 362 140 154 173 
200 328 343 142 139 143 
256 32 390 165 140 139 
168 805 304 163 131 94 
276 804 369 132 134 156 
186 475 285 106 122 140 
177 499 359 97 121 148 
234 331 236 75 106 131 
299 264 210 88 131 166 
190 520 234 79 98 119 
189 877 292 123 78 44 
239 837 419 203 31 64 
289 286 256 68 90 108 
183 528 240 91 109 130 
275 802 341 207 187 170 
341 218 333 104 66 67 
298 686 217 194 208 230 
211 979 290 94 62 48 
210 314 365 80 123 157 
311 371 308 41 76 117 
161 813 250 138 109 107 
264 709 215 154 121 79 
198 119 271 119 95 70 
294 749 270 206 182 159 
232 851 398 99 98 123 
199 120 264 112 88 60 
302 714 364 161 167 180 
282 288 206 144 144 151 
339 417 380 84 104 143 
221 205 306 101 64 50 
352 303 340 152 154 162 
264 816 346 223 174 114 
316 599 300 80 99 154 
306 240 206 52 81 120 
249 186 386 138 39 48 
272 789 284 202 149 118 
325 483 313 99 115 134 
278 785 453 129 148 196 
173 527 277 127 131 141 
222 758 471 191 188 195 
325 314 257 95 116 137 
260 273 198 119 81 94 
273 923 328 139 107 77 
299 713 283 112 87 102 
205 383 246 67 112 146 
236 416 219 80 97 117 
310 272 360 115 116 121 
246 97 356 106 84 60 
199 120 270 122 96 70 
305 564 259 89 96 109 
179 760 197 119 61 52 
190 361 305 147 76 96 
296 162 359 101 63 59 
209 967 387 190 145 124 
198 123 268 125 97 66 
235 331 372 77 109 135 
278 780 457 213 210 215 
187 434 237 101 126 152 
300 133 268 91 76 63 
279 547 228 155 160 176 
200 436 213 78 111 152 
250 150 302 90 79 71 
243 729 447 104 113 126 
176 856 311 190 147 121 
317 389 241 195 95 10 
198 124 267 122 96 66 
285 674 392 77 110 148 
182 727 333 122 138 158 
323 217 211 153 86 89 
202 135 260 107 86 61 
197 390 306 80 106 133 
172 715 130 128 147 170 
269 951 323 103 82 66 
325 132 228 137 100 62 
274 768 248 167 178 194 
212 175 312 63 66 71 
233 867 300 163 125 92 
254 973 350 134 108 87 
204 422 323 65 94 127 
270 16 403 142 109 86 
276 778 268 194 161 135 
280 641 206 161 110 93 
224 584 402 161 160 167 
238 574 408 146 149 160 
215 633 202 55 100 141 
285 774 311 196 159 117 
233 667 128 98 88 80 
199 124 271 118 93 68 
169 948 301 97 76 62 
187 779 378 138 139 145 
236 283 372 140 62 5 
259 630 427 98 84 74 
274 24 385 146 123 103 
293 196 334 85 34 40 
313 678 266 188 136 66 
224 819 247 222 167 131 
309 475 244 101 123 151 
224 779 458 122 142 198 
239 374 237 87 92 100 
311 464 407 156 163 178 
288 292 256 52 82 106 
318 195 282 98 45 67 
311 584 280 97 114 145 
173 804 342 138 119 106 
277 800 357 136 119 109 
194 238 320 123 21 49 
310 646 302 127 86 94 
211 846 389 85 92 101 
257 899 362 154 119 89 
242 134 340 69 54 36 
200 115 262 115 91 63 
282 584 397 36 57 85 
202 354 334 138 95 44 
227 788 193 181 175 177 
305 373 239 186 154 117 
204 838 248 228 173 138 
200 747 204 109 31 42 
297 494 236 115 128 146 
211 633 258 66 75 139 
352 279 333 95 115 137 
204 635 179 49 80 115 
262 625 417 108 91 79 
251 200 389 103 74 76 
240 692 498 114 92 70 
189 423 234 139 149 164 
169 966 311 106 83 65 
197 311 343 146 142 146 
201 116 261 115 92 65 
207 256 292 77 99 123 
183 986 287 109 83 48 
262 628 403 97 66 62 
277 518 406 170 167 171 
237 794 457 125 145 208 
239 879 343 106 83 54 
331 564 357 175 174 182 
201 118 261 113 90 63 
295 309 245 71 95 117 
241 362 383 134 134 140 
156 1003 313 125 105 89 
251 325 215 159 159 166 
200 119 263 113 89 61 
211 225 312 72 66 68 
174 523 279 153 148 151 
325 495 399 160 163 174 
274 137 317 86 79 72 
309 356 257 85 91 105 
239 694 215 134 139 150 
182 483 360 77 99 135 
302 429 276 114 123 136 
242 939 302 117 88 70 
171 801 212 184 160 139 
173 754 332 139 143 153 
247 705 511 162 116 97 
215 698 245 63 88 110 
323 446 319 90 114 139 
197 184 271 141 52 4 
286 144 362 108 75 44 
205 113 256 114 92 68 
230 448 415 146 56 81 
250 686 497 113 92 70 
229 831 266 193 139 110 
177 909 317 71 57 46 
212 630 376 91 131 177 
288 268 244 90 95 103 
228 681 241 101 90 104 
225 105 359 124 99 76 
270 431 409 142 91 50 
226 737 147 154 75 81 
207 487 399 135 141 154 
297 189 351 81 48 54 
291 621 225 103 91 80 
253 592 404 64 101 131 
178 749 343 160 158 163 
223 1002 319 112 82 61 
201 233 280 86 38 33 
312 494 252 104 123 144 
220 844 399 174 145 123 
184 843 251 232 167 125 
226 281 229 118 47 57 
321 292 261 150 150 158 
229 24 387 126 117 112 
189 1000 286 135 101 57 
199 333 336 116 128 145 
197 199 265 41 63 102 
231 629 170 88 120 148 
204 117 259 110 88 63 
321 279 304 135 134 138 
244 149 280 94 73 58 
316 388 316 74 99 129 
204 119 257 110 88 64 
257 711 439 45 92 139 
267 395 411 182 153 125 
238 777 200 154 138 131 
186 476 363 63 98 134 
222 551 193 128 145 173 
183 815 368 81 72 92 
245 972 302 128 102 82 
191 858 351 131 114 101 
312 478 248 53 88 140 
272 13 402 133 104 81 
200 502 394 107 117 149 
270 656 177 78 69 67 
184 600 273 82 114 144 
206 427 379 50 92 134 
195 410 226 77 110 148 
160 944 342 81 65 51 
189 289 332 151 150 156 
207 356 241 87 110 138 
156 990 318 124 95 70 
251 579 216 68 101 131 
210 436 217 45 82 113 
262 819 333 177 174 177 
306 603 266 113 135 162 
271 574 232 127 128 135 
235 123 359 113 90 66 
213 257 296 116 114 117 
230 912 302 102 77 54 
249 720 178 135 76 81 
221 618 207 132 148 168 
187 439 298 71 102 138 
207 727 233 102 108 117 
221 740 389 119 125 137 
209 194 287 72 34 41 
350 333 367 145 144 150 
244 706 385 106 115 153 
232 763 405 83 107 150 
277 647 206 145 101 83 
216 233 308 35 59 78 
192 615 290 120 129 146 
242 325 375 110 63 69 
167 771 242 100 82 75 
319 524 261 79 121 183 
296 760 315 105 78 80 
203 125 258 107 86 63 
189 1021 333 81 67 53 
256 173 361 99 80 76 
313 349 386 160 139 119 
302 279 252 95 88 84 
314 328 231 175 151 126 
317 271 260 137 137 144 
207 357 262 138 143 155 
170 532 321 93 116 140 
302 382 294 82 110 135 
186 715 331 135 137 146 
216 807 194 198 143 106 
283 160 314 109 70 50 
317 205 276 33 50 67 
312 562 294 99 123 149 
183 491 318 121 129 141 
212 189 289 93 57 58 
344 367 377 85 110 135 
243 451 418 131 113 97 
188 280 338 153 152 158 
195 415 361 81 101 130 
200 126 263 105 83 59 
266 625 200 108 100 94 
188 1018 339 118 87 66 
220 771 459 127 144 180 
167 752 278 109 22 29 
195 732 243 91 98 107 
169 823 239 180 130 97 
254 259 199 113 101 95 
230 819 254 212 158 125 
253 966 323 67 52 40 
202 127 260 104 83 60 
234 454 419 147 126 101 
205 334 281 117 77 20 
335 346 332 161 123 77 
252 677 489 117 95 71 
253 674 444 93 112 140 
322 257 257 129 14 55 
271 790 289 195 149 122 
292 433 231 105 46 32 
197 642 166 89 113 135 
168 546 286 119 130 145 
313 536 297 133 138 152 
204 123 257 110 89 65 
172 753 304 144 8 30 
254 692 198 76 105 127 
181 753 356 157 154 160 
242 148 312 83 74 68 
200 446 326 141 139 144 
269 829 412 208 97 106 
244 591 218 58 68 78 
204 127 256 114 93 69 
288 398 399 160 71 3 
181 678 140 88 106 124 
166 830 260 188 136 106 
179 762 354 144 151 164 
278 513 223 81 109 138 
195 416 337 47 75 111 
189 548 235 120 125 135 
178 546 369 178 175 179 
174 790 193 204 160 107 
217 240 301 96 44 62 
288 282 209 173 169 173 
318 447 250 69 106 176 
217 626 188 87 112 137 
263 923 345 156 111 81 
199 113 273 101 81 59 
258 746 216 42 36 48 
185 538 380 100 114 154 
252 678 144 115 132 163 
226 660 221 62 111 146 
256 893 359 153 119 88 
268 693 496 141 102 75 
312 669 278 154 99 41 
284 787 440 156 173 200 
258 156 198 99 95 94 
314 696 302 217 182 144 
234 713 213 80 94 111 
277 204 386 79 55 61 
168 965 352 86 66 58 
245 638 384 117 94 90 
189 852 354 108 104 106 
249 145 276 97 74 56 
307 503 282 73 95 137 
332 364 330 88 106 126 
200 115 273 96 77 56 
210 221 314 73 69 71 
250 252 381 51 73 96 
174 816 345 162 145 133 
237 932 299 93 75 60 
187 653 283 146 151 162 
204 843 260 212 158 124 
200 441 246 100 120 141 
233 758 485 171 182 201 
282 411 213 188 160 133 
208 308 363 86 125 157 
217 715 179 65 92 136 
302 714 391 78 108 157 
235 849 339 152 102 78 
299 728 416 121 139 175 
293 609 395 157 115 102 
197 504 392 141 148 160 
201 116 273 90 71 50 
316 668 289 108 66 56 
200 118 272 102 80 58 
242 886 377 143 103 79 
253 241 397 105 49 71 
253 477 215 98 114 137 
177 592 270 89 118 145 
310 363 237 126 137 162 
306 433 292 99 114 135 
261 935 334 96 72 55 
305 424 294 115 122 133 
202 118 273 88 70 48 
202 119 273 90 71 48 
224 827 258 204 152 117 
311 688 247 192 174 161 
264 749 495 121 153 205 
260 661 156 103 129 159 
175 845 268 205 148 122 
312 537 295 64 89 127 
269 676 441 79 75 100 
235 860 314 151 105 79 
200 641 341 89 115 141 
345 351 377 121 133 150 
242 389 402 183 154 123 
205 115 273 81 65 47 
179 606 275 115 134 156 
276 561 402 99 124 154 
207 112 273 82 66 48 
291 794 406 146 173 202 
255 691 147 81 115 178 
270 526 406 119 131 160 
183 876 328 167 128 95 
188 589 367 115 137 162 
269 797 298 189 142 112 
186 802 193 160 153 153 
184 503 239 105 124 150 
178 972 302 113 77 58 
207 1018 306 156 124 94 
302 617 362 123 95 85 
268 810 329 222 201 186 
240 702 219 134 134 141 
302 331 252 104 108 116 
259 911 362 174 131 101 
174 842 263 210 153 123 
167 964 351 116 93 76 
266 648 464 111 92 73 
332 280 367 125 132 143 
230 575 194 103 127 152 
182 819 365 123 117 121 
232 430 401 158 145 137 
192 662 134 124 129 138 
176 761 231 47 50 57 
226 718 481 95 113 134 
248 653 451 123 101 81 
204 361 327 167 121 63 
207 1012 341 109 68 42 
263 573 403 43 70 131 
274 765 242 40 92 127 
231 875 301 162 125 93 
314 470 263 41 71 126 
203 120 272 91 72 50 
203 120 273 89 70 49 
317 146 207 124 112 101 
225 408 221 56 82 103 
184 718 267 123 136 153 
236 153 279 86 74 64 
195 329 320 92 117 141 
205 639 352 160 154 155 
350 314 365 97 94 96 
294 440 234 88 57 42 
291 780 335 149 132 119 
256 888 345 126 101 74 
297 350 220 172 145 117 
333 503 319 168 167 172 
275 544 226 67 103 150 
188 274 316 75 105 131 
165 965 316 101 77 60 
298 153 190 153 87 3 
227 706 118 117 128 170 
266 704 500 165 116 90 
271 687 456 110 79 75 
204 623 369 103 132 170 
294 624 387 177 124 109 
299 210 342 109 57 51 
218 768 453 168 167 178 
269 154 188 154 130 108 
216 205 296 87 31 21 
319 192 235 119 104 93 
277 709 222 167 150 121 
287 150 302 113 63 12 
300 728 407 65 75 142 
197 864 279 222 163 124 
294 150 358 128 64 3 
316 363 315 109 119 134 
312 669 270 80 71 123 
206 121 273 86 69 49 
269 779 466 137 134 192 
295 717 443 80 93 144 
265 28 391 180 155 152 
313 494 261 97 110 143 
231 737 451 96 105 117 
250 642 411 60 84 144 
204 124 272 90 72 50 
204 125 272 91 72 50 
179 725 306 112 129 148 
216 764 161 118 103 97 
248 726 443 121 133 148 
201 436 314 114 127 145 
204 661 269 75 92 110 
320 252 357 112 55 9 
186 716 122 149 160 182 
317 508 299 130 133 142 
321 450 405 113 136 163 
186 464 245 141 146 157 
234 485 199 146 150 161 
181 761 221 89 71 68 
197 669 272 69 87 111 
177 701 299 114 142 171 
317 189 324 51 40 40 
304 634 247 180 123 114 
208 96 273 94 76 55 
189 1021 304 137 107 79 
194 1010 344 146 116 84 
203 628 362 163 161 167 
234 362 379 140 137 140 
181 882 322 159 120 88 
305 520 276 100 111 129 
244 364 233 132 127 127 
303 647 287 166 113 107 
178 911 328 90 67 51 
189 651 267 159 167 191 
255 666 438 119 131 148 
230 710 123 158 191 223 
242 917 391 211 162 144 
341 273 321 99 100 109 
177 507 342 101 115 132 
238 973 380 202 148 128 
183 494 247 114 124 138 
262 348 413 169 141 111 
292 386 223 160 0 61 
163 770 274 130 100 66 
338 500 369 123 128 158 
234 972 382 194 142 119 
222 780 178 204 178 158 
235 820 434 181 196 218 
245 325 379 85 94 104 
220 861 352 118 96 81 
253 708 449 109 131 156 
271 183 417 157 76 7 
171 570 340 121 147 178 
183 883 299 137 102 76 
233 643 391 70 91 118 
206 707 371 82 74 106 
211 419 382 100 71 105 
189 517 385 102 112 139 
316 315 376 115 121 132 
193 871 286 175 130 100 
312 289 365 68 94 116 
248 619 232 56 60 70 
251 259 385 100 65 77 
306 654 314 77 127 165 
231 998 346 124 105 88 
229 403 223 93 107 121 
222 667 195 71 99 153 
236 980 373 160 122 105 
282 636 388 150 100 91 
244 889 376 135 103 79 
244 698 383 107 112 147 
276 340 408 173 147 120 
260 683 406 121 144 172 
313 231 278 75 100 119 
240 600 406 69 115 152 
177 987 340 89 69 57 
269 811 360 86 60 56 
207 354 266 110 127 147 
187 200 336 91 42 37 
179 719 293 101 124 147 
199 398 332 48 85 118 
342 416 370 53 86 141 
353 307 345 153 152 158 
258 274 410 124 14 50 
183 566 241 140 139 145 
267 319 412 128 85 93 
236 610 214 74 86 100 
224 314 368 107 115 127 
247 532 205 133 143 159 
161 800 273 109 113 121 
244 843 344 131 117 112 
218 538 200 90 120 158 
290 239 207 107 54 55 
241 633 171 78 94 114 
315 634 311 189 185 190 
327 583 317 114 141 169 
194 648 295 95 64 78 
339 529 355 108 128 164 
317 272 298 133 132 137 
250 309 385 154 153 159 
204 404 253 66 95 138 
250 751 206 137 121 110 
199 989 287 120 94 59 
209 992 370 93 78 67 
196 742 192 100 110 122 
323 232 243 125 75 86 
218 701 176 127 135 151 
339 511 363 102 123 160 
226 915 385 186 136 112 
216 827 233 209 159 126 
188 607 292 134 142 158 
238 865 317 157 115 91 
193 690 317 73 120 158 
310 387 244 216 175 127 
198 310 302 142 114 79 
215 398 234 11 51 91 
177 591 251 123 127 136 
230 987 375 95 77 62 
286 791 387 147 93 94 
164 818 293 100 106 115 
230 314 225 114 136 160 
288 251 206 107 50 74 
277 643 414 99 68 74 
211 110 273 87 71 54 
185 802 373 138 42 72 
212 104 274 93 76 58 
298 513 237 157 160 170 
240 154 380 115 104 94 
243 354 220 122 134 151 
160 761 166 157 130 97 
196 537 389 160 167 179 
171 528 352 97 111 139 
304 755 331 178 97 92 
316 346 385 155 137 120 
214 105 274 94 76 58 
214 179 366 68 43 60 
185 664 148 44 80 106 
196 708 112 167 180 211 
220 142 280 83 70 57 
213 730 222 81 96 112 
325 172 212 98 44 62 
282 374 213 166 142 118 
168 738 159 127 137 152 
308 422 403 139 149 167 
283 604 401 96 87 82 
323 282 250 160 157 161 
207 248 289 69 54 60 
310 494 260 49 78 138 
307 752 348 169 62 82 
257 422 415 198 167 136 
177 915 297 73 57 46 
188 713 159 43 67 118 
317 166 284 51 51 54 
198 448 376 105 124 144 
227 509 410 177 173 177 
262 686 157 19 72 158 
277 693 475 155 106 74 
188 737 133 226 67 86 
236 299 224 139 137 142 
234 713 215 98 110 125 
315 257 218 164 155 155 
217 96 274 101 82 62 
319 465 264 104 125 159 
274 678 482 136 103 68 
272 272 410 129 24 65 
275 823 392 131 107 92 
326 405 245 155 138 125 
185 684 122 92 110 131 
260 42 359 93 76 60 
278 652 209 59 54 69 
198 713 254 61 88 109 
231 134 362 105 85 63 
299 184 318 62 37 39 
308 596 361 54 130 177 
203 616 374 129 160 193 
236 311 371 113 119 130 
315 468 255 117 146 197 
239 745 177 134 110 106 
193 658 166 45 73 139 
294 693 397 140 154 175 
304 302 252 54 70 89 
162 732 149 141 152 168 
207 488 202 73 100 127 
300 265 250 106 76 49 
255 176 366 89 81 79 
247 733 186 82 89 99 
221 538 192 99 123 169 
269 703 495 166 115 92 
306 380 395 152 81 12 
301 651 323 177 169 168 
286 795 426 154 178 206 
172 746 163 123 33 41 
189 307 320 110 129 152 
332 555 372 119 142 168 
330 476 257 155 172 193 
252 392 412 142 80 68 
221 132 324 93 83 73 
253 718 406 112 139 172 
220 97 275 98 79 59 
300 243 268 92 87 87 
283 715 225 192 83 66 
288 420 398 100 78 53 
180 924 286 92 72 55 
172 804 331 100 83 76 
174 513 248 107 132 157 
181 881 316 172 129 99 
316 340 233 135 75 102 
304 159 304 67 39 31 
183 728 342 142 141 146 
201 157 256 111 89 65 
318 162 283 105 47 47 
209 132 275 89 71 52 
222 99 275 99 80 61 
331 437 330 103 117 135 
276 649 219 28 35 55 
261 465 410 104 111 134 
274 664 440 127 88 74 
190 522 385 127 136 152 
288 758 261 194 184 183 
221 762 165 99 81 80 
300 752 314 80 66 72 
222 748 451 73 94 127 
292 312 394 113 129 149 
223 576 200 122 143 167 
223 611 200 85 113 141 
292 292 212 139 150 166 
197 437 244 108 128 150 
200 306 354 82 128 163 
217 802 425 111 130 180 
229 672 374 109 120 148 
175 518 308 123 130 142 
194 690 335 72 123 161 
190 194 350 91 45 59 
248 388 414 176 144 108 
259 328 203 154 151 155 
243 664 466 126 103 79 
255 259 198 135 114 104 
300 389 250 78 82 111 
216 105 275 98 80 61 
208 656 181 111 134 163 
217 105 275 98 80 61 
216 106 274 97 79 60 
276 687 444 78 103 133 
211 301 258 158 80 29 
328 212 335 107 34 30 
195 885 339 131 93 66 
321 313 251 139 134 136 
277 196 415 151 114 116 
219 879 370 132 105 77 
301 766 401 120 148 176 
218 106 275 100 81 61 
249 824 294 184 127 101 
294 219 204 125 48 52 
231 285 371 140 52 6 
331 306 320 123 116 114 
276 612 419 99 89 81 
317 348 246 143 86 74 
257 710 404 106 131 167 
277 513 222 73 104 139 
239 700 211 149 151 161 
178 616 257 88 126 158 
279 795 336 186 169 157 
265 689 202 154 170 187 
223 700 241 49 57 65 
307 481 242 20 67 130 
262 19 254 145 128 123 
219 981 381 109 85 74 
281 311 403 155 151 154 
263 372 414 171 145 111 
312 140 206 103 87 80 
242 798 244 197 145 108 
291 320 252 126 125 130 
228 663 229 146 152 165 
306 738 329 122 133 154 
205 654 267 130 130 136 
269 684 169 105 125 164 
201 835 219 241 156 118 
177 617 262 82 134 172 
229 1000 335 117 86 70 
346 379 369 96 115 149 
239 874 364 104 83 59 
315 347 235 138 97 109 
205 677 357 125 127 136 
176 990 290 110 84 53 
275 820 414 99 99 126 
327 495 397 161 169 183 
273 749 489 119 132 176 
292 639 366 147 89 79 
225 562 404 88 108 150 
320 422 263 69 98 139 
282 754 242 192 162 133 
220 109 274 102 83 63 
213 536 210 72 106 139 
237 899 306 150 115 85 
221 109 275 102 82 63 
207 402 226 41 80 117 
227 1001 340 120 99 77 
333 278 318 82 106 129 
191 1015 342 134 109 86 
194 447 310 100 116 139 
187 187 339 92 41 67 
230 683 202 31 78 116 
274 164 194 199 88 0 
249 354 390 134 137 146 
199 172 319 42 60 91 
236 714 155 139 7 41 
267 585 221 97 111 128 
204 995 289 109 83 56 
276 646 203 150 106 85 
175 577 330 145 149 164 
188 493 326 142 141 148 
202 267 265 155 30 54 
201 266 364 143 139 141 
202 164 318 45 65 86 
343 449 364 104 125 148 
257 919 364 204 150 124 
254 632 415 75 90 104 
233 995 366 110 91 75 
210 524 208 93 116 143 
165 932 319 85 72 61 
187 708 320 153 152 158 
268 562 402 111 115 124 
197 583 243 85 122 154 
205 318 357 57 98 135 
160 991 323 138 118 99 
295 724 450 121 138 168 
202 453 256 144 146 155 
177 913 319 69 53 44 
224 136 362 104 85 64 
265 841 403 154 88 96 
247 849 404 185 141 75 
210 116 273 81 66 49 
316 254 219 150 64 94 
174 832 328 153 140 131 
233 426 214 55 83 113 
265 142 195 126 90 62 
198 296 355 82 122 155 
294 657 255 64 56 56 
354 311 348 154 153 157 
210 119 274 83 67 48 
208 231 314 77 47 61 
228 277 229 119 98 100 
301 363 388 145 123 101 
212 113 273 84 68 51 
233 336 372 77 111 139 
185 1016 298 168 140 113 
205 765 394 131 132 141 
226 978 292 100 69 39 
278 695 451 85 105 140 
304 665 309 113 126 144 
162 797 282 140 122 107 
209 229 287 45 43 83 
288 401 400 159 64 3 
280 683 202 131 167 201 
180 587 321 163 163 170 
204 799 399 161 167 181 
161 946 345 78 62 52 
272 925 333 148 112 90 
285 658 215 40 76 103 
303 549 250 113 131 158 
215 114 274 87 71 52 
215 115 274 86 70 53 
281 204 203 108 52 14 
224 601 397 154 160 174 
193 935 379 167 128 101 
241 457 209 84 102 125 
309 725 338 117 138 160 
199 651 177 92 118 142 
300 743 368 130 156 184 
247 950 302 80 62 53 
249 954 303 99 82 71 
207 840 391 105 78 74 
217 763 399 110 116 128 
245 214 374 107 49 38 
210 647 190 114 130 162 
183 722 127 148 167 197 
303 428 253 82 79 112 
238 786 227 164 119 84 
261 665 429 62 105 147 
203 692 261 126 121 120 
174 556 358 200 189 187 
286 786 345 159 145 149 
196 145 335 109 84 66 
209 121 273 85 69 49 
181 589 327 194 188 189 
239 437 214 124 126 132 
201 368 313 138 37 77 
178 823 358 136 116 106 
306 313 374 106 119 135 
302 640 328 186 173 167 
226 142 279 84 73 63 
279 744 484 124 130 168 
305 159 192 206 58 5 
165 816 294 144 116 96 
235 620 394 74 99 150 
209 818 403 49 50 123 
281 185 375 75 73 83 
284 583 238 69 99 129 
167 555 333 164 167 179 
320 362 252 165 143 119 
219 625 197 60 91 122 
306 716 381 93 121 168 
329 465 252 109 140 174 
245 243 374 45 42 64 
223 797 193 186 152 124 
221 669 250 64 90 115 
329 492 261 120 138 173 
209 126 274 87 70 49 
238 691 464 90 97 147 
297 133 254 110 94 77 
297 348 221 163 134 102 
319 543 396 148 157 171 
184 754 362 160 157 161 
210 126 274 87 70 51 
259 35 357 114 93 72 
191 323 302 139 47 73 
250 844 372 156 120 99 
283 494 404 155 158 169 
222 732 484 116 131 165 
212 120 274 82 67 50 
318 130 219 132 103 83 
213 120 274 82 67 51 
313 314 259 64 105 135 
212 122 274 84 68 51 
212 123 274 84 68 51 
216 290 368 94 113 135 
233 162 279 77 66 56 
274 676 173 166 179 197 
257 939 366 146 116 84 
234 857 385 156 140 130 
215 121 274 82 68 52 
223 790 448 146 166 201 
284 708 223 153 53 57 
309 550 288 107 123 142 
169 830 305 104 121 140 
215 123 275 83 68 52 
293 679 212 68 97 122 
331 564 353 185 185 194 
212 125 275 85 69 50 
216 197 365 96 35 30 
175 787 346 182 148 102 
305 616 274 134 99 94 
287 281 209 162 160 165 
188 433 301 64 92 132 
257 770 480 178 192 231 
168 765 294 109 42 59 
216 886 375 144 112 84 
278 573 398 107 108 117 
216 820 414 178 21 49 
194 412 306 38 79 129 
260 833 419 95 110 159 
174 514 358 40 80 133 
274 773 255 152 134 121 
244 734 437 59 88 125 
278 680 198 124 159 192 
231 582 406 104 122 146 
274 684 444 91 112 140 
199 263 362 133 132 136 
243 713 162 78 56 81 
274 239 411 41 97 131 
304 641 275 73 60 108 
222 612 210 97 125 152 
323 391 252 163 73 6 
177 860 314 181 138 111 
244 414 413 176 137 86 
218 112 274 96 77 57 
203 269 285 138 139 146 
195 320 324 93 120 147 
258 729 500 176 124 101 
261 924 349 172 125 94 
266 615 406 119 98 87 
251 341 391 116 83 70 
219 115 274 92 74 56 
285 530 406 148 162 180 
172 845 274 197 144 115 
312 217 271 52 49 83 
303 753 384 135 157 182 
243 231 372 91 19 32 
243 894 311 175 137 105 
306 622 269 173 131 120 
229 773 181 146 120 92 
252 622 231 56 69 81 
291 760 451 154 166 185 
266 526 222 107 113 150 
305 375 255 92 92 115 
275 273 198 86 123 155 
265 799 449 159 170 213 
300 737 415 59 110 146 
197 470 265 55 87 114 
195 636 264 31 97 188 
232 511 197 82 111 146 
220 113 274 95 78 59 
337 444 383 102 117 149 
297 709 407 28 60 94 
334 378 390 134 96 90 
181 738 347 77 92 118 
219 754 466 184 172 169 
172 809 324 142 122 104 
257 23 221 141 129 122 
323 558 393 130 148 170 
253 683 447 95 110 142 
194 633 287 151 152 160 
194 671 164 27 47 115 
266 142 256 109 90 69 
266 321 198 138 135 152 
273 11 239 128 97 80 
292 182 202 45 83 123 
223 114 275 88 72 56 
314 458 406 130 146 167 
253 170 389 141 73 0 
330 410 331 72 99 129 
261 141 313 90 81 76 
221 117 274 87 71 55 
273 23 368 125 113 105 
263 908 353 157 117 85 
345 227 331 139 136 138 
280 622 209 114 107 103 
306 472 257 75 96 131 
224 986 378 108 93 80 
196 706 355 154 152 158 
222 554 195 82 112 156 
305 633 252 181 126 118 
230 766 411 68 80 106 
196 571 237 63 107 141 
230 368 378 130 129 134 
290 273 389 100 82 79 
241 666 383 85 105 155 
179 568 363 114 127 160 
303 709 345 124 144 168 
323 380 243 190 162 135 
230 156 279 84 70 60 
263 405 413 191 160 127 
334 415 394 103 120 145 
240 781 207 135 127 124 
290 321 253 126 123 127 
224 650 214 66 123 163 
190 487 380 117 127 144 
348 387 360 24 82 122 
174 576 298 108 113 151 
222 821 241 211 159 123 
263 744 497 91 118 183 
297 169 365 122 83 61 
219 121 275 84 69 54 
218 122 275 83 69 53 
259 245 196 53 82 108 
316 451 307 45 80 125 
309 589 292 117 126 141 
312 542 261 95 117 157 
289 246 247 100 68 60 
310 291 225 143 137 138 
350 349 367 123 134 150 
303 688 373 94 121 161 
245 375 405 176 145 109 
181 823 363 148 132 122 
225 719 126 174 193 219 
279 184 375 66 67 77 
237 145 317 83 72 62 
320 533 301 87 105 133 
220 657 367 104 122 152 
241 737 438 61 89 115 
196 278 311 123 121 122 
218 124 276 83 69 53 
204 836 241 225 167 132 
196 829 384 119 98 93 
211 435 387 92 112 131 
292 328 249 130 128 132 
251 691 189 85 124 156 
262 215 201 117 65 46 
323 389 243 165 65 6 
327 467 252 141 160 188 
197 204 259 37 68 116 
313 590 368 96 117 142 
182 847 260 223 160 121 
266 506 217 123 131 174 
311 384 259 63 70 79 
240 912 309 119 88 62 
226 383 380 79 103 126 
301 761 418 134 148 170 
310 307 257 73 94 114 
232 717 471 83 99 116 
180 874 304 188 143 115 
201 601 249 107 125 148 
268 402 211 192 162 132 
222 121 277 80 68 55 
263 352 204 197 165 130 
305 701 297 83 75 75 
222 122 276 81 68 54 
294 633 228 182 135 116 
316 377 317 52 80 121 
312 667 269 48 43 91 
257 804 449 135 158 219 
181 890 301 133 98 69 
220 124 277 82 68 55 
197 455 224 102 127 155 
194 1021 309 96 77 58 
275 701 215 174 30 61 
289 624 220 128 109 93 
220 126 277 81 68 54 
306 230 344 51 60 73 
163 759 270 59 52 88 
317 321 310 118 117 124 
173 711 154 93 113 139 
194 689 100 165 175 221 
234 641 389 23 30 56 
306 405 236 147 66 3 
288 450 223 119 107 94 
195 671 305 112 88 101 
174 768 203 67 72 82 
215 169 366 108 113 119 
293 368 275 86 96 120 
311 428 259 74 70 111 
278 207 407 156 116 94 
219 646 143 111 117 126 
267 520 221 106 125 162 
300 272 276 61 84 104 
188 607 293 135 143 157 
280 657 377 91 114 142 
166 549 334 106 128 155 
186 871 293 186 141 109 
251 344 408 150 154 165 
164 716 146 74 101 144 
252 35 384 141 100 81 
281 526 226 82 112 143 
211 837 256 221 168 138 
244 829 292 200 140 118 
310 436 246 110 67 84 
268 163 192 203 69 0 
207 389 250 53 97 137 
266 816 357 177 152 131 
297 404 263 79 91 122 
193 399 297 55 88 126 
260 822 355 163 131 107 
238 620 202 71 93 113 
230 64 271 107 89 71 
187 487 369 64 93 134 
239 733 502 146 170 203 
231 64 270 105 87 69 
169 795 203 212 176 144 
214 885 288 118 88 61 
197 727 245 95 103 114 
295 735 280 137 145 167 
281 546 228 168 169 178 
279 455 405 77 95 141 
276 648 377 87 99 145 
275 312 198 162 161 168 
188 926 372 135 101 79 
214 646 141 106 123 142 
307 416 235 140 64 21 
230 69 271 112 93 74 
278 703 468 72 99 132 
293 162 367 116 60 67 
292 288 211 168 166 170 
223 196 367 52 37 32 
230 70 271 111 91 72 
304 531 266 86 102 138 
283 285 207 139 141 149 
196 233 270 114 67 62 
304 662 260 62 64 67 
199 649 310 73 126 166 
185 726 257 94 102 113 
334 502 376 155 157 164 
190 1005 341 105 77 51 
265 138 326 95 85 80 
185 721 339 126 129 139 
234 876 354 100 78 52 
295 181 374 97 107 119 
301 399 286 84 104 132 
292 141 357 113 89 59 
188 466 294 82 105 141 
307 728 312 154 126 134 
205 617 256 46 101 176 
324 463 316 125 132 144 
296 494 405 162 166 178 
198 665 314 155 151 153 
306 439 291 83 104 126 
231 452 204 98 116 136 
174 774 341 134 40 48 
298 721 285 44 73 102 
185 635 261 56 107 198 
253 709 447 73 99 146 
280 652 457 133 102 67 
192 783 167 191 164 139 
331 203 311 109 38 31 
180 759 227 82 65 58 
314 662 292 55 47 87 
207 351 266 100 122 145 
305 263 278 127 125 129 
332 517 317 111 128 150 
277 659 196 42 38 92 
177 852 277 205 151 121 
209 420 381 38 83 122 
190 841 368 177 158 144 
310 691 247 85 93 106 
159 1001 308 116 91 71 
195 423 224 105 127 155 
276 653 378 114 129 152 
287 171 408 118 105 96 
181 835 236 214 156 124 
343 480 341 134 142 156 
174 778 338 140 27 38 
297 498 236 72 100 127 
292 789 393 182 64 84 
243 344 381 83 98 118 
241 718 458 118 122 130 
304 760 352 125 51 46 
186 676 293 87 123 152 
325 205 209 114 51 68 
197 670 318 155 154 160 
201 626 358 127 80 108 
270 560 402 102 114 152 
169 837 287 184 141 115 
308 619 320 87 126 158 
220 837 407 182 165 142 
171 937 359 88 72 60 
334 203 331 104 42 32 
229 564 191 93 117 141 
237 601 206 76 91 105 
290 331 265 125 109 95 
272 22 396 162 116 96 
279 744 234 141 126 113 
294 733 246 98 102 109 
264 679 425 43 86 116 
262 519 220 177 173 176 
246 631 386 76 74 96 
201 345 296 131 46 45 
253 732 209 45 60 76 
191 577 240 68 104 135 
267 775 252 210 157 121 
237 67 269 105 84 63 
221 660 196 125 136 158 
299 135 220 128 112 99 
308 751 354 180 12 36 
256 899 334 140 112 83 
224 999 310 92 68 51 
272 630 442 116 97 79 
186 261 338 75 111 141 
301 216 345 100 71 58 
225 638 151 125 132 143 
227 897 383 160 129 102 
277 200 391 107 75 72 
265 169 194 175 78 0 
245 611 226 77 82 89 
307 679 326 92 120 147 
211 665 355 132 133 141 
208 344 358 140 140 146 
238 68 268 104 84 61 
196 426 366 75 98 135 
249 661 146 94 86 79 
249 647 433 50 77 142 
305 402 255 64 85 113 
197 547 230 132 130 135 
238 70 268 105 84 62 
270 707 216 143 40 71 
322 132 227 137 102 69 
255 297 206 81 118 148 
255 632 419 58 60 67 
314 442 305 83 110 141 
330 386 395 127 95 106 
224 676 186 113 121 158 
221 634 242 72 104 132 
307 751 356 123 78 110 
177 735 314 127 136 151 
230 854 348 172 146 121 
189 494 248 120 127 141 
233 74 271 112 91 71 
270 26 385 169 138 137 
234 693 233 90 103 119 
254 918 319 150 108 78 
273 768 473 198 199 208 
342 441 367 109 124 150 
241 25 397 138 125 119 
178 732 267 121 127 137 
302 760 391 153 172 196 
207 366 360 142 140 144 
304 352 298 130 90 97 
308 393 257 80 85 108 
277 650 417 47 48 73 
253 284 400 137 140 149 
208 730 381 148 144 147 
208 273 250 80 74 117 
233 78 271 113 92 70 
251 693 195 129 24 67 
175 738 162 128 20 47 
218 706 112 189 204 228 
235 76 270 113 90 70 
255 405 229 66 67 73 
291 658 238 83 90 100 
257 793 458 200 207 237 
298 769 387 160 180 205 
308 300 225 164 162 167 
282 641 218 147 107 89 
236 72 269 105 83 60 
186 552 378 120 133 157 
243 282 373 147 73 0 
305 658 303 116 87 71 
291 440 400 102 119 151 
254 165 368 103 65 38 
166 710 139 87 109 134 
200 680 165 70 94 147 
255 292 206 84 120 150 
187 215 336 40 40 44 
258 930 360 185 139 114 
223 322 248 102 112 125 
179 750 186 61 29 90 
294 367 258 122 124 131 
233 695 120 142 164 191 
180 698 289 87 40 66 
229 702 235 94 103 115 
239 73 269 108 86 63 
305 746 361 118 146 174 
191 873 289 153 106 73 
274 807 431 166 181 203 
247 622 205 71 92 110 
250 775 218 150 140 138 
266 420 216 171 81 0 
187 989 284 121 95 63 
318 500 301 99 118 141 
302 199 359 124 74 73 
180 682 156 52 94 135 
265 753 226 173 140 102 
323 135 247 152 91 6 
193 462 279 90 103 118 
295 486 404 162 165 175 
200 332 339 129 134 145 
180 920 353 132 85 65 
274 259 409 156 111 87 
218 824 216 218 164 130 
263 193 199 105 91 100 
170 541 292 116 121 134 
161 950 348 84 69 56 
312 308 371 123 121 124 
327 428 401 116 128 151 
255 297 205 81 118 149 
173 570 324 152 155 164 
194 1021 311 115 86 64 
184 878 298 133 83 55 
190 1020 319 101 79 55 
211 600 387 113 126 167 
348 240 337 95 109 126 
188 620 280 73 111 146 
293 740 294 150 103 68 
346 400 351 79 104 148 
242 845 356 161 98 114 
332 478 392 147 154 167 
303 658 321 70 111 145 
182 622 279 100 105 131 
189 494 261 126 127 133 
319 148 274 141 45 18 
261 689 158 100 132 166 
261 935 337 118 87 68 
284 621 215 114 104 96 
182 593 338 207 189 178 
301 668 327 79 119 150 
230 729 463 74 92 110 
269 687 452 99 83 87 
216 282 235 151 12 73 
315 360 313 104 117 134 
342 504 338 129 141 161 
250 311 384 134 137 145 
263 780 253 201 150 113 
302 702 343 132 151 173 
228 70 272 110 91 70 
312 618 300 105 124 147 
204 353 273 140 102 49 
189 216 329 77 57 77 
164 796 291 149 130 113 
230 417 218 69 91 110 
326 575 361 184 181 187 
182 678 139 95 108 122 
197 656 303 71 121 159 
180 552 371 94 116 153 
174 762 347 133 146 164 
253 889 339 114 92 66 
224 194 367 75 36 32 
206 396 288 57 86 109 
243 286 218 113 66 75 
241 733 172 123 103 90 
229 269 371 101 109 120 
297 691 390 129 145 165 
255 893 361 158 122 93 
297 766 425 108 127 169 
220 506 407 145 153 167 
287 142 360 100 86 74 
227 500 411 104 121 157 
288 297 249 63 94 118 
288 182 375 97 83 78 
286 161 310 102 86 76 
319 576 381 131 144 166 
221 757 396 110 119 135 
296 168 358 103 77 54 
182 480 238 121 137 159 
250 945 382 173 138 112 
334 335 382 140 142 150 
313 553 264 108 127 156 
212 670 262 91 104 121 
238 725 506 58 97 173 
158 808 261 67 91 112 
278 462 220 95 132 169 
252 527 207 122 135 152 
222 819 218 194 149 116 
167 769 293 70 41 40 
224 576 196 107 129 156 
279 661 196 31 44 89 
204 468 204 157 166 186 
183 836 358 165 140 115 
227 744 490 115 124 182 
197 399 305 60 94 133 
239 848 348 120 119 123 
172 757 304 145 8 38 
322 213 294 79 45 31 
230 709 230 78 93 110 
271 720 222 156 141 129 
267 781 465 126 132 193 
188 810 375 161 37 58 
167 833 285 180 135 109 
164 767 182 66 65 65 
228 969 387 199 145 121 
207 431 383 59 93 124 
224 471 201 60 82 106 
304 484 238 107 131 165 
197 508 392 88 110 147 
177 521 295 86 104 124 
290 621 227 100 91 83 
186 686 299 127 127 136 
230 81 271 111 90 68 
312 466 250 123 144 172 
282 664 456 151 104 75 
232 582 407 115 126 145 
189 337 308 115 125 136 
307 362 303 146 142 145 
217 779 173 196 152 95 
300 432 263 54 70 114 
233 786 218 137 99 70 
204 431 379 47 85 132 
190 476 274 106 111 120 
287 580 239 74 106 140 
220 188 294 75 54 48 
290 754 282 203 169 136 
193 386 296 56 90 126 
304 482 406 145 156 174 
317 303 305 131 72 80 
219 995 368 107 85 67 
197 435 218 94 121 152 
231 536 407 101 119 157 
277 207 389 78 43 52 
295 312 213 109 116 134 
253 720 408 124 148 176 
238 178 376 132 72 54 
197 448 281 109 116 127 
206 282 262 140 124 122 
317 437 248 89 108 158 
259 945 354 166 126 100 
245 802 253 202 148 115 
218 128 356 107 87 67 
336 249 317 137 134 137 
169 545 312 148 150 157 
302 710 346 141 155 173 
241 156 290 85 73 64 
235 86 271 107 84 61 
311 505 291 78 99 139 
324 396 243 164 74 7 
320 163 236 159 71 2 
213 269 369 138 137 142 
311 324 257 68 94 116 
187 196 337 93 50 43 
187 780 169 78 66 64 
190 309 320 119 135 154 
244 546 205 88 114 143 
312 503 252 79 106 145 
328 204 309 108 32 24 
327 334 322 130 79 94 
219 528 192 130 156 190 
247 700 457 97 111 149 
323 445 247 81 119 185 
175 930 292 71 56 46 
310 213 337 67 53 56 
239 81 268 112 89 66 
217 863 351 123 84 63 
264 198 413 69 62 85 
323 161 224 153 64 3 
303 407 289 60 89 124 
250 360 396 117 129 145 
161 956 344 87 69 62 
309 191 323 69 37 26 
200 849 263 219 161 123 
259 229 409 151 86 89 
214 205 313 112 56 53 
283 771 284 188 144 135 
220 198 302 82 44 29 
315 417 247 141 125 113 
303 682 224 95 139 175 
270 282 196 85 116 145 
247 921 384 185 130 113 
272 307 197 152 152 159 
182 885 300 136 98 69 
235 681 466 74 106 151 
238 84 269 112 88 66 
238 85 268 110 87 65 
304 270 379 141 140 147 
261 957 331 125 104 85 
203 406 244 55 85 137 
183 685 156 60 51 107 
257 152 355 92 84 78 
197 180 257 148 38 5 
296 347 388 133 84 48 
342 512 355 110 132 157 
246 694 504 111 90 67 
176 965 365 80 65 53 
234 89 271 100 80 58 
291 254 244 124 50 1 
196 709 258 88 102 118 
230 642 159 62 76 91 
306 637 294 95 72 74 
303 523 272 80 90 122 
182 897 330 125 91 63 
235 712 196 49 54 75 
211 907 285 99 77 62 
282 327 206 135 127 122 
313 687 260 165 113 58 
220 879 295 142 108 80 
255 894 336 129 103 76 
304 516 408 112 127 170 
247 185 384 142 36 45 
247 374 227 127 126 131 
255 893 337 126 101 75 
250 667 400 86 113 174 
264 572 218 124 127 135 
193 405 304 99 117 149 
264 692 419 160 168 184 
292 588 245 75 111 145 
208 325 287 80 91 104 
300 710 356 127 146 167 
236 88 270 104 83 60 
294 540 405 174 180 193 
329 505 388 125 135 158 
281 461 404 163 158 160 
202 711 249 87 89 93 
316 439 250 121 138 174 
206 408 278 65 87 122 
321 274 259 146 144 149 
348 387 352 66 104 140 
198 672 344 70 124 163 
298 718 284 113 78 58 
299 306 217 121 137 160 
222 938 392 136 112 89 
233 592 199 112 121 133 
196 331 319 151 117 81 
233 678 232 139 138 144 
157 806 247 140 121 111 
304 717 386 66 93 151 
218 338 248 85 71 80 
210 200 315 104 32 52 
251 157 382 83 72 62 
342 237 342 116 122 132 
241 450 210 140 141 146 
207 574 229 74 69 92 
237 93 270 99 80 59 
194 620 294 148 146 153 
238 803 243 204 151 116 
201 455 270 92 106 121 
309 662 277 56 53 82 
214 503 194 141 152 174 
270 230 200 42 44 50 
205 575 232 59 96 133 
242 27 397 142 129 123 
263 899 347 149 115 81 
207 255 292 81 102 125 
177 736 308 132 148 167 
192 655 147 37 82 111 
315 224 279 105 98 96 
172 948 359 97 81 65 
314 283 236 127 126 130 
267 175 409 126 110 95 
239 94 268 100 81 60 
190 458 286 62 88 127 
188 841 365 160 146 136 
174 583 260 145 153 169 
322 191 299 85 52 62 
322 594 307 116 140 167 
191 877 336 153 113 82 
170 528 335 166 159 158 
337 284 320 96 116 137 
255 795 457 149 158 218 
251 249 382 39 73 104 
349 317 340 116 133 155 
315 626 316 108 137 166 
344 383 373 105 126 149 
192 161 339 109 108 109 
257 769 481 115 136 207 
332 522 381 120 135 162 
257 685 198 129 160 192 
248 247 375 37 54 90 
247 144 263 106 85 63 
224 85 273 101 83 65 
180 593 313 160 163 174 
278 645 412 36 49 98 
219 984 294 136 108 78 
208 857 274 201 142 103 
176 825 351 152 118 90 
236 335 223 79 120 154 
250 211 381 121 61 77 
196 639 265 24 94 188 
240 597 209 81 92 103 
303 690 371 129 145 165 
264 902 353 155 119 87 
304 597 259 101 116 136 
314 370 261 72 89 104 
206 767 157 122 109 104 
174 522 274 110 119 132 
238 971 382 203 153 130 
282 799 385 151 51 47 
210 814 195 227 159 119 
292 623 224 114 98 84 
229 80 272 111 91 71 
228 900 303 130 101 73 
228 82 272 111 91 70 
221 499 194 95 116 137 
210 1016 338 146 113 81 
293 737 465 102 123 169 
230 80 272 111 91 70 
261 632 186 107 97 90 
199 141 341 101 92 85 
326 428 246 126 120 130 
273 928 331 131 105 85 
195 628 307 161 158 164 
213 785 173 232 201 169 
295 760 313 123 115 112 
278 207 204 114 62 27 
320 365 249 162 135 105 
264 678 193 109 143 175 
275 787 307 167 155 148 
187 883 333 152 113 81 
310 558 399 123 150 179 
228 87 274 104 86 67 
307 592 347 110 149 187 
213 276 301 91 101 113 
245 721 450 97 113 131 
248 152 300 88 77 68 
173 841 262 209 154 124 
227 930 287 71 58 50 
260 412 222 96 88 80 
195 463 317 94 116 142 
193 837 224 237 157 115 
335 546 327 118 142 169 
201 199 360 73 37 32 
250 270 381 101 82 94 
252 702 196 112 59 64 
246 574 409 68 92 146 
204 321 298 77 79 81 
238 330 220 86 126 158 
256 708 402 109 129 168 
325 442 322 122 128 139 
224 91 274 102 83 63 
285 785 367 160 119 100 
227 786 457 137 161 195 
295 490 232 149 151 159 
320 491 404 125 136 163 
321 464 263 83 111 157 
312 329 228 146 91 60 
203 441 210 100 121 145 
232 834 418 86 87 143 
221 551 196 131 143 162 
207 670 355 132 133 141 
236 379 231 99 108 119 
247 709 169 131 100 121 
301 405 284 89 105 123 
261 224 199 116 47 35 
225 93 274 101 83 65 
269 685 176 186 212 243 
264 936 324 130 105 84 
234 517 198 124 136 158 
296 717 440 117 137 165 
174 827 335 185 141 84 
306 720 314 151 136 120 
285 141 213 116 103 92 
290 218 205 150 42 30 
333 551 342 119 146 174 
224 445 208 57 85 110 
325 296 374 84 118 146 
292 187 322 42 40 41 
226 95 275 96 80 62 
219 388 379 131 119 112 
275 358 203 163 25 61 
211 951 277 71 54 42 
225 811 226 182 140 103 
235 705 195 68 80 95 
205 366 323 167 122 62 
205 254 289 84 96 110 
330 352 327 119 46 71 
322 480 309 71 98 132 
206 477 204 179 182 191 
229 90 274 105 86 67 
256 225 406 143 71 79 
297 192 323 75 30 37 
267 654 172 139 111 93 
244 857 390 178 153 130 
285 785 441 86 113 185 
206 276 366 119 127 141 
170 800 210 171 147 125 
316 450 307 54 84 128 
316 508 263 129 147 167 
333 500 379 57 96 146 
265 171 403 113 101 94 
189 947 283 84 66 46 
203 577 236 69 109 141 
224 216 370 93 40 45 
326 196 211 96 89 106 
186 558 239 131 132 140 
187 262 321 86 120 149 
183 808 203 140 77 46 
307 719 325 93 135 169 
190 408 298 91 115 143 
193 728 248 60 46 49 
221 736 482 125 121 152 
187 281 317 92 36 37 
246 312 218 160 156 158 
247 814 441 204 215 236 
224 702 240 81 71 74 
230 94 275 94 77 59 
303 287 284 88 105 124 
229 566 405 133 146 165 
189 603 249 85 113 138 
200 431 286 58 85 109 
259 616 233 53 67 82 
203 278 280 97 79 84 
296 522 236 155 159 171 
221 602 230 70 110 141 
194 289 343 111 128 148 
251 347 410 126 136 150 
277 466 405 78 96 138 
180 762 204 120 94 58 
234 125 360 112 89 64 
334 453 394 70 96 138 
272 581 233 102 112 125 
248 980 354 144 112 93 
285 632 428 160 111 90 
265 164 390 96 81 67 
296 602 376 64 89 110 
262 28 232 208 184 177 
246 491 411 28 59 132 
163 744 149 113 125 144 
302 763 338 177 137 108 
184 453 242 84 107 141 
195 662 301 79 127 163 
342 319 332 148 101 21 
178 854 329 188 143 119 
206 699 368 36 66 119 
211 647 191 114 131 161 
302 260 274 101 103 109 
225 704 485 84 113 150 
211 340 247 94 118 141 
191 671 115 50 82 126 
242 119 348 92 74 53 
201 163 277 94 80 66 
221 467 202 79 102 126 
204 687 265 116 119 127 
327 445 259 70 107 158 
254 931 315 149 103 83 
171 559 272 104 128 155 
232 92 274 96 78 58 
262 18 358 120 108 99 
265 146 203 98 67 36 
252 217 387 134 60 51 
281 449 217 131 124 121 
232 633 385 111 115 128 
226 961 391 192 143 115 
203 391 365 82 95 124 
219 386 378 106 95 90 
204 635 185 89 113 136 
291 690 404 83 96 149 
253 703 198 127 57 52 
265 905 339 138 108 76 
211 916 385 187 143 119 
287 171 337 65 61 60 
252 635 402 46 56 81 
316 212 201 170 52 84 
308 681 236 90 73 74 
211 455 208 52 84 111 
286 773 454 174 177 194 
178 688 134 86 102 119 
305 495 278 118 126 139 
248 215 377 133 48 36 
226 643 154 68 80 92 
180 547 243 94 116 140 
289 256 206 82 84 97 
177 506 322 130 133 143 
178 914 332 104 83 63 
224 597 222 66 111 144 
180 512 296 85 106 130 
207 343 293 115 88 49 
187 795 376 82 77 81 
311 537 294 111 123 141 
315 312 239 82 111 138 
194 404 230 36 78 119 
218 652 206 79 126 162 
243 229 372 92 38 46 
292 174 314 32 54 80 
186 260 338 74 105 134 
189 831 218 205 141 116 
233 330 371 78 66 90 
288 285 252 75 78 88 
288 137 243 116 100 84 
256 687 172 137 170 202 
290 628 392 173 116 104 
228 512 410 178 175 180 
243 839 304 179 121 94 
246 67 262 100 81 61 
225 845 401 180 48 69 
310 314 227 127 134 146 
225 337 370 67 101 129 
253 719 508 176 120 96 
280 168 365 95 70 62 
230 470 201 102 115 130 
261 295 198 91 130 168 
198 443 312 99 117 144 
305 696 373 107 124 154 
324 386 247 137 138 145 
235 741 393 61 87 140 
263 641 456 109 91 74 
173 531 287 149 147 150 
190 787 381 150 162 179 
244 895 315 171 131 99 
205 606 379 110 119 161 
302 729 268 87 76 67 
237 528 409 109 125 157 
188 175 336 59 41 54 
328 375 394 124 110 97 
286 802 413 128 160 199 
230 541 407 96 118 155 
180 942 284 72 58 45 
304 214 351 93 70 63 
209 732 185 98 103 123 
252 763 212 131 120 113 
246 719 509 190 135 118 
180 504 366 41 77 130 
203 435 276 79 96 112 
162 927 335 102 83 65 
292 550 239 112 134 171 
183 735 172 128 42 52 
277 341 408 164 138 109 
172 981 344 110 89 72 
258 320 414 113 133 155 
249 952 382 195 145 119 
293 369 259 82 95 113 
274 142 354 83 76 72 
268 686 171 171 195 226 
211 184 311 72 66 64 
300 605 368 107 95 93 
277 220 201 91 54 44 
312 597 275 151 166 188 
229 612 394 98 126 153 
187 877 333 157 117 85 
212 579 228 90 112 135 
211 207 365 28 47 68 
301 342 292 132 88 103 
322 512 265 94 107 150 
230 719 197 100 110 123 
222 874 344 107 82 60 
307 519 281 115 127 145 
241 68 266 98 79 59 
245 660 456 126 104 82 
262 799 275 201 150 117 
302 438 403 102 121 151 
240 492 201 57 90 135 
243 700 156 182 208 236 
254 956 372 190 145 117 
230 733 499 130 134 184 
259 621 396 127 99 89 
197 697 162 138 139 146 
219 466 202 44 80 111 
226 631 165 72 111 142 
189 729 358 109 117 128 
243 69 264 99 81 61 
173 767 195 66 62 63 
244 154 295 86 73 64 
211 163 284 81 73 67 
203 767 157 127 85 93 
324 578 370 176 176 186 
243 70 265 100 83 64 
254 717 196 101 48 56 
305 295 222 166 162 166 
248 319 383 151 148 150 
189 838 233 236 164 122 
187 720 344 159 157 162 
175 804 349 109 99 93 
314 597 330 149 78 97 
244 67 264 98 80 61 
284 220 387 91 85 101 
197 666 338 74 121 158 
271 684 454 109 83 78 
289 275 247 89 98 111 
310 590 350 74 141 186 
172 541 358 182 173 170 
243 500 412 114 127 152 
207 325 263 143 145 154 
300 343 384 155 132 107 
303 411 292 94 114 136 
263 776 249 197 149 112 
243 581 212 95 104 116 
234 498 198 163 160 165 
285 338 215 176 140 93 
234 730 155 141 60 74 
171 841 293 188 145 118 
254 541 209 127 135 152 
263 781 253 200 149 112 
317 547 397 172 174 183 
204 433 255 146 146 152 
256 402 414 199 168 137 
205 978 290 128 95 71 
315 319 307 134 39 74 
334 470 390 96 114 150 
205 699 103 167 179 213 
246 72 260 99 79 57 
174 963 361 83 67 55 
301 223 200 110 82 97 
211 610 384 173 172 179 
247 72 260 100 80 58 
307 448 292 82 100 122 
276 399 409 195 164 133 
186 595 273 130 136 147 
195 977 376 106 85 70 
280 179 396 147 75 6 
187 602 333 196 183 177 
225 393 382 118 73 21 
261 40 369 121 92 67 
223 167 371 133 68 42 
205 215 364 50 57 88 
247 77 256 94 76 56 
234 684 226 142 143 152 
288 555 235 72 106 146 
172 567 308 160 158 162 
291 447 227 98 75 52 
226 599 197 104 118 135 
307 703 250 197 97 29 
272 145 235 107 88 68 
206 820 200 225 155 115 
275 653 423 71 82 100 
290 690 428 124 139 158 
242 534 409 65 88 146 
240 262 372 109 26 43 
237 432 214 69 92 112 
240 147 370 75 65 54 
247 78 258 99 80 60 
233 326 371 128 132 141 
239 33 391 144 108 96 
200 450 210 103 125 163 
249 731 419 34 70 147 
303 628 335 130 125 128 
214 514 199 98 121 155 
245 78 261 101 82 61 
313 177 261 100 55 35 
210 294 294 78 44 40 
313 222 258 96 71 73 
217 993 372 102 86 70 
267 192 201 127 95 96 
176 526 296 95 109 127 
279 739 485 99 119 169 
234 328 236 76 48 66 
192 704 345 147 145 151 
218 877 365 108 86 61 
205 1012 293 129 99 69 
221 848 282 199 149 119 
209 629 182 81 100 120 
194 926 377 168 129 103 
303 380 296 23 75 106 
254 643 443 121 103 88 
282 656 412 159 160 168 
318 314 378 128 134 145 
256 712 508 171 117 95 
286 351 217 190 148 92 
231 708 504 133 102 83 
196 656 136 130 133 141 
250 689 389 76 107 162 
241 74 266 103 84 64 
187 202 338 50 49 69 
259 405 415 204 170 135 
299 320 221 132 0 58 
180 642 274 160 164 174 
269 295 196 82 123 157 
243 72 264 101 82 61 
236 324 372 142 138 141 
185 825 368 140 107 75 
279 645 371 59 89 154 
238 761 485 221 220 228 
188 466 245 96 120 144 
190 384 302 58 88 135 
324 374 324 123 129 141 
184 596 345 198 181 172 
188 811 375 167 32 48 
197 1021 320 128 94 59 
174 736 283 74 56 87 
251 160 389 99 88 77 
297 636 234 175 124 108 
239 848 357 111 100 96 
177 856 284 204 153 124 
218 811 423 124 140 166 
284 168 333 74 60 54 
182 600 250 73 118 154 
190 445 342 80 97 122 
233 786 210 145 104 76 
305 433 291 86 104 133 
220 625 191 74 104 134 
296 379 281 67 98 124 
312 309 228 152 155 165 
250 551 209 71 97 124 
253 708 398 107 136 164 
195 185 323 96 43 46 
225 728 472 133 131 135 
294 393 268 82 103 130 
219 160 285 69 60 53 
