ply
format ascii 1.0
comment Created by CloudCompare v2.11.1 (Anoia)
comment Created 2/28/22 9:40 PM
obj_info Generated by CloudCompare!
element vertex 2007
property float x
property float y
property float z
property uchar red
property uchar green
property uchar blue
end_header
265 684 490 121 97 71 
194 360 299 88 117 144 
349 293 355 141 141 148 
318 320 307 119 59 85 
229 369 233 98 95 95 
217 148 363 111 101 93 
233 329 218 81 118 150 
287 349 240 90 100 116 
285 643 218 145 106 88 
270 739 219 214 212 216 
303 421 227 144 125 103 
289 631 413 158 109 92 
180 985 343 91 72 56 
179 745 183 92 35 55 
239 698 184 139 147 163 
223 983 377 105 88 74 
305 208 233 140 78 79 
249 706 220 99 106 117 
219 149 245 120 96 68 
238 292 214 84 120 150 
201 327 294 100 88 88 
218 151 245 121 97 68 
248 481 413 65 96 160 
219 150 245 121 97 69 
243 680 134 94 123 155 
216 524 191 126 140 183 
300 195 189 57 48 64 
284 675 385 94 116 152 
284 646 362 108 105 149 
280 701 206 168 84 88 
278 388 407 181 154 127 
276 634 190 108 92 75 
261 405 410 168 142 115 
261 252 401 103 89 109 
216 553 212 80 106 131 
255 822 310 189 136 104 
186 712 316 155 154 161 
185 497 311 71 95 121 
206 336 333 118 131 148 
258 254 387 35 75 104 
222 147 245 118 94 67 
249 711 457 89 103 126 
240 175 361 112 106 101 
225 885 295 142 110 81 
316 281 241 155 154 160 
309 677 302 79 86 99 
173 754 330 143 102 99 
316 329 379 93 111 130 
297 257 383 77 108 134 
294 433 248 25 67 111 
263 686 493 119 95 70 
188 754 224 76 25 37 
183 600 302 143 155 172 
221 151 244 119 95 68 
302 201 333 103 52 44 
308 703 293 106 93 84 
215 856 374 186 165 149 
302 644 316 185 172 168 
307 218 267 50 54 98 
217 733 197 109 111 117 
305 667 316 80 125 159 
224 592 199 103 127 153 
278 606 401 102 91 84 
181 833 228 212 149 122 
167 740 135 168 169 172 
345 301 325 163 161 166 
275 695 491 142 103 73 
164 815 293 139 114 101 
263 700 198 153 75 61 
217 153 245 121 97 69 
204 390 329 71 88 106 
320 439 395 174 174 182 
180 511 288 110 123 142 
351 326 360 144 139 138 
237 868 300 161 124 91 
194 707 151 7 47 77 
227 785 192 176 154 143 
203 454 377 75 98 139 
191 790 170 216 169 113 
300 647 325 162 148 142 
255 356 384 157 154 159 
340 495 348 146 152 165 
263 712 204 126 75 59 
296 371 218 140 72 51 
216 156 244 120 96 68 
251 248 365 41 69 106 
228 392 220 83 102 120 
208 1022 311 135 101 69 
199 923 269 66 52 39 
247 284 198 154 20 72 
277 779 278 100 127 151 
182 882 300 120 82 58 
313 395 243 154 75 5 
219 814 210 188 145 110 
266 654 176 150 111 80 
309 551 285 85 112 136 
263 283 401 88 102 120 
335 563 357 175 175 184 
334 505 386 60 85 158 
292 361 209 160 133 104 
249 546 204 129 144 168 
202 356 288 119 68 77 
222 616 226 114 71 84 
300 215 255 35 62 88 
252 696 145 91 124 156 
206 161 315 88 83 85 
251 961 304 98 77 59 
258 844 372 183 158 136 
238 718 151 152 67 73 
351 380 346 83 123 156 
254 820 297 187 131 105 
219 650 149 94 111 130 
232 716 482 122 139 159 
178 515 361 47 91 132 
305 272 214 67 103 132 
266 786 459 102 130 205 
248 207 362 81 53 72 
182 752 194 92 40 31 
269 710 208 132 34 48 
316 265 295 85 51 55 
293 174 394 121 87 41 
180 592 311 121 131 151 
261 949 359 181 135 109 
208 434 375 37 78 128 
210 169 311 49 54 64 
284 566 228 135 149 175 
215 861 364 177 159 146 
286 185 191 45 76 117 
278 411 206 190 160 130 
257 489 209 116 138 168 
292 386 209 175 98 74 
216 274 233 59 86 111 
235 588 402 176 166 163 
200 418 330 102 113 127 
188 704 145 50 48 100 
186 878 294 124 77 51 
202 356 260 100 111 125 
223 157 244 117 93 66 
327 560 299 153 157 168 
222 159 244 118 95 69 
173 535 296 122 126 134 
309 717 369 146 156 175 
184 679 142 70 110 144 
248 752 487 147 175 209 
173 769 226 93 95 99 
293 663 235 97 98 101 
281 620 220 113 103 97 
255 831 344 186 164 146 
319 190 296 25 63 88 
288 675 403 38 67 136 
256 688 444 93 107 147 
298 237 192 93 101 116 
256 10 254 112 100 92 
344 332 329 151 118 82 
213 944 389 174 135 111 
253 488 207 148 147 153 
227 128 357 106 87 66 
198 165 254 97 83 68 
286 284 237 96 96 102 
308 570 273 119 134 154 
310 602 268 151 166 191 
213 466 391 158 152 153 
238 16 388 115 105 98 
201 385 333 83 100 125 
195 931 376 171 130 105 
235 734 152 181 99 112 
200 165 320 92 50 48 
215 129 322 89 74 61 
180 848 336 88 123 152 
331 571 356 171 169 176 
201 679 149 52 52 119 
245 636 379 65 58 75 
197 369 303 101 109 132 
211 483 394 165 158 159 
306 264 219 72 113 145 
232 290 366 124 113 107 
200 730 178 62 79 103 
251 309 199 84 112 133 
186 758 218 104 86 67 
303 680 220 96 129 158 
273 461 216 81 96 122 
346 260 344 122 125 131 
213 675 114 101 90 80 
247 693 459 86 94 145 
185 458 223 116 130 150 
194 174 254 107 98 89 
194 174 255 101 92 84 
322 224 298 91 74 79 
204 134 338 106 86 63 
195 174 254 109 100 92 
184 796 179 179 154 140 
265 506 210 119 132 169 
293 312 210 110 130 151 
308 754 394 81 91 149 
281 154 326 112 55 8 
275 637 394 96 81 85 
249 821 433 200 212 232 
199 169 250 93 83 72 
192 230 274 96 46 47 
219 635 170 45 91 130 
256 916 366 195 141 119 
199 171 248 112 99 86 
289 172 343 57 60 67 
193 957 378 122 100 83 
309 729 342 114 143 170 
182 587 336 157 166 181 
220 245 304 77 65 68 
194 677 270 65 81 111 
183 812 202 188 131 98 
306 533 278 134 142 156 
229 345 230 70 105 135 
229 719 182 77 97 134 
303 650 314 121 91 99 
207 462 197 127 138 154 
218 536 198 96 129 161 
179 990 327 64 43 28 
242 177 361 122 71 50 
202 684 264 83 100 118 
187 478 338 135 136 143 
300 161 354 89 65 50 
202 1022 306 118 91 62 
308 745 355 142 159 179 
279 435 207 130 117 103 
307 518 282 110 118 138 
347 285 354 114 128 145 
202 682 149 48 47 112 
272 338 192 144 148 160 
331 512 311 131 143 160 
240 499 409 68 95 147 
274 604 387 53 57 73 
249 778 225 87 56 37 
255 895 360 159 118 97 
197 172 251 113 104 95 
188 758 208 85 28 36 
298 174 240 128 85 58 
252 637 180 111 100 92 
303 649 290 82 92 102 
310 135 274 153 78 9 
262 937 317 151 125 104 
197 152 270 114 91 66 
188 891 335 136 106 77 
327 553 378 135 153 194 
197 175 250 109 100 96 
280 13 384 111 87 68 
198 258 281 134 27 40 
288 177 324 38 61 81 
344 389 331 59 95 138 
274 663 191 50 39 94 
251 258 188 112 93 87 
185 490 224 112 122 142 
285 688 468 151 104 73 
300 639 342 127 94 113 
157 998 316 157 133 111 
240 779 223 100 62 50 
199 175 248 118 108 99 
216 670 167 108 128 159 
196 172 253 108 100 93 
256 698 177 108 136 162 
162 758 264 76 73 71 
211 846 271 205 154 119 
191 307 307 144 146 154 
175 768 349 141 154 171 
245 840 322 185 133 110 
203 167 247 118 97 74 
306 746 432 129 131 163 
274 543 221 57 82 160 
174 569 266 137 145 159 
187 945 273 80 65 51 
218 457 197 48 81 108 
214 902 381 145 110 83 
286 760 286 167 120 99 
221 626 381 47 41 64 
237 682 211 58 122 167 
318 238 295 67 65 71 
254 640 423 66 98 130 
219 632 376 122 147 181 
199 447 251 144 145 152 
209 850 272 197 146 112 
182 696 287 125 122 124 
222 534 398 144 147 162 
186 516 373 101 114 140 
236 542 402 153 159 172 
199 448 252 99 116 135 
298 651 256 133 104 83 
344 387 380 72 97 132 
181 813 363 97 116 134 
306 189 230 75 102 126 
200 405 288 50 82 115 
291 782 381 107 36 57 
250 695 499 103 83 62 
169 560 332 209 199 195 
310 444 251 74 106 140 
288 681 199 68 98 122 
183 589 343 212 194 184 
181 859 279 210 158 126 
305 490 233 123 138 160 
233 855 358 94 86 88 
268 190 401 118 99 85 
244 264 365 92 64 75 
274 137 318 95 87 82 
338 553 317 183 179 184 
228 323 222 121 87 98 
208 847 381 211 168 121 
203 160 249 120 97 70 
178 517 360 51 81 134 
248 685 452 123 117 151 
202 161 251 114 93 70 
244 482 197 114 121 134 
180 585 239 154 148 149 
173 954 297 116 86 64 
193 746 129 219 29 37 
220 993 368 110 93 78 
259 572 401 84 120 151 
280 498 219 105 121 162 
258 697 447 107 123 151 
321 396 390 149 130 111 
244 755 486 155 161 206 
269 546 401 94 113 139 
192 249 345 108 75 85 
339 509 356 122 137 156 
201 161 252 110 90 69 
275 518 403 52 78 126 
181 687 291 142 148 160 
202 1022 304 113 82 40 
234 260 213 128 107 97 
309 143 256 142 101 59 
200 163 253 103 85 65 
263 335 409 138 146 160 
266 437 215 108 95 84 
231 567 188 141 153 172 
194 394 224 71 100 127 
246 674 137 140 139 146 
251 488 205 96 110 126 
262 147 228 111 91 69 
216 851 385 181 145 108 
331 483 316 124 131 142 
306 757 355 91 146 184 
355 347 354 126 140 158 
300 422 399 145 126 107 
222 760 395 129 129 134 
219 793 417 49 80 151 
196 714 358 63 73 86 
347 223 317 110 27 57 
181 482 237 114 128 146 
223 778 445 139 147 174 
199 766 150 110 105 119 
326 205 301 114 43 21 
236 876 348 101 78 52 
224 307 364 125 122 126 
174 761 344 137 146 157 
202 166 248 118 97 73 
240 708 147 158 195 229 
315 160 286 97 57 30 
159 998 321 150 124 103 
346 375 332 88 123 154 
275 807 362 123 82 49 
200 164 253 102 85 67 
287 164 315 96 54 43 
184 674 143 17 79 128 
204 332 286 141 101 59 
305 668 303 106 113 123 
224 552 195 102 121 145 
316 185 292 29 71 100 
260 960 328 110 91 76 
256 442 215 31 63 113 
300 721 282 45 70 99 
171 711 114 135 150 178 
204 836 243 223 170 133 
204 162 248 121 98 70 
337 287 316 134 145 162 
172 740 157 122 95 87 
222 900 296 139 108 78 
278 303 258 82 59 59 
304 657 295 131 94 68 
224 725 131 189 200 223 
216 393 222 40 82 111 
283 766 298 138 117 98 
267 683 417 55 78 125 
279 294 258 64 95 119 
304 738 409 67 110 152 
206 343 343 154 149 151 
212 799 184 162 150 143 
202 171 247 104 89 78 
318 600 300 85 116 148 
267 141 344 85 78 73 
194 954 379 120 99 83 
251 701 456 94 99 138 
201 172 247 116 101 88 
204 377 331 114 118 128 
298 736 257 100 110 138 
200 175 247 115 105 95 
277 826 402 141 36 91 
235 427 390 121 107 96 
204 247 289 60 29 32 
298 129 251 128 102 85 
179 781 357 167 24 52 
180 747 187 97 28 40 
171 745 162 114 124 134 
228 477 400 76 105 141 
192 725 359 85 127 164 
338 383 384 148 129 110 
246 30 391 166 148 142 
266 708 408 81 114 167 
202 474 214 33 61 119 
259 544 206 149 156 169 
195 829 208 230 150 112 
205 168 245 114 95 74 
261 943 358 152 117 91 
339 534 320 139 146 158 
244 333 368 64 99 128 
353 252 326 131 135 143 
287 562 396 147 158 176 
217 632 241 88 111 137 
291 780 363 177 72 87 
215 621 379 80 108 134 
195 838 238 245 178 135 
303 744 309 176 124 124 
163 821 250 172 123 87 
240 233 364 73 39 49 
302 539 261 112 124 143 
218 701 375 128 135 148 
184 776 160 176 148 131 
314 219 290 92 40 54 
164 961 319 120 96 70 
161 809 283 130 101 79 
221 876 359 90 71 48 
238 380 378 103 108 117 
307 145 244 123 127 136 
272 393 410 192 162 132 
170 549 267 82 108 142 
268 22 243 140 108 87 
262 533 405 105 122 156 
256 525 406 162 167 179 
264 661 168 130 136 147 
249 89 343 93 76 57 
222 203 307 90 42 44 
286 186 190 48 75 115 
260 851 395 120 115 133 
251 915 379 193 141 122 
303 257 200 149 110 106 
190 744 235 69 34 38 
339 493 364 98 122 158 
312 345 301 99 114 130 
286 677 463 147 101 73 
186 460 344 111 121 135 
185 897 335 144 112 82 
207 173 244 128 115 103 
246 93 337 80 67 53 
277 16 236 142 104 77 
207 174 244 136 123 112 
287 392 267 52 82 109 
213 625 245 86 107 143 
181 511 289 95 114 137 
300 334 245 103 102 104 
317 207 214 68 103 131 
200 703 102 232 226 231 
321 257 298 78 104 126 
201 1021 333 133 111 88 
176 838 248 214 158 126 
185 593 335 201 185 177 
299 707 419 89 114 158 
201 171 248 106 93 81 
275 668 434 105 80 73 
291 381 209 158 31 67 
244 529 197 121 133 153 
347 443 360 106 126 148 
200 939 273 70 54 43 
186 769 151 121 117 126 
249 956 297 93 76 62 
199 178 247 109 101 95 
232 846 292 179 129 105 
299 612 377 170 118 110 
320 154 209 120 108 98 
248 765 205 200 172 144 
217 694 107 75 97 152 
238 874 361 100 80 57 
267 434 408 161 64 17 
195 176 251 115 106 100 
262 372 409 128 81 66 
273 283 191 132 115 109 
258 956 365 187 141 114 
199 750 380 90 106 144 
208 153 356 126 91 57 
288 320 245 59 63 75 
325 524 301 100 117 139 
285 138 225 126 106 88 
216 402 218 58 93 120 
283 817 399 174 143 164 
307 685 273 153 99 43 
310 495 252 79 92 143 
185 883 295 143 107 77 
243 337 367 62 95 125 
267 698 427 41 120 165 
200 835 383 77 78 83 
269 291 186 85 114 140 
341 526 349 176 174 180 
318 444 308 53 88 121 
218 308 237 133 142 158 
200 305 325 82 118 149 
207 378 325 142 140 146 
216 683 253 101 104 110 
180 963 366 109 94 82 
192 201 334 95 42 39 
275 920 327 138 109 77 
201 999 282 125 102 78 
269 770 241 166 153 146 
308 221 271 101 49 62 
224 884 294 143 112 83 
203 304 252 152 64 5 
230 742 450 96 105 118 
172 979 338 81 64 53 
340 512 355 90 114 155 
200 443 367 50 84 126 
206 383 226 65 99 132 
195 692 325 61 103 141 
307 241 274 75 101 124 
305 190 367 102 85 84 
185 925 360 110 81 59 
199 729 371 95 111 145 
305 701 288 112 42 29 
193 181 252 121 85 28 
272 932 322 133 109 85 
184 498 260 110 115 123 
267 683 165 144 165 196 
223 374 227 92 95 106 
176 581 302 125 137 159 
189 597 355 180 178 185 
261 954 355 178 135 104 
207 672 123 89 82 77 
262 394 410 152 93 77 
306 699 317 140 157 179 
286 199 391 115 82 67 
202 395 279 61 93 125 
245 144 341 68 56 43 
174 744 170 126 19 38 
257 56 363 122 94 68 
222 605 223 70 109 140 
299 546 239 151 153 167 
289 133 258 112 83 60 
327 584 306 129 145 175 
285 435 215 147 95 57 
340 275 314 118 88 91 
281 139 227 125 104 86 
192 272 329 66 110 145 
178 576 246 161 156 159 
246 943 300 98 65 50 
232 850 396 123 133 145 
266 650 176 149 111 77 
214 186 289 99 42 19 
190 714 260 106 114 125 
305 493 281 134 138 149 
175 573 267 141 145 158 
258 703 186 121 59 59 
298 781 386 155 171 192 
172 950 355 75 61 49 
303 729 411 109 131 167 
264 923 345 166 120 90 
185 688 281 94 105 120 
198 178 248 110 100 92 
308 206 264 37 53 79 
196 640 318 141 142 152 
200 402 247 100 122 145 
201 376 302 133 135 143 
258 725 425 72 126 167 
296 241 239 67 46 62 
176 922 299 76 62 51 
234 849 323 177 124 100 
307 739 324 126 137 161 
162 822 255 171 123 92 
215 681 254 110 112 119 
199 310 256 134 135 143 
172 790 321 127 109 93 
174 772 209 90 96 104 
184 750 236 68 34 40 
250 630 204 69 68 69 
205 461 199 130 140 157 
195 477 244 136 141 152 
198 184 247 129 51 8 
210 691 254 83 55 66 
192 476 236 131 138 152 
182 618 259 64 113 150 
270 518 406 108 123 151 
252 771 217 162 151 144 
220 183 289 86 58 42 
196 244 318 105 61 69 
214 178 304 68 63 62 
210 423 213 51 85 113 
264 23 228 102 68 60 
257 450 215 62 85 107 
194 434 339 45 72 111 
196 219 352 100 50 65 
198 189 246 135 64 0 
279 807 428 157 176 200 
339 465 323 128 134 146 
274 355 196 163 30 67 
183 723 331 154 153 158 
224 605 204 111 128 148 
198 191 246 131 58 2 
297 738 275 169 150 196 
174 732 294 136 149 166 
268 661 179 131 135 144 
349 370 372 120 47 94 
221 786 430 122 131 159 
238 412 213 49 87 116 
195 184 250 135 60 6 
342 531 334 99 119 159 
284 402 407 189 159 126 
203 810 190 235 165 122 
315 298 243 84 116 144 
179 924 349 120 77 65 
332 517 384 78 104 151 
181 720 275 121 135 151 
258 262 393 102 51 57 
243 506 195 167 165 172 
235 459 408 106 120 150 
210 830 219 224 163 130 
176 819 218 182 129 93 
235 525 191 124 136 151 
343 523 338 149 154 165 
246 407 395 122 135 150 
272 139 268 105 84 68 
193 185 254 148 57 15 
256 452 209 125 133 145 
213 674 161 71 99 148 
306 261 204 169 159 160 
200 900 276 123 91 63 
300 724 297 155 49 35 
322 425 314 145 142 145 
230 619 202 76 96 114 
288 349 239 89 100 116 
252 629 205 79 73 68 
259 777 245 191 140 106 
221 778 426 72 100 136 
231 109 357 124 100 75 
317 590 328 131 158 191 
341 521 347 133 144 161 
282 188 385 60 61 73 
225 688 169 108 129 159 
305 157 261 109 30 40 
185 550 228 101 115 131 
237 139 321 79 70 61 
195 188 250 147 69 0 
231 461 398 69 93 128 
277 780 277 181 174 173 
300 758 450 109 128 176 
187 712 109 167 178 213 
223 552 200 124 137 155 
304 664 316 90 123 152 
315 413 393 144 131 122 
190 906 351 108 85 58 
260 326 393 83 127 162 
220 334 364 74 110 140 
193 188 253 148 58 12 
170 553 313 80 110 149 
303 729 403 133 148 167 
291 257 194 106 117 133 
302 598 363 75 131 171 
329 446 395 102 125 153 
311 263 243 138 135 133 
250 657 440 68 101 141 
311 576 381 204 205 214 
176 750 313 111 114 133 
205 341 311 162 124 77 
193 191 253 149 61 3 
235 290 218 94 110 124 
185 561 368 83 104 156 
282 770 304 139 119 100 
259 286 386 138 142 152 
278 658 211 99 97 98 
304 634 248 183 128 120 
166 826 250 182 129 99 
202 403 357 106 119 136 
195 290 325 156 155 162 
291 625 222 108 94 81 
298 194 237 100 49 59 
189 887 334 141 112 81 
342 518 341 110 127 149 
233 813 433 142 151 197 
196 186 249 142 70 20 
160 795 233 96 79 63 
212 299 361 150 141 136 
228 561 399 132 139 162 
237 519 406 133 150 174 
265 595 393 52 87 122 
290 160 364 99 66 43 
211 159 280 87 70 51 
195 524 381 154 153 159 
256 143 257 113 94 74 
308 349 230 136 64 55 
206 818 392 168 18 45 
252 189 367 96 41 52 
181 840 347 140 126 119 
298 279 241 75 94 115 
196 191 249 138 45 6 
191 450 355 68 92 130 
292 778 360 183 128 94 
200 177 246 110 103 96 
221 644 153 65 102 132 
274 695 492 142 105 74 
235 127 357 109 89 66 
305 433 247 72 84 122 
319 178 196 125 64 76 
174 684 108 174 175 185 
247 270 192 127 93 86 
241 703 380 90 106 135 
227 579 192 106 128 152 
341 516 350 166 167 175 
243 524 195 116 131 154 
270 578 223 100 107 118 
202 176 246 106 95 87 
293 171 315 26 52 78 
323 487 399 173 171 177 
333 493 316 115 127 145 
217 712 165 114 120 132 
275 456 408 108 117 132 
172 844 300 190 146 121 
269 395 413 193 163 132 
200 181 246 117 103 86 
200 181 247 112 97 81 
193 445 282 68 94 119 
162 989 320 125 100 76 
259 683 152 80 102 122 
192 647 160 71 98 142 
183 467 235 120 133 150 
293 292 274 92 105 121 
259 808 283 192 138 108 
239 130 264 73 62 50 
276 256 236 99 45 32 
217 360 364 136 134 138 
232 842 288 210 149 125 
216 134 321 91 79 68 
278 824 399 177 38 61 
303 165 246 93 88 89 
241 158 365 112 97 85 
246 935 304 117 61 37 
241 631 382 80 90 121 
298 440 262 131 134 144 
257 147 302 84 74 67 
298 412 242 7 65 101 
169 783 222 46 44 47 
319 420 394 129 145 167 
297 644 338 85 88 101 
288 547 230 73 103 135 
253 146 350 76 64 52 
167 771 297 47 61 86 
204 178 244 128 115 104 
164 796 293 129 112 96 
173 743 322 124 136 152 
248 819 279 200 142 115 
205 178 244 121 109 100 
228 818 425 143 172 202 
263 717 419 31 63 141 
156 807 257 110 112 117 
267 425 207 175 79 0 
267 681 415 80 102 155 
206 178 244 115 104 95 
206 179 244 112 102 94 
307 571 283 113 119 131 
251 203 364 82 60 83 
227 720 180 73 95 131 
172 785 326 52 20 70 
320 207 326 75 52 57 
193 204 326 99 41 30 
206 657 173 103 127 165 
318 149 297 120 57 15 
204 181 244 115 103 96 
195 620 333 124 96 103 
229 706 379 80 92 125 
223 281 366 104 124 146 
348 430 360 74 109 149 
232 897 301 127 94 65 
198 400 345 98 114 134 
164 770 167 127 143 165 
320 203 297 109 35 17 
251 723 168 156 88 94 
240 475 196 74 102 133 
170 830 309 97 74 53 
210 831 246 207 157 123 
276 813 423 156 175 200 
258 264 187 65 78 94 
217 166 362 146 63 22 
284 766 305 147 131 121 
305 348 389 167 141 111 
209 505 190 124 142 169 
193 604 355 80 138 179 
260 35 374 122 86 65 
312 143 212 105 69 6 
244 910 310 149 118 92 
165 776 191 109 93 78 
253 930 368 135 97 86 
311 593 345 67 137 184 
314 563 291 114 132 154 
259 706 505 164 114 89 
202 185 245 135 65 1 
224 860 336 159 114 86 
255 905 364 159 120 94 
298 731 283 73 66 51 
310 178 318 73 43 48 
296 670 224 55 67 80 
205 167 282 97 85 73 
237 563 402 108 128 157 
216 634 247 58 78 131 
309 669 254 48 68 85 
174 943 291 86 68 49 
279 691 443 92 107 142 
213 558 216 131 132 138 
254 419 409 161 128 86 
174 573 285 114 135 163 
254 362 386 111 126 145 
209 651 186 115 137 168 
274 222 405 122 100 119 
290 222 186 149 67 50 
192 469 297 88 113 139 
307 130 243 131 107 91 
191 320 302 134 44 60 
201 402 270 58 91 130 
207 485 193 115 130 154 
193 810 379 149 21 37 
232 461 195 76 101 124 
310 366 234 176 149 120 
224 948 275 71 56 49 
308 418 249 77 92 121 
188 597 345 215 195 182 
190 232 327 134 31 46 
203 190 244 133 61 1 
208 930 384 144 116 89 
311 523 288 134 140 152 
217 822 226 201 152 119 
299 206 376 78 106 130 
254 270 369 98 81 91 
341 296 320 160 159 165 
310 137 291 96 54 7 
248 79 359 132 96 77 
205 456 200 132 144 161 
192 201 269 102 49 54 
298 248 265 126 121 123 
308 737 349 121 149 176 
179 483 228 133 142 159 
244 90 336 78 65 52 
315 298 244 90 118 143 
194 752 203 71 37 50 
272 816 426 168 183 204 
303 728 399 53 74 146 
254 727 179 172 124 99 
347 390 376 79 104 138 
191 315 302 123 58 61 
251 799 256 206 152 120 
311 238 350 81 64 71 
317 219 203 130 89 102 
251 573 210 104 122 141 
183 545 233 61 90 115 
199 710 361 59 68 81 
296 397 284 93 106 120 
207 188 242 133 62 1 
214 766 161 83 42 49 
201 412 360 35 72 113 
304 422 229 167 145 122 
243 658 145 98 87 77 
347 447 367 117 133 158 
192 916 272 124 95 68 
337 488 384 86 113 154 
286 177 406 116 95 71 
285 637 213 170 121 105 
192 476 317 77 99 124 
246 805 445 156 155 204 
301 180 353 63 63 68 
170 549 314 100 122 153 
284 418 216 156 120 71 
350 301 327 169 167 174 
172 535 301 129 133 142 
269 657 186 74 55 38 
218 280 366 100 120 143 
198 1023 298 117 83 42 
341 477 376 78 107 144 
231 70 365 131 109 90 
325 559 297 134 142 158 
308 227 357 53 81 103 
250 284 192 157 129 125 
298 493 254 16 61 120 
318 606 319 153 137 137 
273 608 391 85 72 67 
299 714 403 68 121 162 
220 173 238 120 106 95 
269 843 390 98 86 83 
286 402 216 190 149 96 
311 686 247 177 147 114 
193 489 375 143 145 153 
210 780 402 70 90 135 
197 673 306 137 113 122 
175 831 333 178 158 142 
178 862 292 198 148 120 
242 656 148 99 88 79 
314 331 303 99 99 103 
258 318 381 100 61 68 
237 661 375 72 103 147 
236 861 299 159 120 86 
178 902 315 76 58 44 
191 957 283 105 83 59 
194 259 271 99 23 40 
276 404 204 133 143 163 
282 358 271 92 104 119 
267 33 361 139 127 122 
317 146 291 124 55 19 
197 892 276 141 105 82 
223 174 236 131 116 102 
265 702 433 31 61 137 
314 129 254 129 103 86 
170 555 293 128 142 160 
201 600 239 105 127 155 
234 135 358 100 81 62 
235 565 401 109 126 154 
297 729 458 103 122 154 
221 206 299 75 37 29 
285 183 370 77 67 63 
279 608 405 89 81 77 
286 664 216 69 80 94 
278 186 369 68 69 75 
206 250 292 132 132 138 
293 678 377 75 113 149 
299 132 231 133 105 77 
306 281 226 91 52 67 
301 741 316 128 49 55 
237 729 154 177 79 76 
196 473 250 146 146 153 
165 718 128 54 98 153 
207 426 370 85 109 135 
195 221 320 94 57 73 
259 755 486 166 178 223 
258 293 378 98 119 142 
288 473 219 135 140 155 
283 577 393 58 64 87 
222 598 220 67 106 139 
173 562 253 94 121 165 
305 486 233 93 121 149 
304 607 355 159 105 101 
186 505 248 103 116 133 
209 167 244 115 94 71 
165 787 231 131 119 110 
214 574 221 128 127 132 
235 522 191 151 155 167 
229 640 165 80 105 130 
211 164 245 122 97 68 
283 238 401 116 87 100 
309 226 346 55 60 74 
316 217 221 60 91 116 
201 223 282 95 41 67 
325 523 393 125 142 162 
288 282 199 159 159 166 
266 739 215 117 101 87 
294 776 446 102 132 164 
265 159 180 157 95 5 
200 452 216 130 144 168 
212 162 245 122 98 70 
301 130 271 119 78 41 
184 888 297 153 115 86 
306 260 206 167 157 154 
195 642 320 159 156 162 
304 749 443 184 181 187 
183 660 276 149 153 164 
246 875 369 141 107 86 
224 161 282 77 61 44 
230 712 176 133 136 146 
198 637 292 157 154 159 
211 1021 322 135 109 80 
285 264 192 86 118 146 
264 164 360 112 58 26 
319 422 236 130 114 97 
317 386 309 69 94 118 
253 691 449 89 100 148 
204 480 201 94 122 150 
236 940 387 143 112 86 
175 552 242 103 128 155 
297 718 231 182 102 55 
184 760 211 80 38 48 
200 409 286 56 87 116 
256 670 399 118 137 176 
235 605 202 77 93 109 
258 256 379 39 60 94 
295 768 450 152 167 187 
212 167 244 118 96 71 
178 835 346 113 87 71 
156 795 213 168 110 58 
222 678 249 97 107 120 
302 724 427 145 152 168 
332 480 316 72 97 131 
304 682 363 94 126 156 
307 635 267 150 114 90 
215 166 244 121 97 71 
263 14 256 114 103 96 
162 820 285 145 145 150 
210 169 243 105 87 69 
224 69 363 129 104 86 
219 658 190 109 122 159 
338 509 368 127 136 151 
163 953 322 85 65 48 
248 74 339 83 70 57 
184 606 308 103 128 162 
263 700 197 149 75 73 
348 303 327 173 171 177 
202 392 222 44 88 124 
289 284 237 93 94 101 
219 851 284 183 137 107 
230 766 398 73 95 130 
216 257 233 105 103 106 
313 211 190 157 61 90 
210 168 244 110 92 72 
333 249 348 128 68 2 
258 762 217 202 183 170 
267 918 325 132 105 78 
275 293 193 132 141 154 
279 175 364 65 60 66 
303 608 362 140 93 86 
167 810 303 170 151 136 
174 739 128 181 212 237 
222 616 201 87 120 153 
309 329 224 172 150 130 
189 910 355 142 111 83 
210 172 243 95 79 66 
286 213 191 110 46 30 
266 153 355 96 85 74 
211 173 243 119 104 91 
319 190 202 139 89 78 
160 775 264 48 38 43 
250 534 202 140 150 171 
188 529 376 170 165 167 
208 172 244 101 85 74 
300 132 237 133 105 82 
341 475 353 156 159 170 
262 523 407 153 158 171 
310 554 264 58 82 145 
348 254 314 146 147 155 
307 570 392 120 137 179 
193 789 382 148 161 180 
314 564 375 120 141 184 
309 459 292 74 96 120 
206 438 373 31 75 127 
225 798 435 85 99 173 
178 712 140 131 135 145 
309 595 353 79 142 188 
205 333 322 160 117 60 
311 129 250 130 106 91 
283 303 239 54 77 96 
203 741 226 102 105 114 
202 479 386 133 138 149 
244 964 381 185 135 116 
255 771 475 139 154 212 
182 731 337 125 139 157 
235 782 202 139 144 155 
250 526 200 147 160 181 
248 739 414 49 77 129 
290 518 402 193 191 197 
191 238 263 115 58 53 
207 157 357 137 61 4 
225 511 188 99 118 140 
195 575 373 190 188 193 
275 232 404 74 105 134 
234 658 140 99 88 79 
296 316 214 109 124 141 
226 464 193 61 94 124 
184 887 327 165 127 95 
235 103 327 76 63 51 
298 636 352 176 118 116 
215 175 241 114 103 96 
314 491 293 69 95 121 
284 444 212 152 140 135 
162 940 340 68 56 49 
183 900 329 140 111 83 
248 976 309 93 77 66 
247 823 288 190 133 107 
251 141 327 81 68 59 
216 160 244 120 96 67 
250 829 306 184 127 103 
264 459 409 137 123 114 
219 646 252 141 139 143 
185 613 321 155 157 167 
200 322 252 159 157 163 
193 699 332 76 123 159 
259 689 187 110 152 189 
217 1018 321 118 90 65 
218 161 244 120 96 68 
306 353 217 140 113 117 
314 355 385 161 138 114 
294 131 256 122 90 65 
244 103 339 88 73 58 
231 1000 350 106 87 74 
272 174 402 112 100 92 
208 811 193 217 154 114 
258 827 337 161 109 92 
176 848 268 210 153 123 
312 341 303 90 103 118 
191 480 297 150 149 155 
190 456 219 45 94 138 
200 435 249 146 145 152 
216 225 310 71 64 66 
258 300 188 65 112 151 
261 150 212 95 73 55 
191 817 199 198 134 100 
290 594 386 90 127 158 
299 750 457 133 148 181 
196 452 218 133 141 167 
257 898 332 135 108 80 
295 162 181 207 66 4 
294 160 180 204 57 1 
289 757 261 216 186 160 
307 216 189 147 31 72 
204 200 357 75 43 40 
191 795 377 31 41 116 
293 184 373 90 83 87 
250 66 365 127 95 72 
185 572 231 132 129 132 
244 689 377 89 96 135 
174 572 305 162 159 163 
256 287 371 115 128 145 
342 473 348 122 132 148 
235 266 215 154 118 81 
212 694 153 70 87 134 
224 501 190 106 123 145 
223 163 242 106 87 67 
178 850 269 210 156 124 
220 160 244 119 95 67 
273 201 404 99 100 116 
205 435 307 64 92 137 
204 554 386 120 133 156 
220 164 243 115 94 69 
297 653 259 131 99 84 
287 256 191 150 65 89 
227 907 298 107 81 56 
205 366 247 101 122 144 
202 368 303 136 86 100 
186 772 369 119 144 169 
212 1021 318 127 95 67 
203 323 294 70 84 98 
260 746 212 138 123 116 
354 337 359 145 142 145 
245 745 421 50 89 134 
262 322 404 125 143 164 
200 356 262 123 106 91 
250 65 343 97 79 58 
232 966 286 110 87 66 
216 262 302 106 102 104 
235 766 470 115 134 194 
312 596 325 99 143 177 
226 603 217 66 106 139 
197 973 374 134 107 90 
241 865 315 162 118 94 
256 721 183 154 57 71 
253 149 287 92 75 65 
194 889 339 144 109 81 
177 767 216 58 60 67 
339 227 307 84 103 122 
313 382 305 50 76 113 
347 399 338 137 147 163 
197 670 337 76 127 165 
251 703 204 53 54 66 
295 741 278 126 126 138 
217 170 243 103 88 74 
171 564 293 123 130 150 
305 742 322 79 90 115 
222 772 436 97 112 140 
264 445 220 35 61 92 
219 168 242 100 86 73 
239 835 288 212 149 125 
346 347 371 115 129 147 
218 171 241 96 84 77 
272 473 409 93 121 161 
328 499 395 148 153 167 
219 171 241 96 84 77 
218 170 242 99 86 75 
292 172 404 122 112 102 
178 480 235 134 143 158 
262 453 410 132 117 106 
330 584 316 134 154 179 
278 820 409 87 87 133 
167 1005 324 150 121 92 
231 691 120 107 123 167 
294 132 269 104 72 48 
300 534 241 126 138 156 
216 175 241 117 105 97 
301 496 247 74 95 142 
205 383 327 140 136 136 
288 761 267 199 181 171 
216 174 242 117 104 94 
175 846 321 177 138 113 
304 621 354 173 119 112 
357 303 336 153 152 157 
203 597 375 101 118 163 
275 262 192 104 58 71 
304 668 304 130 145 163 
308 548 284 56 83 131 
224 999 300 117 91 63 
303 671 234 89 82 76 
258 696 164 110 139 168 
297 672 369 126 133 149 
305 734 370 137 162 189 
224 546 189 147 161 187 
320 222 336 84 43 33 
221 169 241 93 81 68 
193 255 319 87 52 62 
193 253 266 102 59 100 
215 461 196 34 84 124 
296 760 369 134 162 190 
240 646 155 109 97 86 
269 572 223 108 119 134 
310 153 186 141 118 101 
250 674 380 134 147 170 
181 1013 302 108 70 42 
322 442 312 92 105 122 
184 471 347 85 103 134 
222 170 240 92 80 68 
313 685 253 177 141 99 
241 264 200 153 94 95 
284 668 447 149 104 76 
209 278 303 108 107 109 
209 430 375 49 87 130 
208 617 373 91 138 192 
250 668 472 114 93 72 
305 769 404 156 167 185 
280 340 253 75 101 125 
199 312 264 149 152 161 
207 795 178 140 98 106 
312 450 302 56 84 121 
244 793 242 191 141 106 
311 172 223 129 83 67 
302 686 218 101 142 176 
297 667 361 98 112 133 
286 540 400 81 111 155 
245 741 400 42 90 157 
276 251 230 109 44 18 
264 139 185 138 122 110 
303 742 319 114 87 81 
302 424 290 141 139 143 
200 678 118 82 77 75 
244 812 262 209 156 127 
222 680 167 65 85 143 
214 444 205 58 88 111 
264 431 213 140 123 105 
309 141 295 88 58 29 
174 771 335 154 5 38 
182 501 360 67 95 135 
235 941 389 153 122 94 
257 375 409 151 30 51 
252 639 399 37 76 129 
301 355 291 109 87 97 
271 565 227 98 113 138 
220 665 251 62 73 113 
229 339 229 64 94 120 
273 143 290 90 83 78 
347 410 378 66 90 135 
183 506 256 128 130 138 
305 599 331 134 97 102 
303 621 265 159 108 103 
196 423 287 52 84 115 
213 265 366 158 153 155 
270 269 406 126 36 74 
313 285 245 124 130 141 
235 105 357 126 101 74 
282 349 272 133 97 51 
228 931 285 70 59 50 
196 335 306 128 89 107 
290 723 226 200 187 187 
311 676 246 140 118 95 
306 192 188 33 81 111 
242 135 261 82 69 55 
280 356 266 94 104 117 
171 1009 300 119 90 69 
343 362 376 127 111 94 
227 770 424 58 85 107 
204 347 250 112 132 154 
227 467 397 117 126 139 
191 289 318 149 148 154 
305 285 225 116 108 102 
306 162 269 86 44 28 
247 843 341 125 103 84 
273 274 190 79 114 143 
255 344 382 153 149 152 
286 399 214 197 159 114 
270 154 362 104 82 62 
277 21 391 163 111 93 
309 460 238 188 194 215 
231 752 164 168 165 171 
322 166 308 106 47 25 
264 418 208 148 137 132 
168 1004 297 117 84 70 
306 202 256 48 40 49 
308 233 371 117 66 65 
207 803 398 157 165 181 
232 827 421 167 60 76 
217 188 239 152 65 4 
217 189 239 153 66 6 
260 329 398 98 59 84 
190 221 339 54 36 38 
262 540 211 85 104 126 
167 720 134 117 129 155 
211 204 312 87 34 44 
228 734 473 175 168 170 
223 805 213 173 131 96 
235 444 203 88 105 124 
251 780 240 166 122 86 
231 678 196 85 101 151 
220 167 285 72 62 53 
223 809 226 182 139 102 
220 185 239 145 80 26 
304 689 373 134 148 167 
288 731 481 117 138 162 
307 545 251 111 133 157 
199 269 250 125 67 69 
209 979 378 105 87 73 
291 657 247 81 53 44 
239 853 301 168 121 96 
227 486 190 116 128 143 
233 90 359 123 101 78 
161 773 183 106 93 82 
233 594 398 75 108 146 
232 725 470 127 130 138 
300 369 245 93 99 115 
303 269 203 83 125 158 
255 565 404 91 120 146 
280 202 405 154 82 83 
226 865 294 164 124 93 
307 378 221 136 147 170 
200 639 154 102 120 140 
245 68 338 87 72 57 
243 119 337 72 58 41 
306 438 293 112 122 135 
181 487 237 113 125 141 
315 327 305 110 106 107 
302 605 361 126 100 93 
266 329 408 89 125 159 
171 742 129 179 194 215 
272 242 192 38 64 115 
194 389 230 51 91 140 
253 373 404 138 29 58 
173 526 276 155 150 152 
292 750 300 99 92 88 
241 401 220 44 67 92 
302 134 214 131 112 96 
191 524 223 21 59 85 
309 684 234 133 155 184 
259 44 367 120 93 68 
306 710 248 167 91 59 
196 274 271 146 34 41 
208 177 243 108 100 93 
235 988 371 106 88 73 
231 709 482 35 84 139 
171 555 260 86 108 135 
163 773 184 93 84 77 
239 852 307 161 107 85 
212 671 355 125 127 136 
206 657 347 113 123 138 
287 610 409 115 99 86 
211 176 242 117 105 95 
211 176 243 115 103 95 
335 266 355 116 116 121 
241 144 269 86 71 57 
310 291 378 92 107 123 
207 559 388 106 125 161 
264 630 424 115 98 83 
280 795 319 134 108 77 
302 650 272 158 116 105 
315 356 248 154 146 144 
208 181 243 111 99 90 
302 615 369 174 111 108 
353 291 350 103 118 134 
245 943 384 167 126 100 
304 582 383 189 194 208 
251 146 349 84 73 64 
225 682 172 113 122 144 
190 804 376 107 104 129 
190 431 218 50 92 134 
315 564 377 139 165 192 
217 695 247 49 81 106 
268 685 413 66 77 122 
354 341 339 114 130 150 
182 505 311 125 127 135 
264 581 213 105 119 136 
306 716 365 164 170 184 
276 586 232 62 85 108 
247 827 294 188 129 104 
266 513 408 134 150 172 
211 704 106 100 120 202 
295 365 215 131 8 47 
218 845 394 97 92 113 
263 627 414 106 88 76 
282 769 292 191 163 138 
261 572 400 101 124 150 
163 930 337 98 77 62 
198 810 385 84 23 39 
255 694 177 103 136 166 
191 705 332 106 49 67 
232 717 382 74 89 129 
244 66 368 137 104 84 
267 696 410 112 125 171 
214 176 242 107 100 93 
214 178 241 107 98 92 
206 348 335 139 121 104 
320 162 307 106 48 15 
228 683 179 148 153 167 
200 403 336 69 106 136 
179 567 354 221 197 180 
294 742 285 112 116 124 
193 442 235 126 138 155 
298 489 401 135 148 167 
302 645 265 92 91 126 
349 303 328 177 176 182 
218 763 396 120 124 134 
171 1002 326 119 90 66 
308 745 383 125 141 162 
248 686 139 87 108 128 
294 777 343 117 96 99 
319 171 293 109 62 68 
242 707 186 84 94 141 
202 422 327 86 110 133 
312 146 230 123 83 21 
245 113 345 94 75 56 
213 629 370 107 143 178 
279 677 447 128 88 71 
336 525 371 95 109 137 
293 750 471 137 143 175 
173 732 320 145 154 169 
189 852 352 120 99 81 
245 139 259 95 79 60 
336 340 377 98 118 140 
193 279 329 127 121 122 
209 184 243 119 73 21 
296 195 239 105 59 66 
206 753 387 143 142 148 
171 536 277 163 158 160 
196 779 161 193 161 129 
238 143 357 75 64 53 
260 819 433 190 205 230 
230 884 299 143 110 80 
214 890 375 146 110 82 
242 847 345 112 118 129 
306 384 298 74 94 117 
235 865 299 160 121 88 
251 968 308 103 83 65 
209 715 111 149 162 217 
202 870 279 190 135 92 
343 305 364 111 131 152 
166 784 234 136 122 111 
193 623 330 138 126 132 
259 708 396 59 112 157 
309 577 377 109 130 163 
209 188 242 133 59 2 
239 747 489 106 128 197 
309 247 206 93 93 112 
235 67 367 135 106 85 
193 470 329 106 118 134 
260 419 413 186 155 121 
217 239 307 43 52 70 
314 154 226 111 96 90 
181 1011 292 126 98 75 
228 724 189 90 106 130 
211 188 241 134 57 3 
209 235 365 141 31 26 
231 113 327 77 63 47 
305 156 249 92 51 47 
260 624 216 83 78 76 
196 511 218 75 92 111 
220 680 367 67 105 135 
204 367 337 82 103 124 
268 137 325 95 84 77 
212 184 241 109 69 16 
245 141 326 76 65 55 
320 501 299 99 115 133 
290 371 246 92 103 124 
228 450 393 114 121 134 
300 444 267 69 96 130 
168 748 275 116 23 34 
290 134 247 125 98 77 
278 799 437 162 169 203 
303 531 267 84 103 125 
193 193 263 124 68 31 
339 466 324 120 128 141 
354 357 344 167 165 171 
292 669 218 85 97 111 
285 676 421 42 56 128 
196 325 309 132 75 85 
300 726 276 162 145 132 
306 673 320 76 122 157 
232 539 401 96 116 164 
280 137 264 99 76 60 
328 553 378 129 142 185 
212 191 241 144 64 5 
162 789 192 181 161 146 
248 750 190 137 135 137 
256 801 449 185 192 224 
309 399 302 72 97 123 
305 196 189 62 58 90 
193 258 268 94 26 34 
252 825 429 189 208 234 
175 796 193 154 142 136 
289 603 392 106 92 81 
196 620 250 83 126 186 
245 696 134 169 193 227 
264 798 277 199 146 111 
307 717 320 104 141 174 
232 269 220 137 105 89 
323 508 302 84 105 130 
197 649 261 69 125 177 
282 171 188 164 73 27 
314 356 246 173 151 130 
277 802 350 90 82 83 
342 518 333 118 140 165 
175 780 174 171 154 141 
185 590 353 189 190 200 
217 180 240 115 105 97 
313 310 301 128 42 72 
216 182 240 116 103 88 
195 416 296 70 102 140 
183 881 298 124 83 57 
305 752 420 128 147 177 
208 845 383 171 144 120 
187 1018 308 163 131 99 
309 248 282 71 105 133 
294 308 396 129 139 153 
226 444 199 70 97 120 
283 659 411 45 65 97 
224 737 143 152 27 69 
292 407 243 40 51 97 
192 601 360 61 132 180 
259 303 187 81 127 165 
224 217 306 104 66 51 
224 127 356 107 88 67 
314 163 215 161 65 2 
176 677 106 44 77 138 
213 792 406 97 109 153 
249 74 341 87 73 59 
249 394 397 185 156 126 
254 210 368 105 47 73 
254 226 369 101 21 47 
253 774 220 122 133 148 
304 719 297 131 32 9 
195 691 321 65 103 138 
247 157 193 108 104 103 
175 836 329 142 118 98 
224 165 284 75 63 53 
231 858 321 157 110 81 
176 523 259 143 141 145 
291 173 392 120 73 38 
198 252 356 100 96 104 
246 159 194 112 103 96 
213 721 378 63 88 130 
314 570 384 140 155 190 
212 390 315 79 98 136 
247 159 195 96 79 68 
234 337 216 88 125 158 
303 377 223 226 185 137 
348 397 342 125 140 159 
280 255 243 78 61 23 
206 183 287 123 46 9 
299 257 271 132 129 132 
287 393 406 195 164 133 
191 490 246 81 104 131 
239 348 214 148 145 149 
195 273 342 140 128 124 
225 70 362 127 102 84 
175 856 298 186 139 114 
299 494 252 91 110 141 
270 17 246 135 91 79 
176 514 267 78 102 128 
280 321 264 103 107 116 
239 858 310 158 111 87 
240 135 334 71 61 50 
192 464 296 87 111 139 
262 703 503 152 106 81 
312 520 256 106 126 151 
205 302 283 125 115 113 
327 573 362 184 182 189 
171 564 342 106 131 184 
171 567 288 166 167 176 
228 653 372 69 40 78 
270 13 382 121 100 85 
172 532 304 119 126 137 
189 817 372 152 101 104 
356 275 336 95 106 119 
270 218 405 118 89 111 
315 244 291 71 99 123 
195 466 319 85 103 123 
318 426 228 151 135 126 
327 576 334 191 186 191 
255 146 193 112 76 45 
301 376 396 126 131 140 
212 457 199 78 103 126 
255 147 194 107 72 40 
197 336 295 114 86 97 
252 148 194 106 65 31 
283 679 426 66 102 137 
211 767 159 141 144 154 
341 384 327 90 118 145 
161 824 263 178 130 98 
166 701 126 98 126 158 
300 751 316 151 69 71 
241 681 376 92 105 138 
271 154 178 131 112 98 
248 192 361 90 37 41 
283 238 233 93 53 46 
320 572 292 97 119 151 
280 322 408 143 18 65 
207 334 243 123 131 143 
214 199 309 78 40 46 
292 136 206 131 118 108 
256 631 203 84 79 76 
255 149 196 102 68 38 
159 780 185 135 117 100 
232 792 227 190 137 101 
307 217 233 122 80 78 
216 490 190 75 102 130 
266 34 361 102 84 68 
248 152 192 119 58 22 
211 853 375 180 156 136 
317 371 388 115 129 144 
287 385 271 47 80 107 
245 957 293 88 71 55 
249 153 193 111 57 18 
231 694 120 101 127 171 
306 192 228 107 105 113 
217 886 287 112 78 47 
266 712 501 167 116 90 
251 698 206 82 84 92 
281 669 442 140 98 73 
171 777 220 135 108 77 
170 773 168 145 145 153 
249 155 195 97 70 45 
262 571 400 79 76 108 
178 828 350 154 132 115 
290 752 300 74 69 69 
235 681 203 55 105 140 
272 280 189 90 121 147 
231 617 201 92 106 122 
186 759 211 87 35 45 
281 290 241 83 90 101 
195 677 304 71 119 156 
242 130 261 78 66 54 
287 658 367 103 115 132 
283 616 419 122 103 84 
204 359 342 119 127 139 
248 778 220 102 50 35 
196 687 337 74 123 160 
221 837 264 210 162 132 
308 619 327 154 105 96 
259 710 398 79 88 152 
312 514 250 166 175 203 
207 970 281 121 89 63 
187 678 145 87 116 147 
200 292 279 74 118 151 
248 822 432 200 212 232 
175 679 107 104 130 160 
259 949 316 103 80 66 
206 365 333 156 120 80 
175 576 304 205 188 178 
222 429 205 63 95 123 
212 724 174 78 91 114 
225 728 213 105 108 117 
207 501 193 108 129 156 
255 639 416 51 83 135 
252 282 367 118 98 93 
300 387 245 83 83 110 
192 533 379 113 126 156 
258 268 385 73 62 75 
327 388 319 74 97 121 
223 704 167 65 80 109 
251 156 198 95 73 61 
273 243 192 28 61 108 
251 157 199 93 76 64 
309 486 250 95 112 144 
245 955 292 69 51 42 
193 329 298 118 62 72 
207 293 289 64 96 122 
251 158 199 92 76 64 
293 657 253 61 37 35 
279 137 276 104 82 70 
271 653 463 114 93 72 
309 171 273 43 55 68 
196 492 381 69 94 135 
207 748 136 68 25 116 
258 898 333 138 109 79 
194 636 256 135 149 193 
242 279 204 137 35 74 
262 634 193 109 99 92 
209 139 347 102 87 74 
203 747 207 106 48 46 
357 325 345 163 161 165 
287 188 391 107 106 107 
308 365 219 185 132 86 
293 248 262 99 97 100 
268 828 369 110 108 114 
198 144 268 113 90 65 
209 640 352 164 159 161 
210 621 246 84 112 145 
264 145 299 85 77 72 
234 282 367 139 57 4 
304 744 409 86 125 164 
251 486 206 92 111 130 
253 378 398 171 142 112 
254 155 198 95 70 48 
262 663 163 190 187 192 
258 691 152 5 52 122 
278 176 381 104 49 8 
324 582 351 104 100 125 
219 992 369 104 90 79 
252 157 199 95 76 63 
204 302 351 84 129 164 
278 666 423 129 141 163 
329 249 305 83 86 97 
331 204 303 115 29 12 
300 666 322 95 120 144 
174 769 225 89 94 102 
249 159 203 88 76 67 
271 641 449 112 94 75 
251 157 201 90 73 61 
209 634 178 48 78 106 
305 723 346 122 146 172 
305 751 420 154 164 179 
196 159 332 130 61 8 
215 826 227 210 159 128 
217 165 285 75 64 53 
244 400 405 191 162 132 
345 341 371 98 114 134 
213 424 219 45 74 101 
234 739 388 47 75 133 
207 296 358 120 54 78 
259 634 423 93 86 83 
210 875 345 119 84 60 
203 228 361 133 46 32 
183 989 344 87 69 54 
236 135 268 75 64 52 
297 630 367 169 96 98 
258 243 395 122 77 99 
203 634 342 79 129 166 
310 315 380 137 138 145 
229 996 364 124 105 87 
247 102 350 104 84 62 
313 139 221 144 79 6 
252 557 206 87 111 139 
255 712 170 147 46 52 
327 442 395 77 102 150 
308 265 283 139 135 136 
317 159 212 139 105 54 
226 855 338 153 105 82 
308 347 249 127 127 133 
289 745 478 121 122 166 
251 158 207 93 79 67 
218 610 231 127 104 107 
222 403 377 116 80 75 
276 654 463 115 92 68 
206 1005 345 130 105 81 
292 289 396 151 149 153 
198 640 260 83 93 180 
290 654 237 92 65 55 
355 347 355 122 135 152 
306 568 394 192 188 192 
169 782 222 68 60 61 
259 27 392 135 123 124 
303 617 353 133 104 93 
252 796 453 129 131 203 
314 431 247 59 100 153 
299 447 261 87 107 132 
221 862 350 111 88 73 
241 744 491 149 162 197 
197 183 321 43 42 59 
301 735 446 162 168 182 
310 198 268 98 37 46 
305 148 186 131 120 108 
297 139 190 115 107 101 
308 753 393 86 73 122 
202 637 154 99 120 142 
250 799 255 205 151 118 
199 827 385 145 50 76 
238 641 384 43 46 57 
159 798 247 135 118 103 
210 273 293 104 109 118 
313 386 246 123 131 142 
201 414 275 47 86 125 
217 387 224 42 70 99 
303 728 315 85 100 127 
254 374 208 165 143 121 
252 157 202 92 75 62 
285 632 390 147 96 83 
287 706 212 124 60 87 
253 156 203 92 75 58 
175 814 341 60 48 43 
259 704 190 88 108 131 
252 157 204 92 76 63 
252 157 205 92 77 63 
190 635 328 119 141 165 
202 416 361 41 81 125 
205 790 398 98 116 159 
246 340 371 76 114 145 
186 552 371 130 140 162 
279 451 408 142 117 124 
208 331 347 147 146 152 
320 449 245 81 108 152 
246 650 153 103 91 80 
270 594 219 124 123 128 
270 713 497 174 122 98 
188 484 323 120 128 143 
223 763 397 115 119 129 
176 993 325 83 63 45 
166 765 246 107 97 89 
208 605 375 109 121 162 
266 200 401 52 87 116 
326 529 301 120 131 148 
250 603 218 81 83 87 
213 851 276 189 139 106 
285 708 464 81 109 140 
200 740 375 121 135 156 
231 958 281 70 54 48 
218 265 367 151 146 149 
188 739 357 89 111 139 
250 159 215 103 87 73 
305 476 234 70 99 136 
298 700 415 92 115 159 
261 934 317 145 107 80 
261 158 378 79 71 68 
194 766 379 137 145 160 
306 759 340 172 67 86 
308 363 389 157 134 111 
224 854 385 146 131 122 
281 350 266 75 72 75 
237 298 215 93 58 67 
202 667 127 57 80 106 
214 532 200 107 118 156 
293 177 401 150 105 31 
247 973 301 116 93 73 
198 612 361 102 148 194 
283 408 212 203 166 124 
215 505 398 101 114 147 
289 134 272 99 71 51 
234 679 206 69 116 152 
226 67 365 131 106 88 
196 645 139 91 122 149 
254 155 215 100 86 73 
210 634 185 67 93 117 
174 1010 322 122 96 76 
179 592 308 70 101 144 
194 838 228 240 160 114 
247 839 323 184 131 107 
306 134 212 132 109 88 
337 557 336 117 145 177 
236 508 408 156 163 175 
310 678 277 138 110 87 
181 502 278 101 121 144 
289 328 244 94 94 98 
307 741 324 99 111 140 
326 548 300 103 122 149 
324 477 399 104 121 158 
254 156 210 95 80 67 
260 696 161 195 210 231 
306 752 329 170 78 81 
299 731 298 135 58 23 
172 979 335 88 69 59 
254 206 371 93 64 86 
325 599 316 127 153 182 
255 645 433 81 79 82 
200 662 322 74 123 161 
175 731 123 170 185 231 
175 1005 284 142 110 83 
180 558 362 163 170 184 
186 483 286 80 108 143 
317 413 240 124 108 93 
173 738 286 122 138 152 
190 494 369 105 118 137 
308 129 248 130 106 92 
305 264 210 118 28 61 
244 148 359 90 80 71 
198 712 252 61 74 89 
290 422 219 148 39 5 
249 652 393 39 68 115 
220 658 246 126 129 138 
192 206 340 40 54 89 
288 257 233 102 64 53 
350 383 372 86 104 137 
193 875 337 162 118 89 
324 540 298 114 126 142 
284 648 449 130 101 66 
224 720 225 88 95 106 
258 241 188 46 40 54 
251 158 218 109 92 76 
297 643 340 74 74 87 
353 284 348 132 128 130 
295 456 250 70 86 117 
222 970 283 82 62 46 
190 654 123 117 133 151 
202 448 209 110 125 145 
290 230 235 89 30 44 
251 157 220 112 94 77 
275 305 406 109 120 138 
306 755 332 143 46 68 
265 623 221 80 78 79 
197 434 213 77 103 148 
211 948 388 175 136 110 
332 410 322 67 96 125 
241 433 209 86 107 128 
234 716 225 89 95 105 
191 812 375 168 36 62 
262 698 441 147 153 167 
278 576 230 59 87 113 
184 883 297 136 100 75 
207 274 237 41 80 110 
209 418 307 65 97 140 
227 646 224 125 131 142 
289 298 404 152 150 156 
310 373 389 133 120 111 
283 136 254 109 85 66 
290 175 369 100 84 69 
304 132 280 103 66 26 
250 293 367 118 99 79 
255 154 218 104 88 75 
255 154 219 106 90 76 
227 729 204 116 116 122 
348 395 376 88 111 142 
192 672 108 67 104 133 
242 460 202 91 109 127 
253 155 223 115 96 78 
282 653 425 143 98 82 
200 257 243 130 93 80 
327 301 313 122 119 119 
259 958 320 97 74 58 
174 730 151 137 140 149 
230 726 384 75 95 130 
173 536 297 116 123 133 
167 815 230 173 124 90 
170 936 306 78 64 50 
270 294 188 130 124 126 
203 135 335 106 85 61 
318 182 205 138 66 79 
303 510 403 167 172 185 
217 531 193 68 94 152 
183 688 282 101 108 120 
312 494 244 175 180 206 
290 609 406 127 106 87 
196 641 164 78 104 129 
325 325 311 120 65 89 
261 702 441 150 158 172 
239 741 492 143 158 201 
176 589 261 140 154 173 
239 857 300 159 118 85 
301 528 240 130 141 159 
305 430 293 86 105 126 
307 146 247 132 133 134 
312 391 242 142 109 71 
193 260 349 73 113 146 
252 157 221 113 95 77 
249 953 381 189 139 113 
293 501 402 98 120 168 
169 798 202 211 190 176 
264 511 408 168 171 180 
259 717 195 163 133 96 
274 664 473 117 94 67 
293 133 242 129 102 82 
256 962 366 194 149 121 
345 288 320 163 163 169 
320 426 235 129 100 87 
308 137 202 134 116 102 
208 901 281 100 74 52 
162 793 239 145 116 82 
317 190 208 131 87 67 
311 303 235 95 115 136 
212 656 260 89 103 120 
311 235 349 84 42 60 
251 503 200 120 126 136 
290 394 241 68 80 108 
247 956 381 185 138 112 
233 303 365 94 111 131 
264 753 220 201 161 112 
213 917 382 186 142 118 
239 875 324 146 117 86 
282 249 242 95 57 28 
334 499 388 173 172 178 
235 875 357 97 77 53 
316 163 212 163 68 3 
232 428 208 87 107 126 
212 362 355 144 141 144 
267 356 408 155 138 122 
245 878 370 163 120 102 
313 669 278 151 106 111 
247 453 416 155 139 127 
336 560 355 170 167 174 
302 260 243 119 0 59 
195 978 287 142 110 82 
199 301 330 113 130 150 
220 785 427 123 130 156 
198 273 257 167 35 50 
264 815 436 114 160 204 
306 554 252 90 112 140 
258 720 404 92 118 166 
246 147 350 83 71 62 
279 342 202 153 118 66 
327 388 388 148 138 134 
330 343 379 174 149 125 
216 189 303 69 56 53 
287 342 246 102 114 129 
193 189 330 95 34 62 
308 619 335 155 109 105 
231 130 246 126 98 62 
231 131 246 125 97 64 
183 876 299 181 137 108 
307 334 386 172 148 124 
205 276 239 56 96 129 
181 642 259 108 133 158 
324 495 398 122 128 160 
197 375 235 87 118 146 
357 288 331 70 105 132 
311 129 246 131 107 92 
284 634 434 125 100 72 
206 297 287 76 88 104 
