ply
format ascii 1.0
comment Created by CloudCompare v2.11.1 (Anoia)
comment Created 2/28/22 9:40 PM
obj_info Generated by CloudCompare!
element vertex 2012
property float x
property float y
property float z
property uchar red
property uchar green
property uchar blue
end_header
196 484 200 72 100 129 
273 327 389 92 122 151 
232 233 362 115 44 60 
260 306 220 71 89 107 
215 48 346 116 105 97 
215 48 347 117 106 97 
201 385 278 98 116 137 
166 954 336 97 78 61 
275 192 166 41 57 83 
325 585 285 164 167 180 
236 882 294 147 111 79 
205 904 271 92 67 49 
215 404 360 75 98 125 
299 339 192 142 139 141 
153 806 249 113 121 131 
214 49 348 116 105 96 
351 274 340 116 128 144 
244 305 178 93 141 180 
209 519 192 117 125 145 
180 747 341 154 152 158 
214 50 349 119 108 100 
295 678 208 79 92 105 
300 310 211 87 69 86 
197 418 240 114 124 139 
309 355 399 105 128 150 
192 465 234 76 95 127 
270 314 263 107 111 119 
222 419 197 64 87 108 
263 286 239 83 99 115 
217 154 281 80 65 50 
244 794 244 190 141 105 
324 571 353 176 173 180 
213 52 348 118 108 100 
286 669 467 123 96 65 
213 53 349 123 112 105 
289 255 209 103 34 63 
254 362 189 158 136 115 
177 505 255 135 137 144 
255 374 364 150 129 107 
307 705 244 204 147 65 
264 433 406 128 103 65 
351 516 352 173 170 176 
213 55 351 101 88 78 
274 395 400 174 149 122 
185 908 347 143 110 83 
301 666 343 96 109 136 
236 998 319 102 79 61 
301 769 339 215 178 131 
216 179 357 135 40 14 
333 421 386 99 120 143 
214 55 351 97 83 70 
238 451 383 114 118 127 
247 877 365 170 125 107 
264 312 236 49 71 91 
160 813 239 171 132 96 
226 129 279 76 63 50 
322 188 309 57 58 65 
178 747 238 66 33 37 
330 230 342 92 81 82 
304 218 193 54 87 113 
298 473 227 74 88 136 
246 784 449 140 156 200 
162 729 134 158 168 185 
243 710 147 56 65 122 
171 836 306 173 148 128 
319 280 293 103 116 134 
168 788 305 131 115 104 
188 637 253 133 153 198 
263 277 206 113 109 111 
211 57 336 112 100 92 
301 349 203 172 147 121 
274 313 367 85 92 107 
210 56 339 115 104 96 
306 204 177 101 104 108 
299 659 312 149 147 150 
297 463 202 124 137 167 
307 667 249 74 76 94 
272 239 377 109 52 74 
303 393 220 160 74 7 
326 537 290 143 148 159 
353 465 356 108 129 157 
246 573 394 182 176 179 
213 362 309 156 108 45 
215 763 390 92 102 126 
207 472 186 149 151 158 
173 740 300 123 140 160 
236 1000 345 138 110 84 
200 750 201 105 72 69 
302 513 257 70 93 128 
216 817 234 211 159 122 
208 610 364 72 141 190 
292 764 373 104 130 156 
280 728 203 59 44 94 
208 57 349 129 120 114 
178 923 291 74 56 48 
264 247 214 129 108 84 
312 636 283 158 154 157 
255 964 302 97 78 63 
236 150 305 78 66 57 
183 481 219 107 122 141 
174 742 184 104 39 45 
204 418 195 53 86 125 
298 685 391 69 82 110 
233 629 206 138 141 150 
157 795 268 159 138 121 
297 677 412 22 51 118 
200 677 353 115 56 71 
229 425 199 67 92 114 
285 549 219 94 117 147 
251 459 200 97 118 151 
300 696 215 180 124 130 
211 58 351 113 97 82 
166 743 265 116 19 30 
285 581 223 82 117 165 
292 358 402 185 157 130 
241 869 309 154 111 83 
274 708 494 172 119 97 
242 761 406 65 63 113 
186 604 288 176 169 171 
237 697 175 100 115 145 
209 62 351 129 108 88 
337 232 327 106 74 73 
176 576 300 201 187 179 
209 607 367 70 135 181 
193 574 358 96 120 157 
203 708 243 91 95 101 
210 62 351 127 106 87 
281 393 211 87 90 114 
211 62 351 126 105 86 
185 409 209 74 102 145 
181 875 298 188 144 115 
295 483 239 104 120 152 
265 727 413 61 123 167 
277 806 349 111 115 131 
277 643 202 140 104 83 
179 466 213 158 160 170 
263 54 341 119 92 67 
293 718 217 168 110 102 
240 746 438 40 79 117 
275 624 195 115 107 101 
182 611 258 69 116 153 
195 369 263 132 86 112 
216 181 357 129 43 24 
212 336 333 110 125 143 
349 472 365 80 99 149 
237 716 224 75 81 91 
273 386 395 114 39 33 
302 132 285 103 61 8 
272 921 329 113 89 67 
283 131 240 133 91 58 
288 786 331 178 160 154 
240 150 278 91 71 58 
203 614 340 78 126 164 
217 50 342 112 101 93 
316 480 221 107 139 173 
207 566 206 113 115 123 
168 716 148 83 101 125 
175 846 318 181 140 115 
316 449 393 143 152 167 
237 655 363 60 47 108 
262 172 171 137 77 39 
193 818 371 128 63 82 
218 50 340 112 101 93 
209 716 112 122 156 195 
306 269 286 121 119 122 
162 769 285 97 111 126 
196 550 367 170 172 180 
275 811 354 116 113 116 
160 810 232 172 146 119 
259 177 360 134 67 9 
312 705 294 85 79 80 
185 830 212 223 149 115 
301 429 198 150 129 107 
270 652 211 47 50 54 
238 293 200 85 129 164 
299 306 204 96 120 143 
256 639 386 39 83 148 
219 53 337 109 98 89 
314 592 274 130 137 151 
241 417 206 64 80 98 
163 757 281 126 97 71 
308 752 379 147 171 198 
255 748 189 102 97 98 
208 813 387 146 163 181 
218 55 336 107 96 88 
260 290 208 82 44 60 
219 54 337 108 97 88 
256 163 170 184 68 0 
296 486 257 133 137 147 
179 649 263 165 167 177 
238 950 383 184 138 110 
310 477 231 71 101 147 
220 50 339 112 100 91 
234 486 181 144 152 168 
263 17 330 121 104 90 
275 334 173 161 83 61 
230 809 418 116 128 176 
202 1015 335 136 107 83 
355 376 334 137 146 160 
215 665 250 76 97 118 
196 543 368 93 113 164 
247 227 354 75 29 35 
260 665 392 54 88 164 
188 231 277 104 58 68 
200 748 213 91 85 89 
189 496 293 68 96 128 
269 301 205 69 94 116 
294 350 282 100 51 59 
255 735 430 81 101 121 
214 424 198 53 80 103 
278 784 449 114 138 196 
306 634 305 173 113 109 
355 373 352 134 140 153 
193 266 246 109 72 81 
199 346 290 121 93 113 
197 927 265 79 60 47 
269 657 418 94 114 147 
258 300 222 70 92 116 
277 795 311 186 150 112 
221 52 337 110 98 89 
274 805 335 191 166 143 
311 754 419 90 108 180 
296 434 195 127 48 59 
188 482 203 112 133 167 
315 464 393 130 148 168 
212 735 133 101 90 114 
198 894 346 143 110 81 
217 430 368 32 76 126 
176 574 296 135 140 160 
222 52 337 110 97 87 
314 511 238 94 113 149 
222 53 337 109 97 87 
204 402 345 103 119 138 
258 295 203 66 96 121 
257 563 198 103 119 150 
306 175 177 107 92 88 
222 637 231 124 131 143 
244 811 261 206 153 125 
296 130 260 133 77 12 
190 454 216 90 118 147 
223 129 321 81 69 57 
261 518 402 84 114 159 
291 288 277 116 122 133 
199 719 110 147 159 217 
258 887 352 158 120 96 
283 422 219 78 91 118 
295 777 347 181 125 58 
217 48 350 130 120 112 
264 721 431 95 119 145 
323 565 374 201 195 200 
257 507 202 85 102 139 
170 789 312 131 103 76 
182 959 289 131 100 67 
310 610 303 65 117 157 
329 360 301 148 141 140 
237 564 193 83 110 137 
304 374 195 172 150 127 
204 886 349 130 103 74 
214 679 356 99 101 109 
194 641 326 149 152 162 
210 344 227 86 114 139 
299 664 345 119 126 138 
201 436 280 77 104 136 
278 573 384 75 100 144 
228 634 368 100 129 167 
180 919 311 65 51 43 
238 588 388 122 139 162 
219 815 238 219 165 127 
218 726 178 116 118 126 
195 359 220 84 111 141 
179 473 209 120 134 152 
220 957 273 89 65 45 
214 868 269 150 108 73 
212 402 308 63 98 130 
300 612 383 165 120 105 
223 41 352 126 114 104 
187 389 216 50 92 145 
247 728 382 86 106 136 
306 687 356 107 131 163 
289 178 253 93 47 27 
261 781 250 199 146 109 
289 707 478 171 120 94 
197 248 326 122 17 47 
209 746 200 107 115 126 
260 744 481 164 174 212 
178 510 327 143 142 147 
221 44 352 139 130 124 
258 725 438 107 114 125 
237 174 353 116 33 38 
216 639 187 85 107 147 
215 473 380 108 125 144 
194 438 240 121 130 143 
318 295 382 95 115 137 
185 724 168 98 100 107 
194 443 345 64 92 129 
222 44 353 123 117 115 
197 663 155 125 137 156 
173 728 313 123 141 165 
289 219 256 77 59 76 
198 741 368 121 130 154 
357 351 344 99 110 125 
199 135 274 112 90 67 
293 150 324 115 59 7 
187 469 264 79 105 139 
273 657 407 77 133 174 
230 715 137 201 131 140 
311 753 429 184 182 190 
247 895 373 151 91 81 
309 745 453 85 108 172 
185 597 283 203 184 171 
212 293 227 145 141 144 
271 343 260 77 50 18 
288 263 173 141 130 128 
298 444 201 130 92 115 
224 736 144 131 20 24 
354 306 345 96 121 145 
298 176 270 35 49 65 
231 923 283 77 63 51 
165 733 133 169 184 205 
201 407 337 69 107 136 
195 643 156 94 108 126 
215 795 398 74 85 103 
302 766 440 104 144 187 
179 817 203 179 119 90 
214 994 353 109 91 74 
264 948 313 117 92 76 
279 280 390 63 105 140 
186 582 222 79 118 149 
203 728 119 204 216 234 
275 577 385 108 127 150 
197 921 365 154 115 89 
175 797 334 159 149 143 
246 991 356 93 76 64 
304 742 311 78 65 95 
163 828 283 176 132 106 
258 744 189 151 133 120 
166 995 306 126 93 75 
198 704 348 162 158 161 
274 338 375 126 137 153 
200 673 326 72 107 138 
193 414 259 53 92 128 
280 825 406 202 89 84 
304 738 310 100 76 85 
316 503 282 71 98 126 
164 799 207 166 131 104 
264 272 205 91 99 112 
306 687 230 182 161 143 
192 389 207 53 91 129 
200 533 373 116 126 163 
177 489 218 158 159 167 
213 368 304 142 61 100 
201 737 370 67 92 142 
246 638 374 48 43 53 
306 579 272 117 127 141 
195 674 271 44 65 106 
277 383 251 65 89 109 
271 214 205 115 83 76 
261 851 393 174 141 121 
236 714 145 117 134 153 
195 609 234 85 115 147 
222 640 358 125 146 174 
291 170 162 129 104 80 
296 740 288 90 69 56 
198 853 267 208 151 114 
245 887 304 182 141 111 
343 448 318 121 139 163 
195 161 259 103 84 65 
308 340 398 130 71 71 
208 624 239 83 98 135 
267 800 294 167 131 93 
196 1005 280 143 103 74 
277 209 220 80 72 81 
246 915 302 118 86 53 
211 328 334 154 152 156 
266 279 243 66 73 83 
301 440 202 176 30 97 
301 766 348 169 40 52 
169 551 274 44 78 121 
207 678 154 39 60 128 
240 568 195 93 115 141 
180 514 236 71 93 115 
226 604 208 94 79 90 
168 745 281 117 25 43 
321 325 387 122 128 139 
211 320 340 158 163 175 
226 708 122 113 144 173 
216 636 182 58 84 113 
295 642 432 129 100 71 
193 695 267 135 132 136 
234 453 190 110 117 127 
227 1011 320 99 65 47 
238 455 191 79 101 121 
242 674 228 91 64 67 
201 938 372 167 129 103 
276 378 256 49 69 94 
290 169 238 94 83 91 
156 811 248 112 130 150 
269 139 209 127 89 57 
207 994 277 114 91 67 
178 486 220 46 83 127 
202 257 313 76 101 120 
308 455 280 89 105 123 
201 429 327 102 117 142 
167 960 320 112 88 66 
227 764 173 181 159 140 
243 572 198 93 114 138 
279 806 428 166 169 199 
197 444 231 98 117 139 
201 663 322 78 117 150 
239 656 196 88 113 139 
303 427 279 127 126 131 
192 1008 284 137 106 77 
218 699 158 86 100 128 
203 896 362 157 119 91 
216 57 353 115 98 82 
300 280 284 117 117 123 
218 895 287 121 93 67 
249 932 299 114 53 29 
202 143 333 103 91 78 
260 341 357 83 75 88 
165 702 132 92 111 137 
249 748 416 91 109 131 
208 841 379 158 147 141 
270 310 177 156 136 114 
188 286 259 135 62 85 
233 649 154 103 91 81 
306 471 230 135 152 171 
343 383 368 147 129 111 
186 684 280 87 105 128 
186 481 267 81 104 129 
172 930 310 82 69 58 
253 890 319 129 103 76 
274 271 251 91 91 92 
283 320 394 134 128 141 
296 738 260 74 72 81 
339 465 381 117 132 152 
187 783 163 217 163 83 
249 685 457 118 139 163 
212 412 306 74 101 136 
279 586 222 75 97 120 
174 527 318 161 153 150 
282 138 356 97 88 81 
330 423 388 113 129 149 
347 294 316 125 110 108 
220 168 357 122 87 79 
308 678 238 151 127 102 
225 160 356 159 74 4 
198 850 263 209 154 118 
352 500 339 116 129 153 
220 169 286 66 68 73 
196 482 361 86 108 142 
253 249 352 18 42 70 
189 471 220 113 129 150 
219 63 353 134 109 93 
214 817 223 199 150 116 
245 814 267 211 156 129 
241 96 324 78 65 51 
189 917 273 108 88 67 
301 131 268 128 69 4 
194 314 258 113 134 157 
220 339 353 140 141 147 
286 339 180 137 28 69 
288 761 463 136 143 201 
312 214 284 66 36 31 
308 732 397 50 91 158 
275 265 377 127 65 92 
208 641 150 79 123 160 
352 314 321 146 145 149 
297 365 220 158 137 119 
219 313 222 98 115 134 
278 727 486 178 126 101 
223 58 355 129 104 89 
231 656 142 98 88 78 
280 396 241 81 101 127 
200 194 348 127 33 19 
175 509 255 100 112 128 
289 436 259 135 133 137 
261 276 207 118 113 114 
300 130 268 128 68 5 
256 967 308 74 60 47 
209 389 317 75 94 124 
204 418 354 101 119 140 
187 704 97 217 216 235 
237 751 438 56 88 133 
346 485 368 145 151 164 
344 456 320 113 125 157 
355 385 329 81 112 139 
306 684 357 110 128 159 
296 486 258 137 140 150 
170 762 156 154 132 114 
245 250 357 75 41 76 
281 621 219 78 82 89 
196 460 326 100 114 131 
285 283 271 93 110 128 
260 948 307 85 68 58 
256 380 193 134 25 62 
197 984 356 91 72 58 
250 821 424 193 204 224 
242 285 358 130 117 109 
258 908 361 150 108 88 
284 764 268 108 120 134 
229 30 350 102 87 73 
308 189 279 74 40 63 
351 362 320 117 127 143 
279 155 367 103 92 83 
210 80 346 132 109 87 
338 503 312 138 147 164 
179 907 309 72 56 43 
343 277 355 151 148 151 
292 465 255 90 102 117 
231 28 350 101 88 74 
198 379 240 78 98 126 
244 106 328 88 72 56 
277 375 262 70 87 105 
240 802 247 200 147 114 
231 858 355 98 88 86 
230 31 349 98 86 74 
268 240 168 113 53 54 
303 522 256 74 99 126 
190 876 330 162 122 90 
202 442 320 134 136 144 
170 961 339 82 63 52 
239 20 343 93 81 69 
189 468 247 86 109 136 
196 157 272 112 90 65 
308 589 272 116 127 144 
255 824 421 208 217 235 
241 698 181 111 123 145 
195 694 334 66 111 144 
309 264 287 103 97 94 
181 583 243 146 143 148 
293 669 365 112 130 150 
233 23 351 100 86 72 
194 766 371 108 124 152 
300 767 350 96 28 49 
242 990 360 107 86 70 
306 615 352 147 95 84 
216 461 376 85 108 135 
263 926 355 168 128 106 
222 998 350 139 112 87 
287 292 215 90 108 128 
178 730 119 199 209 227 
234 22 350 98 83 67 
183 598 317 123 141 164 
257 668 157 124 129 147 
308 526 239 116 134 155 
242 115 327 82 66 49 
315 225 286 119 39 64 
212 411 302 60 91 132 
189 660 285 85 91 112 
248 839 323 174 123 101 
279 21 364 152 140 134 
235 632 212 132 134 143 
173 660 119 122 138 155 
354 446 339 114 131 154 
217 598 214 71 109 141 
230 928 279 70 58 47 
293 720 474 127 94 85 
271 723 193 192 145 116 
214 134 279 84 69 52 
227 720 222 75 83 94 
197 294 309 154 153 160 
257 655 161 136 103 72 
253 693 217 59 95 122 
215 560 202 94 112 134 
297 798 398 134 157 183 
291 212 257 32 63 92 
223 934 383 137 115 96 
265 955 321 111 93 75 
254 458 201 80 108 139 
330 234 292 100 125 149 
256 34 326 104 82 56 
355 415 353 101 114 146 
256 147 340 91 80 74 
226 756 164 146 131 119 
313 287 384 149 146 149 
167 740 264 111 18 36 
239 16 351 92 80 70 
201 477 366 147 150 158 
289 243 262 86 77 74 
294 442 267 125 125 129 
252 758 471 212 205 213 
301 252 390 99 63 71 
286 218 167 135 47 67 
200 456 311 75 97 120 
245 604 210 83 84 87 
294 669 458 135 102 71 
263 918 354 198 144 120 
189 356 229 120 137 157 
222 159 356 157 67 5 
348 237 314 118 127 139 
200 297 311 137 139 147 
279 679 476 122 97 70 
237 23 344 94 80 66 
276 837 376 69 88 105 
299 228 272 108 26 68 
236 22 347 97 84 71 
179 742 242 54 44 65 
235 741 384 58 84 123 
187 530 361 144 147 158 
238 20 345 94 82 70 
275 364 243 44 67 85 
180 489 221 103 121 143 
302 780 415 104 130 176 
348 525 358 82 107 137 
190 633 276 122 134 151 
184 846 340 172 164 163 
281 465 202 89 110 161 
236 20 349 98 84 72 
194 364 258 141 59 35 
225 388 364 102 92 84 
234 103 322 81 67 52 
236 20 350 98 84 70 
170 668 103 97 122 147 
268 715 180 129 14 59 
260 974 346 150 118 98 
233 31 343 96 82 68 
183 483 220 126 137 153 
300 223 273 100 36 66 
288 283 392 88 110 131 
183 735 244 64 43 48 
265 317 354 115 111 113 
162 759 182 65 79 94 
180 748 132 106 46 118 
188 723 344 154 156 165 
173 832 322 135 106 88 
188 839 246 239 174 133 
273 203 165 85 41 46 
236 27 343 93 80 66 
206 902 369 153 113 88 
318 297 294 138 122 108 
177 519 239 88 103 125 
200 394 275 64 90 133 
275 308 383 151 152 159 
283 537 216 113 125 147 
181 678 105 70 63 77 
211 352 320 164 120 66 
258 698 159 100 138 172 
199 665 131 87 80 76 
217 190 288 106 49 11 
267 725 191 155 131 113 
348 433 322 141 148 161 
274 290 366 146 145 151 
239 26 341 94 80 66 
210 166 355 144 67 26 
299 769 377 125 151 178 
185 849 341 179 154 135 
329 584 291 122 142 173 
308 696 416 143 153 167 
263 670 395 94 123 170 
320 581 343 96 129 158 
256 218 173 102 36 37 
339 272 364 139 138 143 
190 590 336 218 198 187 
244 706 136 166 179 197 
230 315 358 85 126 157 
284 333 178 131 30 58 
194 363 258 145 75 31 
237 773 198 175 77 73 
240 722 197 70 88 106 
227 634 198 128 134 148 
297 638 423 137 104 73 
269 642 438 115 97 81 
270 235 367 111 55 74 
234 182 357 135 35 26 
306 405 198 166 72 8 
239 520 185 152 157 168 
300 635 229 169 117 104 
190 819 199 211 142 104 
174 851 297 190 147 120 
296 529 225 90 113 143 
203 647 260 75 95 152 
329 276 296 117 133 152 
236 570 192 99 121 145 
263 539 207 99 112 132 
238 31 340 93 80 66 
182 719 108 170 176 217 
344 536 318 138 144 157 
219 911 378 186 142 119 
267 412 400 164 139 112 
171 962 311 100 80 65 
211 128 323 83 66 47 
299 290 283 110 119 131 
269 710 180 163 57 20 
228 849 386 101 134 166 
209 133 325 86 69 49 
296 165 197 153 74 3 
329 343 385 175 152 131 
260 661 391 46 75 149 
311 490 279 67 93 121 
161 766 282 143 138 137 
197 128 266 102 83 60 
234 27 346 95 82 69 
236 860 308 150 104 81 
290 179 230 135 75 63 
165 744 148 75 24 60 
291 687 445 122 85 66 
290 167 251 89 74 77 
202 399 331 60 98 129 
175 723 164 105 117 131 
233 25 350 100 85 70 
209 273 230 74 104 132 
234 519 391 81 102 154 
320 584 279 113 136 163 
279 472 203 102 122 176 
246 207 353 54 55 65 
233 764 430 62 92 138 
341 555 306 128 145 167 
234 633 216 128 131 140 
196 907 358 154 118 89 
269 920 316 134 111 86 
301 651 325 180 128 122 
243 288 175 96 92 109 
198 441 229 142 144 151 
324 174 295 22 62 88 
265 260 173 109 16 56 
270 240 355 50 38 54 
274 679 421 80 99 163 
276 910 348 155 125 92 
340 275 362 136 131 131 
267 281 246 71 95 117 
328 452 389 103 124 156 
290 626 215 116 101 88 
244 877 332 103 82 58 
279 769 262 94 116 137 
245 578 394 102 122 152 
207 200 312 81 35 43 
288 765 460 140 137 201 
263 891 341 146 111 80 
271 712 407 58 87 159 
300 503 256 82 104 134 
191 380 221 27 82 122 
212 868 267 155 110 71 
282 278 264 80 81 98 
270 355 374 117 132 151 
274 363 222 90 99 114 
235 28 344 95 81 68 
164 939 327 84 67 58 
264 240 173 28 58 82 
234 28 346 97 85 74 
302 183 170 126 104 88 
184 904 329 143 109 80 
238 649 216 57 108 143 
271 626 386 112 77 77 
243 877 321 151 123 93 
248 689 142 75 105 173 
279 132 244 132 86 46 
255 376 365 151 129 108 
188 216 273 35 44 72 
296 799 389 160 74 88 
182 476 218 91 111 139 
279 636 195 184 134 118 
202 286 324 145 143 148 
235 420 204 81 101 122 
289 139 200 140 77 6 
297 713 220 195 90 20 
279 215 225 78 56 65 
272 707 496 174 118 98 
170 768 211 110 101 96 
352 492 335 88 113 145 
227 1006 313 139 111 82 
176 841 249 220 162 129 
340 437 311 116 131 153 
254 147 336 87 77 69 
246 15 343 91 80 71 
247 14 343 91 80 71 
184 927 277 93 73 56 
185 636 271 111 134 159 
238 351 208 111 123 139 
259 288 174 133 130 131 
200 711 357 58 69 85 
281 917 329 153 124 91 
315 735 418 142 151 167 
200 197 285 94 64 61 
195 463 355 84 105 135 
354 355 351 129 116 109 
228 728 188 64 87 121 
313 622 283 100 123 150 
239 277 359 159 79 9 
221 999 286 103 82 59 
236 776 219 106 71 54 
180 500 262 127 134 146 
334 564 296 153 156 167 
306 654 298 69 119 157 
251 691 373 61 93 135 
272 323 267 115 71 7 
243 332 359 68 89 107 
259 746 195 98 91 88 
234 506 391 146 151 164 
194 667 127 62 69 82 
172 960 308 90 69 56 
288 701 481 160 112 84 
260 188 355 70 46 60 
288 617 411 117 98 79 
243 13 349 92 81 73 
164 1002 316 136 110 89 
265 805 301 151 121 89 
242 14 348 90 79 70 
183 798 178 195 175 164 
281 286 267 79 100 121 
297 196 377 72 54 59 
177 914 342 154 105 86 
222 716 226 77 87 99 
194 483 297 94 111 131 
284 509 397 93 119 159 
196 644 158 82 106 129 
205 640 152 128 152 176 
198 615 333 110 42 65 
232 152 353 99 91 86 
280 216 227 100 94 92 
205 639 156 81 123 159 
182 514 214 110 119 134 
354 472 356 117 134 158 
202 726 171 93 101 113 
247 696 189 135 141 155 
215 103 345 116 95 73 
300 761 309 133 122 109 
224 600 192 127 138 156 
200 783 166 198 160 118 
287 407 403 173 143 110 
306 556 266 0 52 111 
246 14 347 91 81 72 
209 693 247 63 89 111 
267 781 454 163 177 227 
244 759 402 20 54 127 
290 763 370 93 115 138 
275 397 219 50 58 91 
224 359 214 101 119 138 
311 217 284 70 25 48 
247 682 223 72 74 98 
246 755 399 50 80 152 
198 628 285 154 152 159 
196 711 155 35 69 104 
219 206 293 85 42 43 
230 777 417 70 95 130 
279 27 361 146 133 129 
282 134 199 128 96 67 
165 948 327 83 69 56 
198 386 239 62 109 142 
218 242 362 124 41 33 
224 607 197 82 114 143 
203 1020 304 121 99 79 
212 423 198 40 71 98 
197 379 224 22 82 130 
180 843 335 155 137 125 
251 15 343 96 85 76 
352 406 323 115 130 149 
218 290 223 140 131 123 
300 416 278 67 91 113 
197 207 330 92 46 30 
287 236 392 134 78 108 
225 294 358 164 159 161 
202 745 373 96 111 145 
308 175 278 22 43 54 
277 133 263 123 74 26 
197 649 329 155 155 162 
202 310 235 124 111 99 
290 350 401 183 155 126 
186 652 276 156 157 165 
334 521 303 117 130 149 
232 220 360 97 51 75 
263 592 388 75 108 142 
265 378 185 141 144 164 
250 15 344 93 83 74 
316 188 319 87 50 35 
179 657 140 102 120 143 
278 20 365 148 136 130 
179 982 330 78 58 45 
213 914 271 67 53 43 
229 374 210 155 157 165 
176 925 307 70 56 45 
248 13 349 93 83 74 
292 180 164 125 85 52 
322 559 282 117 128 148 
248 13 351 95 84 76 
288 662 221 76 82 91 
201 837 252 214 158 127 
253 797 257 208 156 124 
240 763 416 87 104 124 
186 482 242 135 136 142 
319 499 389 115 128 162 
201 307 236 127 65 9 
242 304 190 81 115 147 
198 254 347 105 106 116 
242 601 387 36 76 104 
293 148 321 117 53 2 
194 444 239 146 143 146 
196 540 369 84 111 159 
220 847 280 185 132 103 
196 236 343 104 52 35 
290 785 367 173 93 86 
291 207 200 134 75 86 
252 15 345 97 87 78 
316 459 220 164 165 174 
279 525 212 90 116 144 
164 753 158 151 20 38 
167 950 339 86 68 55 
238 733 153 170 56 29 
180 876 309 186 137 113 
255 674 457 135 109 84 
253 828 316 188 133 110 
269 931 324 93 69 48 
348 251 329 132 118 107 
283 814 375 159 59 76 
255 15 345 103 92 84 
292 253 174 137 30 70 
196 400 245 52 90 129 
212 67 329 107 84 70 
187 710 265 68 97 122 
200 659 310 74 121 158 
335 344 381 170 142 112 
330 392 388 130 116 104 
271 672 472 118 97 74 
313 186 328 95 43 49 
298 477 260 123 130 141 
185 481 256 125 129 138 
237 737 383 41 69 122 
256 147 188 99 68 42 
249 573 200 102 111 126 
296 133 292 106 59 10 
357 332 340 139 137 141 
212 997 343 137 108 78 
198 347 286 120 90 117 
210 185 313 34 53 69 
307 259 387 87 122 150 
288 681 438 109 77 64 
291 354 280 106 78 81 
241 891 298 155 119 86 
241 852 358 116 99 85 
340 548 303 113 132 155 
320 205 287 137 34 24 
295 650 244 130 97 83 
197 394 204 47 86 122 
354 453 358 101 115 150 
184 462 215 132 141 155 
231 646 192 72 105 151 
327 575 343 194 194 201 
267 761 226 156 63 38 
332 241 356 130 127 129 
230 650 358 82 97 138 
245 28 335 93 78 64 
293 629 420 122 98 72 
210 823 232 205 152 115 
208 629 342 83 95 116 
311 592 316 92 147 189 
228 340 213 83 114 141 
245 30 335 93 78 63 
245 31 334 94 78 63 
288 307 279 111 115 122 
210 232 360 139 38 18 
180 517 297 105 118 133 
267 843 400 179 22 49 
229 68 327 90 74 56 
178 688 290 138 150 167 
159 807 281 121 109 102 
203 466 189 100 112 133 
304 180 343 46 48 54 
279 390 236 49 86 124 
335 504 307 106 125 149 
266 931 343 175 131 102 
295 629 222 114 97 81 
190 744 190 84 38 42 
310 511 237 97 117 150 
251 23 333 101 86 72 
196 366 246 108 121 137 
208 637 166 68 101 129 
292 662 233 99 97 98 
178 536 225 88 104 137 
347 233 310 145 143 147 
289 754 268 205 165 119 
345 236 321 115 124 137 
211 411 297 98 119 141 
223 580 186 130 144 164 
186 875 290 150 101 74 
152 803 251 118 105 95 
284 788 440 158 161 199 
247 790 446 148 175 206 
195 359 221 82 111 140 
319 509 284 112 121 134 
348 457 368 141 150 164 
258 704 206 111 114 123 
260 891 350 149 116 85 
200 427 350 51 86 125 
298 688 375 134 146 163 
242 946 285 71 56 45 
191 1015 296 167 133 106 
285 659 222 66 74 83 
235 156 295 78 76 79 
178 510 339 106 118 134 
259 146 198 98 66 39 
253 23 332 106 90 76 
192 437 249 128 134 144 
300 150 313 115 107 100 
165 735 164 118 28 41 
212 650 344 67 96 128 
259 725 435 105 113 125 
183 492 265 84 109 139 
185 747 230 52 53 62 
294 742 276 126 122 130 
253 776 237 177 129 92 
204 1010 337 149 114 80 
204 141 330 95 80 64 
191 621 242 36 98 183 
250 455 401 107 102 136 
163 777 209 50 46 44 
192 623 314 96 125 161 
254 22 333 108 92 78 
259 401 396 187 159 130 
292 447 195 167 139 114 
290 316 182 143 142 148 
255 25 326 115 98 82 
172 800 321 70 59 67 
255 26 325 112 95 81 
202 484 369 117 127 145 
345 335 367 114 130 150 
294 735 240 145 157 172 
310 558 275 128 138 155 
196 443 338 107 116 131 
266 153 164 113 93 71 
305 150 351 99 79 65 
301 137 301 111 64 5 
236 811 252 205 152 121 
182 927 349 127 97 76 
305 638 254 163 116 102 
190 761 363 142 141 146 
179 761 346 156 158 166 
180 603 256 136 137 150 
309 758 431 134 141 178 
291 200 200 105 102 112 
341 311 306 127 141 158 
303 494 267 138 139 145 
172 925 337 94 71 53 
330 351 386 178 153 128 
234 693 371 73 93 126 
238 827 275 201 144 118 
154 801 250 118 110 104 
215 486 180 122 134 151 
229 363 211 127 132 141 
321 332 296 128 80 94 
255 30 324 105 88 76 
255 30 325 100 84 72 
255 31 324 94 78 65 
255 31 325 96 79 65 
317 360 293 78 96 117 
313 437 215 103 120 144 
257 140 273 119 92 71 
268 230 204 101 64 59 
250 27 331 97 82 67 
311 366 398 96 120 145 
294 714 469 115 88 85 
263 176 365 132 66 4 
258 176 357 135 58 12 
179 507 330 110 121 137 
343 224 311 107 28 58 
298 593 237 95 123 153 
262 930 311 136 100 72 
219 795 208 166 125 90 
210 702 366 35 63 115 
262 383 389 168 142 114 
295 149 255 143 45 35 
352 405 324 105 125 149 
249 27 332 96 81 66 
276 596 224 74 95 116 
166 756 247 32 36 61 
292 145 201 124 69 5 
210 653 144 77 96 114 
240 763 189 152 130 109 
299 384 189 160 151 148 
250 25 333 97 82 69 
254 709 156 175 45 24 
284 737 481 106 77 75 
251 25 332 99 84 70 
286 635 370 151 101 94 
301 240 277 69 94 116 
211 537 379 107 118 158 
283 317 394 151 143 153 
214 556 379 140 149 168 
182 608 250 75 121 158 
234 655 142 99 88 78 
330 323 383 87 111 135 
163 705 132 93 116 143 
282 794 437 147 160 198 
355 387 328 90 117 142 
275 750 477 163 170 221 
197 323 271 102 122 144 
192 492 204 117 131 152 
205 418 356 66 90 123 
193 330 243 145 150 162 
276 610 391 107 94 85 
186 735 181 64 77 93 
289 781 375 51 51 100 
260 398 397 193 166 140 
188 469 244 72 99 132 
157 801 271 140 130 125 
192 750 363 55 75 106 
189 688 276 81 104 126 
254 555 397 89 111 144 
171 555 259 128 144 164 
251 74 347 131 99 81 
264 897 349 151 116 85 
204 653 260 113 116 126 
292 698 434 110 125 145 
272 376 187 169 135 87 
291 670 434 128 91 70 
249 29 332 95 80 64 
332 420 302 141 141 148 
288 466 240 124 135 154 
270 529 207 79 93 166 
301 762 313 164 105 99 
262 538 206 118 127 142 
308 732 369 70 103 161 
313 445 210 112 134 156 
225 953 384 192 153 128 
265 716 435 72 95 137 
218 890 284 115 90 63 
265 136 172 122 113 106 
252 884 326 111 89 64 
182 711 277 101 121 141 
272 351 377 132 138 150 
297 713 466 94 118 142 
259 485 406 77 111 157 
311 553 242 54 89 153 
275 773 258 129 147 168 
250 885 322 127 103 77 
289 339 220 120 116 118 
258 905 317 123 97 68 
273 665 185 28 49 85 
248 777 455 177 188 208 
235 759 391 47 74 122 
239 838 404 186 39 61 
278 389 211 143 133 127 
341 542 367 91 114 168 
278 360 175 197 162 124 
229 606 378 99 112 159 
315 187 358 105 74 74 
217 599 215 64 106 140 
294 156 328 105 91 81 
244 121 329 79 63 45 
213 513 181 134 152 178 
210 171 355 125 93 81 
310 710 286 197 167 137 
222 309 354 72 117 154 
333 407 386 148 105 104 
303 672 313 110 67 74 
264 274 174 109 97 94 
196 445 352 55 83 126 
295 400 277 84 98 113 
294 732 233 166 127 86 
241 18 342 91 78 67 
215 709 113 91 115 163 
187 504 355 83 109 142 
241 849 338 125 111 99 
198 439 273 68 95 133 
357 339 342 154 153 158 
285 752 245 212 175 135 
302 630 254 46 48 68 
188 690 274 78 105 132 
294 744 269 153 149 151 
269 323 242 120 119 122 
262 729 411 40 85 132 
323 488 290 126 129 138 
200 791 381 166 168 179 
265 230 173 92 63 74 
308 596 264 148 156 171 
196 329 293 123 55 70 
288 199 205 124 93 94 
235 757 436 49 84 137 
187 493 277 65 92 131 
350 316 318 151 149 153 
221 638 167 121 142 165 
225 641 360 153 163 179 
241 20 342 93 80 68 
241 21 342 93 80 68 
263 310 352 129 129 135 
348 331 316 145 132 120 
241 22 341 93 80 67 
262 26 321 107 95 83 
220 191 297 74 58 50 
240 22 342 93 80 67 
328 388 390 153 99 31 
258 703 216 47 47 52 
196 775 160 168 144 121 
178 673 276 127 136 152 
238 203 358 29 46 79 
156 809 270 101 102 107 
168 930 323 83 70 60 
301 626 254 90 79 102 
354 274 329 152 147 148 
199 200 346 96 38 64 
254 830 324 127 137 151 
238 310 359 128 131 139 
222 862 347 106 87 69 
208 670 125 102 91 81 
298 168 388 134 118 103 
262 675 159 106 124 143 
269 11 241 117 94 81 
266 233 203 92 0 41 
229 906 378 175 133 105 
217 873 255 165 123 90 
287 206 204 149 95 83 
207 200 355 73 48 61 
217 726 221 83 92 104 
307 757 441 43 69 162 
207 619 349 84 136 175 
251 654 387 81 116 165 
262 17 332 120 103 89 
188 705 148 70 90 112 
298 200 169 107 96 106 
198 417 273 78 106 137 
186 200 261 121 50 30 
188 187 267 141 56 5 
196 342 257 150 111 64 
321 570 280 100 116 144 
277 802 333 181 159 142 
234 1001 331 83 66 54 
310 728 451 124 135 150 
196 257 337 138 47 78 
211 178 287 76 66 59 
346 265 305 98 127 153 
296 676 211 86 97 109 
200 384 227 47 94 144 
292 170 375 112 55 14 
201 699 250 60 86 107 
213 624 231 65 93 134 
194 456 348 81 104 134 
263 336 220 116 117 122 
280 280 390 67 107 140 
202 768 158 166 151 142 
350 533 334 104 132 166 
309 405 202 146 71 11 
335 420 305 108 123 147 
348 520 359 159 161 170 
201 256 237 155 92 60 
204 796 385 149 105 112 
312 174 305 87 56 63 
300 219 196 110 83 89 
181 695 287 122 122 127 
202 831 379 89 76 74 
257 734 170 149 123 113 
311 752 431 172 174 183 
249 687 463 112 131 154 
218 136 348 107 88 67 
202 693 255 73 75 83 
275 682 416 71 126 165 
266 901 342 143 110 78 
299 392 190 182 153 123 
213 1000 280 97 72 43 
240 16 348 90 78 68 
295 151 182 122 106 96 
316 595 309 130 72 90 
289 754 270 188 159 129 
173 744 134 208 31 57 
241 967 284 103 76 59 
205 493 188 110 121 168 
242 526 187 135 147 168 
181 592 309 132 142 160 
270 714 425 130 144 164 
312 357 397 125 89 106 
191 479 229 122 127 137 
205 133 330 107 84 57 
260 24 255 144 129 120 
322 304 383 110 124 142 
159 811 284 140 124 110 
269 137 281 114 81 60 
205 429 358 76 98 134 
235 320 361 86 64 87 
211 353 330 161 127 92 
278 740 216 68 75 82 
270 609 381 61 66 85 
241 24 340 93 79 66 
217 989 289 97 67 37 
181 573 239 152 148 153 
181 884 315 162 121 89 
291 265 272 130 126 128 
242 24 340 93 79 66 
176 933 291 81 65 50 
223 799 408 111 134 158 
305 504 233 76 104 146 
309 755 339 162 47 71 
203 287 299 114 113 117 
189 461 200 88 122 164 
240 31 337 93 79 65 
241 30 337 92 78 65 
186 210 256 37 69 109 
328 527 382 186 181 185 
240 30 339 93 79 66 
236 460 385 46 78 115 
207 576 370 144 158 177 
180 920 319 69 54 44 
171 679 131 109 127 152 
233 282 204 149 13 70 
267 643 437 121 101 82 
281 676 474 124 97 67 
197 651 264 134 143 196 
285 130 222 136 91 54 
288 293 179 92 70 73 
267 253 232 86 95 107 
284 338 398 166 144 123 
254 742 414 72 116 147 
215 963 379 189 149 126 
308 545 244 64 71 133 
170 844 270 198 145 117 
167 675 100 31 75 129 
306 208 180 113 75 76 
242 90 326 78 64 50 
308 602 311 67 123 163 
320 409 394 120 103 89 
170 739 284 78 83 110 
185 634 268 98 118 140 
220 573 194 96 119 143 
176 822 340 156 137 122 
342 504 318 136 147 166 
242 192 352 82 39 43 
265 763 226 215 166 162 
265 367 367 129 127 130 
171 954 308 93 71 56 
159 792 228 123 102 78 
274 298 369 149 150 157 
266 321 177 61 64 90 
243 597 389 38 59 79 
305 550 238 96 116 156 
214 869 268 151 108 71 
304 711 388 31 59 100 
191 596 334 210 192 181 
244 30 336 93 78 63 
248 19 339 95 82 71 
248 822 290 185 127 101 
225 391 212 83 100 117 
180 502 331 135 138 147 
305 761 327 170 149 129 
279 268 166 85 125 158 
217 557 381 113 135 160 
335 470 384 126 141 159 
244 701 231 95 97 103 
222 313 354 69 114 152 
288 163 162 166 73 5 
253 749 478 139 149 198 
179 750 134 93 80 119 
184 675 284 132 137 148 
250 17 340 97 85 74 
250 17 341 95 83 73 
194 605 232 101 125 153 
194 342 264 162 124 83 
158 818 277 128 110 94 
200 737 368 123 136 157 
280 551 215 107 130 161 
344 551 340 126 152 180 
282 648 358 101 113 141 
304 500 232 59 84 133 
250 930 373 151 113 84 
264 136 173 120 111 105 
256 881 350 156 123 91 
195 393 263 55 92 131 
210 356 342 98 115 136 
300 644 251 126 85 98 
336 548 364 166 176 200 
232 163 285 72 76 83 
245 96 343 117 93 68 
309 679 242 168 143 116 
301 181 366 98 97 101 
280 756 238 135 131 134 
192 306 259 99 68 79 
291 232 251 113 42 75 
324 299 295 101 118 138 
317 212 346 87 87 93 
179 656 271 158 160 169 
301 657 262 53 58 63 
251 20 338 101 87 74 
175 729 268 127 139 154 
266 457 409 144 122 103 
253 19 337 104 90 77 
213 394 312 75 100 132 
185 750 352 163 158 161 
240 655 203 39 77 120 
246 390 368 111 109 111 
261 941 309 108 83 70 
224 687 161 111 128 149 
280 417 231 53 63 89 
191 610 279 99 116 151 
346 414 367 80 102 137 
172 738 319 111 134 160 
206 854 364 216 171 115 
224 521 387 124 137 166 
273 685 175 108 141 195 
251 744 423 62 90 114 
292 386 276 59 86 108 
228 99 321 80 65 50 
307 708 314 94 122 147 
252 464 404 67 94 146 
287 510 212 89 117 154 
251 84 333 107 86 64 
318 508 232 129 148 176 
253 17 340 102 89 78 
211 738 379 131 131 139 
188 275 272 165 162 166 
263 327 217 114 115 120 
266 338 179 185 154 119 
196 894 338 137 106 77 
187 191 262 141 57 5 
178 575 246 131 147 167 
171 739 295 66 60 98 
226 877 292 144 110 80 
209 245 305 73 56 66 
294 203 267 32 49 70 
152 799 228 163 156 155 
195 598 344 213 197 190 
305 391 401 178 147 115 
309 725 373 142 157 176 
196 658 266 120 128 168 
323 539 382 88 116 158 
303 705 391 42 77 121 
301 223 177 123 100 121 
242 133 343 85 71 57 
201 407 335 55 94 131 
254 349 183 145 149 163 
313 639 286 161 155 157 
326 526 383 174 175 185 
190 700 310 138 141 151 
256 969 312 92 77 63 
301 379 213 179 155 131 
260 653 425 67 100 149 
289 741 237 147 132 120 
199 412 198 89 110 134 
254 690 213 49 76 98 
162 778 184 196 175 160 
286 462 201 81 100 140 
235 276 196 154 79 102 
216 534 181 123 146 173 
284 337 177 137 21 55 
167 959 337 95 78 65 
296 518 391 138 150 167 
239 925 289 87 70 53 
230 404 368 109 98 88 
280 771 272 191 173 161 
343 313 369 147 146 152 
231 29 354 103 88 73 
294 797 417 167 186 210 
167 692 128 95 112 140 
240 702 231 93 96 102 
258 376 188 117 119 133 
200 623 334 72 110 142 
173 1006 319 148 121 98 
162 762 177 143 135 130 
319 178 303 86 57 59 
240 797 435 94 134 198 
282 138 354 94 86 80 
215 480 381 104 123 145 
229 312 214 153 150 153 
237 818 260 210 156 125 
207 440 362 63 94 127 
272 399 400 179 152 125 
246 402 372 106 89 68 
183 510 301 122 128 138 
227 1007 327 141 113 84 
235 823 265 211 152 125 
174 560 325 212 199 193 
287 299 393 115 93 97 
219 371 353 138 138 145 
280 335 396 162 151 145 
235 21 355 102 86 68 
178 911 343 154 109 86 
246 582 201 79 98 116 
198 434 349 61 89 132 
210 420 200 15 59 87 
186 1012 297 121 90 66 
310 477 394 103 122 165 
236 748 449 143 144 153 
228 1013 307 166 134 102 
181 890 296 138 104 75 
258 306 222 100 113 130 
292 149 207 116 79 30 
315 441 286 50 80 116 
208 449 186 90 113 144 
229 377 211 111 132 155 
268 660 392 80 95 147 
239 70 326 96 77 55 
215 420 202 29 58 87 
177 995 287 131 103 72 
175 851 311 189 148 121 
175 714 152 76 95 115 
184 677 141 109 131 157 
248 199 349 55 41 48 
233 414 372 129 117 109 
238 804 248 200 147 115 
271 717 414 62 78 143 
182 697 298 120 132 148 
248 924 298 116 55 25 
194 697 332 77 124 159 
264 821 340 216 174 127 
253 321 352 115 113 115 
195 384 251 84 107 139 
281 233 392 101 110 127 
185 736 122 190 218 240 
189 491 279 139 145 155 
239 624 376 72 100 124 
236 19 355 89 75 60 
261 732 417 65 116 154 
289 455 232 83 109 136 
250 556 196 122 143 174 
300 359 214 179 155 133 
287 793 360 136 69 79 
262 24 322 102 91 82 
191 482 310 109 117 129 
212 758 386 88 104 134 
293 134 352 103 91 81 
269 599 218 119 120 125 
243 622 205 56 71 85 
228 679 166 49 82 141 
293 468 231 60 85 122 
175 506 224 155 160 171 
209 843 378 126 119 119 
285 666 373 111 121 150 
252 849 398 190 47 60 
318 214 353 83 90 98 
316 481 222 99 131 167 
269 929 327 100 72 48 
166 954 333 93 69 52 
264 912 324 159 122 92 
322 462 290 95 111 129 
204 773 385 112 120 142 
293 786 430 165 172 190 
270 359 381 177 152 128 
296 230 201 93 76 94 
326 551 288 121 133 151 
251 603 209 88 88 90 
300 725 248 100 81 113 
241 739 384 62 88 132 
239 16 357 95 83 73 
247 716 486 116 131 158 
223 874 352 86 67 45 
285 200 165 71 45 65 
302 175 168 75 60 62 
260 886 342 142 112 80 
313 738 435 131 138 172 
266 485 208 129 132 140 
186 225 261 91 47 46 
232 374 209 113 131 153 
236 20 354 94 80 65 
248 799 254 206 153 122 
268 277 352 120 121 126 
190 719 164 64 91 114 
164 731 147 129 104 105 
236 20 359 103 86 69 
193 710 252 59 82 103 
291 129 273 116 68 17 
236 22 359 101 82 60 
175 932 296 75 58 45 
215 799 201 173 131 98 
219 333 220 82 104 123 
303 466 211 150 165 196 
216 640 161 61 110 151 
239 155 350 86 76 69 
230 847 289 170 126 98 
239 16 361 101 88 77 
204 749 377 126 129 146 
161 764 197 113 96 80 
230 258 363 144 51 89 
189 744 355 81 111 139 
281 360 174 202 166 125 
260 445 408 128 114 104 
230 720 220 69 77 87 
314 671 270 118 75 37 
203 429 192 86 115 147 
206 173 285 89 81 75 
261 277 173 92 57 63 
286 396 215 91 93 111 
176 569 319 180 179 185 
301 499 216 138 151 177 
343 454 319 144 157 176 
190 753 136 194 58 67 
295 177 378 124 48 2 
170 827 310 158 144 135 
209 245 306 80 53 58 
215 579 376 129 153 179 
254 587 393 68 111 144 
283 787 442 204 202 213 
245 138 331 69 56 42 
237 22 362 129 117 110 
230 563 387 131 137 154 
290 752 293 96 91 92 
199 675 325 80 107 133 
282 650 355 100 109 134 
274 275 371 134 21 66 
254 425 383 119 103 88 
297 780 380 155 167 184 
285 233 167 114 92 93 
229 619 373 51 64 96 
296 190 376 69 58 54 
174 752 309 133 37 42 
307 765 400 145 159 178 
198 277 288 119 128 141 
240 687 234 105 107 114 
303 722 256 114 123 132 
271 723 491 180 126 102 
288 192 244 82 48 43 
187 499 230 132 134 142 
301 607 374 154 112 96 
275 838 395 159 75 76 
233 24 353 102 87 73 
258 577 201 119 131 150 
255 922 302 166 116 84 
291 141 214 152 85 9 
306 195 278 83 48 63 
210 190 310 35 38 45 
316 198 334 121 59 45 
316 522 283 139 141 150 
299 789 414 142 165 192 
295 342 220 137 135 141 
285 191 222 126 76 78 
207 251 295 114 42 72 
202 812 381 79 20 38 
277 278 387 82 120 150 
297 491 235 76 98 121 
205 181 351 132 32 18 
233 24 356 112 93 74 
210 1011 282 125 82 65 
233 25 356 111 94 76 
166 930 331 121 101 82 
219 205 296 94 47 52 
193 167 264 107 87 66 
198 129 274 113 90 65 
253 837 346 141 125 117 
218 819 243 217 165 127 
194 392 205 67 99 130 
262 895 350 152 118 88 
295 654 427 146 103 78 
194 722 111 172 188 232 
309 689 293 115 101 89 
319 241 370 103 69 84 
176 546 341 117 132 150 
285 346 400 175 153 133 
183 702 288 59 84 104 
172 565 290 158 156 162 
264 348 227 80 88 97 
298 201 379 83 55 48 
230 393 212 94 102 113 
295 654 444 132 103 66 
172 726 164 113 112 115 
320 571 355 167 167 175 
266 684 163 48 81 110 
235 173 354 89 36 50 
180 806 356 70 62 84 
343 542 359 126 142 193 
322 502 288 54 84 114 
294 150 323 107 58 15 
278 696 489 130 99 68 
296 777 341 150 62 82 
269 507 204 117 132 157 
239 805 250 204 150 118 
289 299 393 96 93 103 
201 652 345 103 120 140 
263 510 403 113 139 176 
251 737 392 93 121 163 
222 668 242 95 102 113 
345 476 372 86 106 143 
302 428 224 47 78 134 
193 905 347 107 82 54 
222 885 286 136 104 78 
254 602 389 66 95 148 
315 518 282 143 143 149 
230 164 282 71 72 76 
239 816 264 210 156 128 
165 817 297 131 134 140 
238 619 202 58 71 83 
184 876 324 166 128 96 
243 768 200 167 162 164 
168 822 226 201 143 112 
215 93 346 117 96 73 
329 407 389 135 118 101 
313 665 271 120 81 69 
239 287 185 160 156 151 
247 397 203 186 157 126 
236 24 360 131 119 112 
236 24 361 132 121 114 
317 557 280 85 109 133 
264 324 235 47 47 62 
288 521 393 84 104 144 
340 283 368 74 108 137 
236 934 380 122 96 71 
163 731 143 145 45 70 
177 757 205 60 41 44 
185 749 352 162 158 163 
330 249 294 173 165 165 
200 495 195 108 123 144 
272 343 218 89 100 113 
271 457 201 156 67 88 
332 430 386 76 99 146 
243 858 377 175 157 144 
275 839 395 145 40 54 
303 469 212 95 124 170 
287 571 380 59 66 78 
295 216 388 109 109 116 
281 427 192 188 73 3 
161 810 228 140 123 109 
217 767 167 166 147 138 
179 922 291 81 62 50 
295 446 196 142 96 66 
302 508 221 127 147 172 
196 946 273 82 61 38 
245 563 196 81 107 145 
309 700 322 148 158 173 
209 637 162 69 115 150 
195 242 340 142 41 32 
285 762 294 144 121 110 
306 600 329 136 96 95 
177 760 225 68 56 56 
277 163 385 99 89 82 
194 674 272 50 69 109 
195 726 358 89 132 167 
248 687 226 103 96 95 
288 642 382 132 137 148 
321 180 285 127 50 18 
181 755 228 68 44 36 
234 835 405 187 34 75 
311 588 273 117 127 143 
297 775 325 117 111 119 
230 914 378 189 138 114 
276 923 327 118 99 84 
260 22 257 119 101 101 
239 734 382 114 124 140 
313 741 439 172 176 189 
257 17 338 110 96 83 
168 822 224 202 143 111 
325 336 297 127 74 66 
293 408 273 63 84 104 
184 898 324 128 93 64 
299 213 274 76 43 54 
319 487 390 158 161 173 
244 705 479 92 119 145 
179 516 217 71 95 120 
224 937 273 59 48 43 
172 706 141 86 99 117 
292 629 388 152 100 85 
241 14 355 95 84 75 
199 719 111 141 164 217 
194 685 305 72 122 159 
259 41 355 127 99 79 
310 460 209 114 135 165 
242 13 354 94 83 75 
195 653 339 166 167 176 
256 731 394 100 124 156 
259 635 395 42 45 94 
238 810 424 148 145 191 
187 226 272 94 49 79 
222 94 322 80 65 49 
233 762 442 113 126 163 
170 743 252 97 47 52 
204 751 378 121 128 146 
191 539 207 109 122 138 
311 564 252 79 105 141 
278 644 206 142 106 88 
293 703 468 158 109 83 
271 557 393 88 123 152 
230 731 145 212 158 200 
285 196 389 147 71 87 
166 756 157 175 123 63 
308 449 205 78 102 175 
217 685 111 91 114 139 
304 180 344 42 44 51 
256 762 470 218 214 220 
169 843 284 194 147 117 
332 574 292 106 127 153 
216 640 350 132 144 167 
269 630 384 84 68 64 
200 942 373 150 117 91 
295 741 271 100 108 118 
240 463 387 81 100 122 
261 678 382 122 134 164 
297 428 222 73 95 113 
340 421 378 125 139 156 
288 644 374 172 176 188 
235 409 207 60 85 109 
241 402 206 157 133 104 
227 799 230 197 144 109 
295 143 237 144 91 53 
172 814 321 129 110 92 
260 834 354 103 89 75 
282 137 353 91 85 81 
270 239 358 57 41 60 
271 257 358 92 44 45 
277 291 210 85 95 108 
192 621 270 76 112 145 
181 514 350 52 80 126 
316 528 282 140 139 144 
184 803 364 150 22 41 
216 700 156 61 72 117 
292 431 266 92 104 123 
196 466 198 100 119 143 
244 14 358 99 88 79 
206 711 368 87 101 123 
181 614 243 159 157 159 
224 666 240 109 112 119 
350 362 359 127 111 94 
283 132 296 106 76 58 
188 610 301 160 162 171 
322 421 393 114 72 116 
246 13 358 100 89 81 
173 838 317 110 104 102 
282 162 162 164 70 3 
299 730 271 96 78 58 
355 380 334 45 90 122 
201 668 153 98 122 153 
313 709 409 115 130 156 
206 530 376 144 149 164 
172 563 278 108 138 169 
212 906 276 79 59 46 
263 805 294 187 141 117 
188 256 276 46 41 48 
296 684 338 72 90 137 
308 203 281 110 30 26 
240 157 349 95 65 18 
208 450 366 33 73 125 
201 165 332 123 74 49 
304 466 274 99 110 126 
174 801 192 166 150 144 
299 677 396 47 71 116 
229 135 351 107 87 66 
271 623 389 130 97 87 
197 677 110 105 92 80 
245 14 360 102 91 82 
241 439 381 106 113 121 
215 287 357 146 149 159 
308 503 392 115 132 169 
233 872 363 125 97 71 
272 769 246 133 145 160 
190 831 213 239 154 116 
301 314 398 140 148 162 
179 653 136 66 84 110 
296 281 215 142 140 144 
209 68 350 143 112 97 
273 755 227 164 140 115 
213 445 370 98 118 141 
194 427 267 45 77 120 
275 258 384 141 79 83 
232 705 129 48 77 130 
266 315 239 107 103 105 
255 168 353 135 59 5 
165 794 198 198 176 160 
214 148 352 110 99 92 
186 759 212 90 59 49 
343 492 374 123 133 153 
217 730 131 119 90 52 
307 736 369 129 149 172 
299 695 381 114 136 161 
300 634 227 150 103 87 
205 639 157 62 114 155 
278 682 479 120 97 71 
290 403 402 188 157 125 
186 945 275 73 59 46 
196 768 154 81 77 81 
356 323 336 148 146 149 
192 1012 331 168 139 110 
198 354 243 93 116 142 
293 742 478 128 152 196 
177 738 182 98 53 58 
258 16 369 121 109 100 
271 489 405 130 146 168 
188 660 149 98 118 151 
187 254 265 77 58 88 
192 780 162 199 145 68 
266 372 396 138 23 64 
277 726 486 178 124 101 
318 620 294 122 40 72 
303 321 286 96 51 62 
201 94 338 134 103 82 
252 570 199 102 121 155 
280 303 271 86 103 122 
277 284 263 104 100 98 
190 930 361 91 73 57 
245 659 370 65 105 157 
255 529 194 128 136 152 
157 779 263 108 100 98 
267 462 409 118 136 168 
200 1014 285 166 124 103 
223 671 243 77 93 110 
220 349 216 79 108 135 
239 654 214 64 115 151 
271 845 374 156 129 102 
281 662 205 80 89 101 
266 768 465 141 148 205 
259 850 395 206 156 81 
261 441 201 169 151 146 
194 991 343 104 81 58 
288 271 214 132 129 133 
284 662 417 74 73 101 
255 618 380 113 120 139 
348 363 361 145 127 111 
254 13 352 103 93 85 
187 720 165 103 112 125 
281 663 203 83 91 103 
266 139 315 90 64 45 
328 320 299 167 128 81 
298 154 201 131 116 103 
308 352 399 118 134 150 
256 808 282 185 131 100 
246 675 212 50 108 149 
174 764 333 146 131 143 
196 341 272 154 114 68 
187 685 140 86 110 141 
219 665 246 73 90 112 
298 632 357 167 107 103 
260 710 495 178 124 109 
253 13 359 108 97 89 
273 844 389 166 113 98 
178 839 243 232 167 126 
231 1002 339 134 102 73 
257 747 191 146 122 91 
287 815 402 149 97 101 
169 831 239 206 151 117 
232 719 181 129 129 136 
299 207 171 128 58 75 
270 742 483 142 171 217 
309 731 321 83 121 152 
236 404 209 55 73 89 
321 476 390 110 129 163 
248 13 362 107 96 88 
266 941 346 161 126 96 
327 182 290 65 52 64 
332 372 305 93 111 131 
218 216 361 23 61 107 
250 13 360 107 96 88 
235 482 182 149 152 162 
255 381 367 150 127 103 
199 652 325 137 128 131 
212 490 181 92 115 140 
172 734 275 137 25 38 
302 697 378 111 135 161 
180 588 256 90 109 135 
244 689 186 142 148 162 
281 270 260 84 101 119 
304 686 412 126 142 162 
205 155 349 118 93 57 
173 533 249 156 154 159 
299 724 471 101 126 155 
247 990 343 84 61 57 
283 813 377 176 101 108 
300 642 239 148 109 94 
162 775 181 129 117 110 
303 386 283 78 97 115 
287 606 395 94 87 83 
209 705 108 171 184 210 
171 801 318 36 41 51 
321 594 308 162 169 184 
307 623 323 128 97 105 
305 543 256 102 120 139 
217 435 192 53 79 103 
251 14 366 113 101 92 
189 663 285 79 115 146 
188 801 368 128 38 50 
284 190 219 131 82 86 
200 621 334 68 112 147 
205 1020 312 129 98 71 
183 602 262 84 113 138 
254 956 297 106 90 74 
343 540 364 151 161 178 
268 948 316 138 111 86 
216 417 201 31 54 84 
281 924 334 141 113 88 
264 905 354 161 123 91 
355 428 355 90 110 150 
238 586 389 91 120 153 
194 240 337 144 35 29 
280 786 306 193 171 154 
254 13 362 111 100 92 
231 904 377 157 116 88 
182 811 359 64 41 49 
255 674 451 128 102 85 
289 660 230 46 49 54 
278 476 204 108 125 175 
211 865 268 163 115 75 
299 681 210 89 110 130 
269 353 368 142 144 152 
247 77 348 127 97 78 
313 248 287 76 109 135 
354 446 359 103 113 150 
265 723 425 70 100 147 
186 651 150 131 139 152 
342 467 321 139 145 158 
318 481 227 125 146 170 
323 207 326 76 76 79 
205 481 373 94 114 139 
264 544 399 154 163 178 
259 955 308 89 72 66 
216 823 394 89 69 83 
288 651 412 125 95 81 
299 294 215 113 128 147 
214 825 246 211 156 122 
336 248 295 159 156 162 
318 597 279 122 141 185 
210 739 214 102 105 113 
273 14 365 130 119 112 
220 152 314 85 62 45 
196 451 273 51 83 133 
210 631 345 168 160 158 
307 391 284 49 80 109 
267 140 323 91 62 42 
293 791 381 151 130 135 
326 594 287 120 148 180 
235 70 353 134 110 86 
253 570 395 85 107 141 
210 952 271 97 72 46 
278 699 186 87 150 208 
257 261 351 80 19 41 
353 268 323 147 145 149 
323 578 346 188 183 186 
238 655 195 86 112 145 
174 759 337 119 78 89 
261 163 362 106 95 86 
183 608 264 130 141 158 
305 589 364 70 71 109 
343 530 368 176 174 179 
168 841 274 193 144 113 
