ply
format ascii 1.0
comment Created by CloudCompare v2.11.1 (Anoia)
comment Created 2/28/22 9:40 PM
obj_info Generated by CloudCompare!
element vertex 2010
property float x
property float y
property float z
property uchar red
property uchar green
property uchar blue
end_header
340 546 341 104 126 177 
232 783 224 174 125 92 
334 205 360 100 92 98 
307 280 384 109 93 93 
182 575 227 90 124 153 
178 503 267 57 90 124 
333 520 281 49 85 124 
207 135 250 125 100 71 
266 227 216 112 29 56 
278 828 403 150 180 210 
285 548 211 156 161 177 
185 390 199 67 95 124 
204 459 299 148 146 149 
164 663 118 127 132 142 
283 936 306 124 104 87 
205 132 254 120 97 72 
211 326 303 133 29 58 
213 302 333 110 79 92 
237 302 179 79 128 168 
305 688 236 183 136 75 
199 466 346 80 104 138 
193 852 344 149 121 101 
273 830 407 172 64 92 
234 974 279 105 76 50 
357 294 354 84 124 155 
289 300 365 154 152 158 
189 746 215 117 121 132 
271 667 383 99 119 170 
188 370 208 75 107 136 
231 143 344 96 82 70 
202 622 237 90 109 137 
203 136 255 112 92 69 
305 444 181 149 100 133 
176 752 227 70 41 34 
296 303 166 148 147 152 
310 283 277 89 104 121 
255 186 333 64 32 34 
176 967 330 84 63 54 
200 204 333 93 45 44 
220 763 178 167 133 96 
203 139 254 113 92 69 
176 844 253 227 162 122 
246 332 176 171 161 159 
301 660 332 91 103 122 
291 337 386 148 108 90 
276 183 356 113 75 58 
188 796 363 154 26 46 
246 726 373 101 112 127 
342 543 292 143 158 177 
269 270 257 90 105 123 
302 739 468 76 116 190 
251 943 285 82 66 53 
203 142 254 112 92 71 
194 358 219 50 89 126 
308 619 384 145 103 89 
270 639 189 172 124 108 
242 360 350 141 137 139 
176 497 246 146 143 147 
207 136 250 125 101 72 
267 410 366 155 67 7 
272 443 188 145 129 121 
359 441 313 118 130 147 
240 573 379 135 147 164 
287 265 348 112 41 64 
305 675 233 144 123 104 
293 653 350 89 110 132 
347 224 321 110 43 60 
194 461 181 136 140 150 
311 701 350 97 124 157 
271 247 255 132 127 128 
320 721 404 174 172 180 
173 833 318 160 133 117 
256 357 209 91 68 77 
271 650 412 73 98 135 
260 665 368 58 93 159 
277 907 327 138 112 85 
301 626 377 155 105 92 
240 861 292 157 122 88 
183 280 252 128 14 55 
256 909 300 130 89 60 
239 802 416 96 108 178 
205 142 251 123 99 69 
202 1019 318 99 81 63 
205 143 251 124 99 69 
197 646 324 160 159 165 
282 184 183 75 73 89 
194 821 367 64 38 47 
237 166 344 113 93 80 
161 829 280 181 134 107 
185 503 290 121 128 140 
294 425 192 83 86 110 
299 380 161 193 167 143 
209 628 228 85 112 140 
241 762 197 223 206 197 
295 640 377 63 75 107 
341 274 377 155 151 153 
221 723 212 81 90 101 
334 321 294 131 87 27 
204 141 253 118 96 70 
257 593 199 128 127 132 
253 651 164 146 106 85 
157 697 110 115 131 168 
204 143 252 119 96 71 
255 313 342 61 78 93 
174 763 334 163 26 47 
317 149 290 119 48 25 
175 927 330 94 76 58 
276 672 419 77 95 139 
199 661 312 67 112 147 
307 322 277 92 95 96 
345 243 316 131 70 12 
350 406 374 131 128 139 
252 470 378 57 84 119 
199 152 255 101 85 68 
258 154 339 117 105 92 
305 424 399 186 91 3 
251 393 189 163 138 110 
250 496 185 139 141 151 
337 557 288 117 135 158 
246 726 159 207 133 79 
178 726 247 87 85 84 
278 179 213 143 91 80 
157 781 214 109 96 86 
182 974 336 83 65 58 
201 452 345 51 71 107 
287 793 336 126 113 108 
199 158 251 113 94 72 
280 17 334 134 122 117 
309 630 324 168 114 104 
207 531 184 130 152 178 
273 946 308 100 83 70 
197 157 255 101 85 68 
206 135 322 94 75 54 
196 158 255 99 83 67 
281 144 349 75 66 62 
330 185 342 95 49 44 
185 742 128 74 61 117 
197 159 254 100 85 70 
280 619 220 73 82 92 
357 499 313 109 123 158 
294 235 159 120 93 96 
285 446 182 179 153 151 
285 753 267 194 154 103 
280 156 238 88 64 49 
290 475 248 118 120 129 
270 940 342 163 126 97 
219 172 293 87 87 89 
207 733 143 206 165 100 
198 158 253 104 88 71 
249 587 195 75 95 116 
278 249 141 44 85 118 
272 729 197 164 172 183 
230 652 217 53 92 125 
184 951 280 87 67 45 
262 533 389 88 107 157 
257 740 423 39 64 101 
217 252 353 116 72 94 
189 617 316 118 138 165 
282 154 169 113 101 90 
195 844 256 208 153 118 
163 748 254 118 96 71 
195 926 355 98 74 56 
156 802 278 109 114 124 
232 419 195 92 103 117 
283 938 307 128 109 90 
338 548 358 116 140 176 
183 506 223 79 102 125 
341 291 305 104 69 62 
203 447 324 70 96 140 
354 306 370 107 126 149 
249 695 156 111 136 162 
275 177 354 144 54 15 
202 144 254 107 89 69 
248 867 351 107 84 62 
298 427 195 75 81 111 
351 454 367 145 150 163 
291 252 176 116 87 73 
243 558 381 117 134 162 
288 797 365 132 70 65 
315 666 270 77 66 114 
318 581 345 173 169 174 
225 425 189 42 74 104 
259 720 447 108 116 129 
317 148 291 105 52 36 
227 66 277 100 84 68 
200 182 286 114 59 34 
275 470 192 62 96 164 
221 165 295 83 75 73 
241 777 231 168 123 88 
167 785 305 145 108 64 
203 499 175 121 144 173 
249 839 399 115 67 88 
306 549 232 88 117 158 
203 149 251 116 94 69 
201 678 150 37 52 124 
276 176 208 145 103 82 
311 684 352 69 107 154 
280 349 383 132 125 132 
262 712 451 55 83 124 
305 661 277 105 85 82 
281 833 390 187 65 78 
346 393 379 130 115 104 
196 872 272 173 127 90 
193 857 341 151 143 139 
276 383 183 163 56 53 
294 701 479 158 110 85 
268 672 426 73 96 140 
263 361 347 130 127 130 
307 656 418 144 105 76 
204 264 230 85 103 122 
253 753 400 53 82 140 
296 321 272 92 88 93 
156 771 272 117 97 78 
350 226 332 111 25 54 
203 480 174 141 150 175 
255 937 290 123 60 43 
265 252 238 90 99 112 
215 124 277 81 66 49 
285 161 181 119 106 96 
304 473 262 114 119 128 
270 652 203 48 47 48 
274 380 359 165 144 124 
204 635 143 113 133 154 
280 355 372 90 113 135 
317 153 354 68 71 76 
167 735 265 111 63 64 
257 293 194 69 98 123 
174 731 250 105 98 103 
223 274 352 158 154 158 
185 1013 298 141 98 65 
168 538 259 112 120 142 
289 796 350 138 107 84 
234 671 180 105 124 165 
228 996 344 137 106 81 
356 394 327 51 97 137 
253 387 185 163 44 69 
303 759 446 86 111 185 
176 769 153 204 180 157 
211 619 338 78 129 167 
326 194 291 103 47 34 
210 139 339 106 87 66 
267 735 195 168 147 127 
204 149 249 121 98 72 
260 239 214 94 106 120 
261 18 257 146 130 125 
313 751 440 193 197 209 
165 782 296 129 106 88 
180 958 292 112 83 61 
330 569 283 101 126 156 
186 504 333 137 139 147 
249 355 348 117 112 113 
249 974 285 121 96 73 
241 779 231 170 127 89 
202 460 319 116 125 138 
221 709 124 164 191 221 
214 341 213 85 114 140 
313 350 393 187 162 138 
214 111 338 114 93 72 
256 56 331 121 94 74 
240 97 268 75 64 53 
206 151 248 121 98 71 
213 382 208 74 92 109 
289 122 264 118 70 26 
169 738 125 209 83 93 
289 338 151 164 22 70 
243 579 379 127 145 167 
232 179 347 38 57 87 
298 556 371 123 140 162 
208 692 359 109 110 117 
232 778 398 17 44 97 
306 690 294 111 131 153 
310 617 347 156 105 95 
196 407 221 55 86 137 
277 389 232 41 79 113 
291 776 362 146 78 79 
190 386 200 53 90 126 
191 626 320 115 139 166 
256 354 174 195 19 66 
261 231 214 108 24 61 
185 910 333 118 85 65 
258 341 220 86 91 98 
213 739 156 115 111 130 
307 626 328 142 105 86 
271 316 259 102 92 84 
211 487 171 89 115 147 
287 660 217 99 100 105 
237 147 278 92 79 66 
257 327 191 126 84 75 
269 257 173 90 65 70 
245 753 444 120 117 147 
249 735 378 112 123 139 
201 685 336 74 120 158 
248 429 195 114 101 87 
232 932 272 62 53 46 
297 747 288 113 78 98 
303 325 157 104 124 145 
199 934 263 75 59 43 
176 926 333 102 76 58 
203 152 250 118 96 72 
231 257 171 72 101 126 
234 973 369 125 98 84 
214 152 347 104 94 86 
271 393 217 52 75 95 
185 491 276 51 81 126 
304 681 232 175 144 111 
168 791 309 89 77 79 
330 457 283 77 106 139 
216 108 339 118 98 77 
197 602 327 172 167 171 
192 216 283 129 31 22 
169 535 257 118 127 144 
332 295 292 140 140 146 
285 165 251 70 49 40 
190 555 212 134 132 136 
203 139 332 115 91 66 
172 517 216 89 101 117 
298 457 259 59 85 115 
295 523 384 105 124 156 
312 515 214 189 193 215 
189 889 282 125 93 67 
234 959 270 70 56 44 
253 284 344 135 123 116 
295 331 150 201 173 146 
290 267 358 123 20 48 
154 788 224 109 95 82 
265 299 250 111 116 125 
202 156 249 118 96 71 
189 366 222 113 126 149 
193 747 358 106 115 130 
278 809 345 86 83 87 
261 774 240 208 153 110 
210 87 340 140 112 87 
188 438 241 100 119 142 
202 159 248 116 95 71 
209 149 316 96 85 74 
223 103 343 130 99 80 
193 219 285 129 30 26 
242 501 183 122 132 158 
194 733 225 78 90 104 
205 265 339 78 124 160 
176 573 240 137 144 158 
330 318 388 179 158 140 
206 406 327 55 100 132 
270 344 231 66 78 91 
302 630 267 123 113 113 
300 731 353 108 122 139 
286 333 386 181 153 125 
360 426 329 144 150 163 
290 289 375 90 66 77 
224 988 357 93 78 69 
304 459 264 65 88 111 
169 538 256 124 134 148 
180 546 342 83 110 147 
183 908 318 112 85 65 
295 487 217 80 97 130 
293 465 253 117 119 127 
204 158 248 119 97 71 
255 381 209 87 91 99 
271 535 392 102 125 166 
258 258 197 130 64 2 
332 455 380 86 119 150 
319 386 280 67 90 114 
318 460 273 33 76 103 
259 622 189 106 99 94 
214 612 356 106 105 139 
287 223 364 112 88 107 
307 236 379 113 87 78 
288 702 483 164 113 90 
314 624 285 104 141 172 
223 648 226 97 43 63 
258 802 274 188 137 103 
266 696 447 122 136 155 
165 764 293 108 63 49 
208 131 251 127 101 69 
221 700 165 102 115 140 
241 586 195 78 90 104 
292 358 188 120 119 123 
312 664 264 92 71 58 
249 304 347 116 120 129 
276 302 339 132 132 138 
295 710 231 173 103 64 
158 812 226 177 126 94 
224 273 208 153 77 86 
286 616 397 110 95 83 
183 882 291 121 82 53 
210 256 223 119 120 128 
337 405 290 77 103 135 
257 232 170 85 40 54 
299 771 438 137 144 192 
279 469 399 87 118 168 
184 597 310 148 156 173 
199 962 362 93 76 66 
207 138 279 84 67 48 
247 926 289 127 79 54 
277 370 174 193 157 115 
183 271 268 117 77 74 
270 930 337 160 123 94 
267 482 395 85 112 161 
289 240 373 96 100 117 
275 162 378 75 66 61 
207 590 360 92 107 128 
307 573 260 103 112 132 
316 440 389 144 49 83 
316 563 366 181 180 189 
333 190 345 102 48 55 
246 79 312 77 62 45 
296 680 466 126 99 67 
199 135 261 99 81 63 
184 364 217 116 132 154 
209 694 115 71 97 133 
189 488 193 132 136 150 
178 1002 291 128 104 81 
263 706 372 81 118 149 
267 320 234 114 112 114 
303 738 349 141 157 177 
323 491 378 183 178 182 
314 152 309 38 65 90 
295 125 325 100 87 77 
270 238 332 29 33 45 
276 228 142 129 91 55 
294 136 359 98 90 82 
195 295 290 96 118 141 
193 398 214 57 92 138 
267 947 308 109 84 68 
201 593 351 124 74 90 
258 272 230 119 114 114 
259 330 229 69 52 50 
205 70 346 149 107 92 
266 652 197 38 41 54 
186 256 283 147 148 156 
246 354 184 165 138 109 
232 710 370 93 108 125 
294 152 260 91 45 35 
185 676 97 91 84 81 
204 103 257 117 93 66 
192 716 113 170 202 234 
178 669 111 61 77 94 
185 659 114 90 107 126 
353 258 339 110 109 113 
265 641 174 180 130 105 
196 788 174 124 153 182 
211 716 126 158 194 232 
277 356 381 128 108 117 
251 655 364 97 121 160 
190 424 240 60 88 122 
280 793 308 166 147 140 
342 405 293 77 106 138 
261 315 231 58 83 103 
308 673 280 100 85 82 
267 560 388 94 115 149 
287 211 368 128 86 97 
245 627 367 104 111 122 
284 242 264 70 98 121 
284 312 181 56 95 125 
274 630 401 90 86 88 
336 565 295 130 150 187 
213 142 247 122 98 69 
190 747 195 99 29 33 
202 566 359 143 150 165 
214 141 246 128 101 68 
302 700 341 130 137 152 
230 686 127 72 104 133 
240 120 264 84 73 63 
251 755 409 47 73 123 
221 167 293 85 80 80 
200 435 182 122 135 151 
197 641 292 115 65 79 
219 779 207 118 86 59 
284 787 308 123 112 106 
215 185 301 41 56 74 
313 732 369 25 62 131 
314 434 198 115 130 148 
211 190 287 109 48 14 
192 707 330 149 146 148 
317 153 357 65 69 76 
339 201 307 92 44 43 
255 960 286 117 95 71 
314 535 372 140 153 172 
243 667 143 171 173 187 
290 409 193 102 107 119 
183 894 288 125 93 68 
176 533 316 86 109 135 
153 796 245 120 106 94 
319 532 371 93 119 161 
281 737 476 116 155 201 
285 361 265 111 111 116 
210 133 318 83 67 49 
295 178 161 120 119 120 
238 997 303 107 84 64 
209 140 249 122 98 69 
261 841 399 192 35 59 
208 140 250 125 100 70 
273 244 256 126 119 115 
185 333 233 144 152 165 
261 739 188 232 195 164 
187 508 342 156 152 154 
209 142 249 124 99 69 
274 356 173 194 155 106 
209 143 249 127 101 69 
297 777 353 102 68 111 
326 567 357 110 136 176 
272 804 311 159 123 104 
193 652 146 82 107 141 
195 429 271 62 91 136 
243 127 257 102 85 68 
232 659 186 82 109 165 
281 421 233 28 72 116 
211 142 248 126 101 72 
199 378 272 115 126 144 
212 569 192 107 127 151 
324 572 305 186 182 188 
296 264 157 112 55 59 
318 155 303 43 49 58 
234 115 273 77 66 55 
281 300 147 175 174 180 
335 189 311 53 59 70 
247 565 191 158 158 165 
263 245 142 133 65 77 
279 195 365 60 90 122 
301 787 405 129 143 182 
280 832 364 162 156 156 
212 140 248 122 98 71 
360 412 341 84 107 140 
301 746 296 138 59 63 
184 616 268 74 103 130 
279 371 173 190 157 120 
244 323 174 175 167 166 
306 665 277 99 75 73 
197 373 226 83 101 147 
206 657 158 48 76 122 
218 86 311 83 67 51 
217 133 247 128 101 69 
253 302 211 81 105 127 
200 556 361 115 129 156 
271 632 393 62 92 149 
217 800 389 159 165 179 
218 132 247 128 101 67 
218 133 247 130 102 68 
331 463 283 152 152 158 
219 133 246 130 103 69 
262 886 325 130 104 75 
229 672 127 123 130 143 
283 439 244 116 120 129 
219 889 367 148 111 84 
199 830 241 205 155 119 
189 659 120 64 86 106 
220 128 247 136 105 66 
215 1014 328 122 88 61 
309 713 281 120 133 149 
282 163 247 85 55 45 
259 686 166 64 86 108 
250 242 345 79 50 84 
246 855 358 150 117 81 
301 737 353 98 119 140 
186 700 147 72 94 113 
260 743 195 16 42 56 
306 666 241 56 61 93 
316 361 395 147 34 76 
209 470 360 83 107 143 
286 326 375 95 122 148 
343 207 329 84 81 82 
241 328 192 136 131 131 
311 682 407 60 87 121 
160 761 243 85 84 86 
194 287 288 104 127 151 
310 765 395 149 167 189 
325 577 323 83 137 178 
269 213 216 121 98 96 
227 140 344 110 90 68 
313 749 378 118 142 174 
280 212 182 136 73 74 
194 377 207 44 89 130 
293 668 211 115 90 84 
201 840 257 204 149 113 
231 749 176 165 146 127 
297 702 230 183 120 43 
182 586 231 78 122 157 
222 132 246 129 102 69 
170 805 314 140 121 105 
271 203 333 91 53 74 
204 702 112 71 102 149 
250 605 201 89 88 89 
188 613 315 154 155 164 
295 367 157 180 10 65 
289 442 212 94 110 130 
216 128 248 129 102 69 
328 573 299 187 183 189 
349 438 297 131 138 153 
356 300 342 97 123 147 
309 681 252 111 78 55 
300 518 219 118 135 157 
247 769 444 115 119 179 
187 613 316 155 158 169 
255 873 353 167 125 103 
222 722 211 83 90 100 
264 133 229 136 74 10 
282 482 195 80 100 141 
164 816 296 138 140 146 
291 525 386 94 110 154 
265 970 328 129 103 86 
301 745 294 160 75 73 
303 567 246 105 112 124 
308 676 300 80 106 129 
200 700 343 153 150 155 
202 812 375 142 22 40 
297 557 371 149 155 167 
197 357 273 148 47 85 
282 777 295 131 109 88 
247 885 300 167 131 99 
347 510 360 119 128 163 
292 258 152 97 14 50 
252 783 439 137 158 198 
183 723 321 102 124 147 
219 384 344 143 143 147 
279 771 289 148 117 79 
183 569 346 151 170 193 
275 370 356 151 129 107 
198 267 317 72 109 139 
270 190 183 82 79 87 
163 788 293 142 123 104 
308 454 266 66 89 111 
312 606 336 139 92 85 
218 139 245 132 103 66 
321 537 369 94 117 163 
264 738 474 122 141 193 
290 161 158 134 91 65 
263 308 167 173 146 119 
296 167 261 40 42 42 
346 352 304 122 123 130 
176 617 255 148 150 159 
176 1001 318 132 106 84 
236 736 167 137 140 156 
308 591 243 99 125 180 
219 686 121 119 134 156 
154 736 165 84 22 34 
198 723 230 81 91 103 
176 548 332 133 138 149 
333 365 289 71 97 124 
218 140 245 133 103 65 
334 310 295 108 124 143 
307 359 275 63 84 104 
159 786 283 141 124 110 
252 277 221 110 112 118 
195 334 279 124 89 117 
256 917 365 170 120 99 
201 659 265 87 101 125 
289 303 380 135 138 146 
291 255 175 121 77 79 
262 9 244 121 107 98 
243 771 404 64 60 96 
294 328 178 120 131 148 
220 780 200 115 81 55 
292 764 452 140 145 196 
221 137 245 128 101 69 
279 625 389 111 91 78 
259 628 176 104 95 87 
303 620 262 126 126 132 
305 645 403 141 100 76 
199 618 237 71 102 137 
279 706 417 23 37 115 
219 614 361 93 137 191 
218 656 345 80 105 130 
248 533 383 126 139 160 
201 703 240 63 53 59 
278 148 194 123 100 82 
341 221 310 102 62 69 
259 373 207 77 75 82 
191 333 259 151 104 46 
264 926 353 129 118 113 
205 560 363 149 155 167 
155 719 150 136 139 147 
205 736 184 107 117 131 
222 1002 335 111 84 59 
220 143 243 129 101 67 
277 166 189 127 83 54 
186 384 201 69 102 132 
236 130 268 82 69 56 
250 729 163 119 0 90 
255 393 356 121 89 67 
298 723 252 98 80 71 
308 459 185 97 126 197 
250 846 349 160 138 119 
334 298 294 152 149 151 
272 401 369 112 133 154 
195 446 274 57 86 133 
260 290 176 123 123 128 
201 275 231 57 89 116 
220 141 244 129 101 67 
208 273 340 112 50 73 
163 776 168 159 130 103 
158 779 226 126 112 102 
234 907 372 187 138 110 
303 676 455 135 102 63 
244 731 376 98 113 132 
339 321 385 134 140 152 
292 126 293 122 73 39 
172 669 104 53 86 118 
274 909 331 144 113 81 
196 821 200 223 157 120 
196 135 272 109 87 62 
205 956 368 121 98 82 
295 632 378 126 90 77 
223 159 228 108 82 58 
260 328 229 69 69 71 
185 599 282 190 174 165 
322 544 267 110 131 156 
280 418 238 65 87 110 
207 780 178 128 87 74 
200 521 362 108 120 149 
223 159 230 106 83 62 
254 532 386 179 176 181 
296 264 158 119 42 53 
192 725 169 91 98 109 
188 451 244 149 148 153 
183 260 266 98 43 40 
213 302 335 103 43 67 
174 731 249 103 78 81 
211 152 312 94 65 35 
201 83 322 95 76 54 
211 534 179 121 141 173 
218 531 173 127 154 202 
253 357 207 94 65 66 
160 715 154 96 115 133 
293 650 369 95 110 145 
197 875 269 182 133 97 
183 235 266 99 42 38 
266 31 340 145 109 96 
207 738 191 115 120 130 
268 325 168 154 136 166 
265 208 185 135 84 91 
224 858 329 133 88 63 
299 642 238 154 107 98 
237 935 278 68 56 45 
331 445 381 161 164 174 
217 930 261 72 56 39 
191 336 268 167 120 68 
229 304 208 133 133 139 
242 165 339 122 74 42 
283 130 316 97 61 27 
181 850 261 226 161 122 
222 155 235 108 89 68 
261 46 311 108 87 64 
197 653 151 123 137 155 
278 501 396 92 121 168 
292 597 225 81 112 154 
178 523 300 65 89 114 
174 571 283 35 61 144 
212 260 222 115 115 125 
223 1018 307 130 102 79 
303 631 344 167 108 101 
212 421 302 66 97 133 
257 606 203 78 77 78 
177 803 339 114 110 115 
194 878 327 148 111 79 
292 455 202 66 85 127 
334 326 293 155 116 69 
175 546 326 176 169 169 
239 846 319 145 91 70 
186 290 247 129 132 138 
328 579 297 172 171 179 
273 534 202 154 158 178 
249 847 392 203 156 88 
257 698 465 99 124 148 
222 152 238 115 94 70 
165 833 289 184 141 112 
269 690 439 93 104 147 
211 194 305 42 37 45 
319 481 204 112 136 173 
329 297 289 129 131 138 
342 387 383 173 78 5 
297 166 262 59 28 27 
267 385 357 156 130 101 
358 504 340 121 137 159 
275 693 480 104 85 64 
263 329 230 68 69 73 
198 90 326 101 78 58 
213 790 388 186 179 180 
253 466 377 122 124 131 
222 780 395 87 109 147 
215 325 331 163 161 167 
178 786 343 171 139 96 
204 174 320 54 50 83 
287 655 360 95 109 142 
211 334 216 82 94 108 
222 157 232 104 85 66 
278 200 341 78 75 87 
345 293 378 111 126 144 
310 690 249 186 128 32 
304 633 333 170 114 104 
189 984 282 108 81 45 
201 191 333 84 44 72 
222 157 234 105 86 67 
224 323 215 97 108 121 
222 158 233 104 85 66 
269 283 153 172 168 172 
187 843 344 191 162 133 
201 157 338 144 59 4 
289 413 260 81 95 111 
221 156 236 107 88 69 
182 646 268 134 156 195 
209 145 247 122 98 69 
251 827 410 185 202 225 
247 848 347 103 88 80 
293 134 262 110 63 17 
304 774 422 138 146 193 
243 756 434 100 122 152 
211 144 247 124 99 70 
290 595 224 118 144 174 
191 643 135 81 104 127 
183 463 190 165 170 184 
302 408 269 31 66 97 
205 656 157 50 102 145 
324 175 316 85 44 42 
211 147 246 127 101 69 
208 148 247 125 99 69 
348 237 322 138 66 6 
359 419 334 76 110 143 
326 534 271 122 133 152 
307 612 381 158 113 98 
209 151 245 120 97 69 
178 615 258 85 105 137 
208 151 246 121 98 70 
298 779 427 166 165 184 
209 151 246 120 97 70 
279 152 166 92 82 75 
185 198 267 110 117 124 
183 801 357 167 136 98 
203 100 335 132 104 80 
310 709 381 68 102 152 
294 272 175 83 110 131 
201 280 295 131 128 132 
243 522 185 108 123 154 
171 964 315 127 99 73 
195 695 331 85 113 139 
288 661 219 94 95 99 
312 723 358 161 169 183 
331 336 390 129 98 112 
207 412 315 85 109 135 
292 14 310 116 92 69 
212 145 247 124 99 68 
282 311 345 111 74 80 
227 1017 298 145 114 87 
198 537 201 60 90 125 
289 381 161 195 13 81 
329 427 283 26 63 112 
245 620 204 61 73 86 
207 682 355 129 131 138 
256 365 347 81 92 104 
184 875 320 170 130 99 
240 499 183 87 107 137 
215 561 182 102 123 160 
329 274 381 141 136 136 
247 141 284 94 81 71 
182 976 332 87 67 57 
168 539 259 111 120 142 
231 718 212 92 93 99 
241 88 333 113 92 70 
297 239 269 60 85 105 
231 857 305 152 106 78 
325 576 274 182 181 188 
274 187 206 142 84 72 
206 68 318 96 76 55 
255 388 183 153 65 111 
204 371 217 49 70 101 
181 921 308 63 51 43 
306 765 431 82 106 175 
247 984 359 97 81 67 
191 417 261 93 110 140 
307 646 416 140 101 72 
306 764 330 84 43 124 
221 991 286 91 68 45 
238 701 143 105 150 189 
279 149 354 97 90 83 
177 618 253 150 151 159 
281 694 482 118 90 68 
305 221 377 80 67 82 
229 653 183 98 119 154 
188 259 283 148 151 160 
282 681 415 81 105 159 
220 158 303 85 51 34 
249 322 168 140 151 169 
194 973 284 131 98 70 
208 144 249 123 98 69 
175 562 305 203 191 186 
253 276 223 96 102 112 
337 200 356 96 85 95 
289 743 259 171 154 142 
223 74 281 108 90 74 
185 525 348 107 125 149 
281 204 150 97 96 109 
313 680 265 178 120 69 
284 463 242 97 110 127 
306 763 325 191 112 108 
263 302 335 86 87 90 
207 802 380 170 9 46 
205 185 316 42 51 72 
302 448 182 115 118 178 
249 839 325 146 145 148 
269 410 214 54 69 84 
191 646 267 99 130 187 
318 256 379 88 110 131 
265 18 301 114 96 80 
284 701 405 61 92 162 
233 729 157 182 118 66 
221 819 246 202 148 117 
358 505 332 116 131 160 
200 263 233 106 94 89 
251 803 263 207 154 124 
211 159 243 113 93 72 
264 518 392 133 151 176 
358 422 315 108 129 152 
358 311 348 148 140 137 
317 589 334 69 136 182 
287 745 245 167 146 137 
359 451 313 104 123 146 
359 396 340 78 104 130 
209 158 245 116 94 70 
209 159 245 115 93 69 
328 514 372 145 159 182 
230 732 376 131 131 136 
285 753 260 194 163 131 
309 622 270 148 148 156 
229 577 184 85 120 155 
310 407 187 128 112 89 
248 435 197 122 107 95 
263 853 380 55 64 118 
258 262 194 101 113 128 
291 165 383 139 122 107 
272 129 220 135 75 10 
351 512 353 117 134 167 
262 885 327 132 104 76 
307 704 447 92 112 131 
273 755 228 218 202 193 
283 135 249 116 64 2 
253 985 305 86 62 48 
208 715 364 109 132 156 
300 167 375 132 55 4 
268 820 341 152 135 123 
300 128 320 116 103 92 
312 367 396 157 45 84 
354 303 333 73 104 136 
226 842 384 156 97 80 
285 431 179 145 121 105 
259 684 159 69 114 177 
311 688 268 164 117 45 
242 336 185 144 141 144 
242 714 199 77 88 102 
309 246 275 83 103 121 
221 1001 277 116 92 64 
214 456 362 59 83 120 
303 432 266 76 91 107 
194 707 245 73 66 65 
186 404 193 46 87 120 
312 550 263 60 89 128 
172 515 253 143 143 149 
310 731 359 70 101 160 
166 754 199 41 56 73 
311 704 313 141 153 170 
235 974 278 102 74 46 
285 820 366 124 95 83 
302 655 294 140 114 116 
240 160 340 125 57 6 
290 526 210 25 59 135 
249 593 381 176 178 187 
172 989 305 113 89 66 
203 219 342 41 41 45 
250 275 160 82 92 105 
291 632 210 147 110 91 
279 177 186 153 67 6 
278 595 216 105 122 143 
262 711 451 49 77 126 
271 176 187 118 84 67 
159 759 278 103 65 53 
214 158 242 107 89 71 
311 455 268 89 104 122 
332 396 388 179 86 4 
247 86 326 112 89 64 
210 399 200 51 74 97 
324 587 273 72 117 162 
297 646 386 31 36 73 
309 222 273 94 74 75 
204 795 187 181 134 96 
279 22 335 136 124 117 
255 187 334 65 30 34 
271 474 193 145 160 189 
206 316 297 114 115 122 
197 221 289 119 34 27 
261 964 308 97 79 66 
217 144 245 129 102 68 
245 695 190 128 131 143 
187 505 326 82 101 122 
216 147 244 125 99 68 
300 574 245 89 99 115 
234 464 183 130 135 145 
306 135 363 107 97 88 
210 377 318 149 145 149 
277 688 425 83 98 145 
165 762 232 56 75 92 
206 648 341 112 123 139 
354 269 336 118 125 137 
229 648 143 99 88 80 
216 150 243 122 98 70 
180 749 195 68 25 31 
201 460 327 128 133 144 
233 635 357 117 148 178 
304 706 257 98 56 52 
265 255 239 104 113 126 
256 300 194 79 102 124 
240 718 208 44 52 61 
243 685 144 44 52 99 
312 587 307 95 138 174 
318 549 367 152 163 182 
293 446 203 48 73 116 
191 920 348 162 119 91 
194 763 363 115 117 124 
189 479 218 104 119 140 
197 286 306 142 141 146 
265 807 303 73 65 67 
181 951 347 78 64 54 
240 317 179 123 101 89 
196 670 308 150 150 157 
298 302 160 139 141 149 
181 967 299 107 80 57 
344 387 296 63 96 127 
318 169 359 125 86 76 
347 524 295 115 128 147 
329 575 332 193 189 193 
259 321 211 114 112 114 
275 367 241 73 88 105 
260 241 192 123 49 83 
300 316 385 123 60 84 
199 469 349 58 88 129 
216 753 170 165 146 133 
319 738 412 168 170 182 
174 756 315 125 133 144 
324 547 270 124 135 156 
271 595 378 88 108 132 
220 573 184 87 108 144 
163 833 278 187 141 114 
311 529 219 95 114 204 
247 857 363 170 140 107 
244 300 166 165 153 149 
237 493 181 96 114 139 
188 368 209 74 107 136 
195 786 369 163 21 43 
276 220 249 84 58 82 
254 728 446 90 106 124 
306 754 346 62 92 152 
221 150 241 120 97 70 
314 738 385 87 123 165 
181 589 286 138 150 167 
277 299 339 108 117 130 
274 408 218 74 93 112 
297 696 227 179 103 27 
175 501 216 131 137 147 
275 401 223 85 100 116 
198 241 292 92 48 72 
207 238 348 37 52 76 
182 771 350 143 151 163 
261 309 203 98 13 53 
302 786 390 147 174 203 
221 823 391 63 51 111 
213 644 139 54 72 90 
178 866 294 187 139 114 
274 506 396 84 113 162 
192 953 362 91 74 61 
287 139 343 95 75 62 
179 953 288 123 94 73 
319 740 413 186 183 189 
241 88 268 92 75 57 
217 152 242 116 95 71 
289 307 147 185 182 187 
179 444 195 77 109 146 
174 853 277 206 154 123 
205 728 219 81 91 102 
313 412 275 55 85 109 
284 218 151 121 75 46 
271 137 312 95 57 19 
217 154 242 114 94 71 
230 807 241 205 151 118 
344 477 292 88 111 145 
343 360 383 178 153 129 
253 751 403 44 66 130 
327 477 379 95 114 162 
218 153 242 116 95 72 
197 408 271 66 92 131 
358 317 352 156 152 154 
308 718 301 94 136 170 
163 788 294 155 139 127 
173 740 298 121 140 161 
205 941 368 148 115 91 
256 980 308 92 75 65 
268 772 246 125 120 128 
232 887 367 147 109 87 
286 281 269 80 97 114 
327 413 282 58 85 116 
177 737 241 36 39 55 
217 156 240 108 89 70 
172 763 310 112 42 71 
219 474 174 85 115 144 
232 773 200 255 255 255 
208 692 240 55 82 103 
271 280 260 87 75 71 
260 687 453 101 128 155 
173 848 265 212 158 123 
287 681 194 100 111 125 
332 319 292 149 108 64 
347 438 372 172 168 172 
357 313 361 150 149 155 
330 256 374 87 118 144 
196 657 297 67 116 153 
196 769 368 123 139 162 
300 672 217 73 68 65 
215 171 193 64 55 47 
255 818 417 184 200 223 
258 282 197 133 135 143 
222 428 184 66 94 117 
327 278 287 122 127 135 
273 513 395 114 142 178 
316 469 269 73 92 112 
296 430 261 70 87 106 
268 259 253 125 126 133 
287 544 211 129 142 162 
290 637 373 41 34 50 
276 774 449 141 152 215 
275 593 215 77 99 123 
294 793 371 113 88 108 
174 703 98 84 120 214 
272 948 312 112 91 71 
199 827 230 209 153 118 
285 468 189 52 90 163 
262 348 227 99 103 110 
223 622 214 112 124 141 
237 837 395 131 125 152 
221 835 386 166 110 93 
196 742 139 157 117 48 
280 912 315 142 115 90 
173 674 135 100 121 150 
321 587 270 111 143 176 
200 191 327 90 44 69 
271 604 218 61 78 94 
173 936 306 78 61 54 
243 801 421 69 115 188 
244 817 271 206 149 125 
198 714 161 52 70 110 
308 770 398 106 132 182 
241 664 141 124 128 137 
260 620 370 120 125 139 
154 811 271 131 121 120 
214 174 196 91 82 76 
199 212 334 38 49 80 
292 785 430 200 198 205 
207 992 340 162 131 98 
302 689 337 165 162 167 
192 730 231 86 95 106 
305 129 307 120 75 32 
301 651 407 141 100 81 
189 181 275 107 98 90 
164 775 293 121 106 98 
172 549 296 133 140 154 
276 329 344 66 103 132 
212 338 311 166 121 63 
201 803 373 158 14 60 
221 167 194 61 49 38 
248 847 350 103 84 67 
234 647 147 99 88 77 
246 556 190 126 139 167 
312 475 192 196 198 213 
306 666 387 45 63 106 
284 518 203 152 161 178 
274 652 433 127 105 83 
325 213 288 82 42 39 
222 166 194 73 65 59 
176 522 290 98 110 125 
219 344 332 100 118 137 
223 166 194 74 66 60 
219 71 281 105 88 72 
277 181 212 140 68 77 
285 824 392 150 131 148 
182 720 113 168 188 222 
221 928 264 83 66 47 
214 793 209 177 135 98 
196 132 271 107 86 61 
201 642 131 113 128 147 
297 125 309 107 91 80 
210 373 333 152 150 156 
195 489 311 137 138 145 
345 493 365 102 109 152 
174 853 305 195 152 125 
266 735 192 140 109 125 
217 169 192 51 54 58 
196 290 290 114 129 147 
182 238 257 106 37 46 
183 736 336 133 145 162 
245 760 388 117 124 135 
306 373 164 167 136 97 
172 528 279 161 156 159 
216 171 195 56 55 56 
217 170 194 60 57 55 
279 270 142 91 131 164 
361 441 335 54 97 136 
300 528 244 137 140 147 
259 838 401 198 29 62 
274 16 232 127 94 69 
238 315 182 90 125 153 
202 97 262 147 114 83 
218 375 340 132 136 146 
201 850 266 184 135 101 
200 248 320 117 24 56 
215 316 218 101 110 122 
226 145 306 82 65 53 
305 648 306 159 109 98 
307 694 312 59 62 76 
179 608 265 120 118 132 
280 933 306 133 109 85 
246 984 359 96 80 66 
278 282 337 100 111 126 
269 447 188 169 137 139 
251 322 348 88 97 108 
174 677 96 85 81 78 
302 740 351 143 158 177 
248 743 449 163 161 166 
208 858 353 128 110 98 
212 120 278 79 64 47 
250 870 341 110 87 58 
251 661 360 87 109 144 
313 706 354 118 137 165 
314 253 380 129 119 117 
261 565 387 144 156 173 
315 587 319 75 134 181 
311 725 357 58 95 153 
239 648 148 104 88 73 
287 326 364 116 132 150 
291 142 260 66 47 54 
198 814 371 157 14 46 
285 661 211 68 79 91 
155 801 273 116 115 118 
314 636 276 178 176 182 
188 444 240 149 149 156 
287 381 387 142 37 69 
360 445 318 101 123 148 
335 230 300 141 136 138 
179 756 218 100 82 68 
220 168 195 68 56 45 
287 706 204 130 62 95 
274 362 252 87 95 107 
285 254 179 111 79 74 
219 768 181 127 98 75 
277 204 337 114 64 64 
210 349 219 76 110 140 
202 831 373 41 34 44 
247 965 369 197 144 121 
355 276 337 143 143 150 
251 634 167 104 92 81 
341 539 357 182 183 192 
186 1008 280 129 101 73 
201 694 149 52 55 79 
201 842 259 200 146 109 
202 585 213 81 116 147 
193 304 235 146 70 16 
280 13 300 108 88 68 
209 635 160 65 113 150 
207 475 360 77 103 141 
255 621 194 93 85 80 
215 385 340 153 150 153 
226 709 175 83 96 129 
197 581 218 106 122 140 
232 1001 295 133 105 79 
286 200 153 109 103 119 
189 313 237 78 77 83 
225 273 204 156 82 92 
263 171 145 122 80 44 
307 700 299 105 126 148 
159 792 198 193 177 169 
212 799 385 158 164 176 
198 148 260 104 85 65 
262 14 342 108 96 86 
281 243 262 69 97 120 
309 136 356 104 92 83 
337 482 287 157 155 160 
218 172 201 77 62 44 
337 539 286 130 146 168 
254 850 388 198 141 146 
219 628 152 45 72 113 
204 467 355 93 110 137 
293 748 287 129 104 75 
219 173 202 78 62 47 
287 284 348 135 136 144 
328 585 288 180 182 193 
196 105 277 117 87 70 
284 356 265 85 83 89 
269 795 292 161 153 149 
259 161 336 141 72 6 
257 693 459 115 136 162 
201 456 347 61 90 125 
213 416 348 65 93 122 
201 575 212 135 133 137 
220 170 200 78 63 48 
347 290 318 79 105 131 
304 227 378 61 55 71 
261 977 345 108 83 68 
170 757 141 214 165 111 
211 312 220 92 108 125 
280 361 384 140 87 107 
298 673 412 142 143 151 
249 838 322 175 148 123 
221 170 203 91 75 62 
308 608 362 159 115 102 
278 175 376 171 77 8 
191 344 261 164 127 85 
265 294 158 121 138 161 
230 652 184 98 116 153 
221 602 364 97 110 146 
169 662 104 94 121 146 
244 839 309 182 126 104 
201 306 226 100 102 106 
310 227 375 107 83 67 
281 761 265 191 169 151 
177 921 339 163 102 84 
308 593 243 96 124 174 
215 270 219 85 93 116 
280 666 411 120 135 155 
301 287 274 110 114 121 
188 288 270 83 124 156 
339 457 376 170 164 166 
168 548 267 173 165 163 
337 562 331 180 180 189 
272 405 371 169 68 7 
182 736 332 98 111 146 
278 406 246 80 92 108 
297 230 269 108 107 107 
236 867 346 92 65 46 
275 225 142 122 70 35 
270 941 328 133 103 74 
234 820 259 208 149 124 
268 649 204 47 41 39 
197 713 238 93 97 105 
186 507 321 97 112 129 
229 291 348 129 102 104 
251 703 161 104 97 99 
257 345 209 100 80 67 
160 808 219 157 114 76 
281 426 187 154 75 36 
262 139 307 95 62 35 
229 842 281 182 131 103 
156 813 240 167 123 90 
310 467 267 104 117 133 
284 210 257 14 34 66 
221 173 204 92 76 61 
220 1002 336 163 136 108 
207 407 318 75 108 137 
263 938 365 174 135 109 
206 580 206 103 119 140 
346 476 368 144 152 166 
309 493 265 133 134 141 
348 526 296 112 126 149 
177 759 212 66 31 43 
184 657 274 140 151 182 
298 717 344 107 123 143 
306 560 229 76 115 182 
198 446 277 93 115 142 
205 1005 276 150 112 77 
154 818 271 133 134 140 
329 544 366 150 161 178 
303 382 187 167 142 117 
309 688 243 117 100 84 
284 753 283 195 177 162 
336 197 335 112 71 50 
310 522 264 103 113 129 
309 684 244 141 112 78 
247 239 347 89 48 46 
169 554 282 169 169 176 
195 352 244 130 90 23 
304 722 295 82 102 127 
344 445 374 112 125 150 
226 158 294 84 66 60 
313 589 303 74 128 165 
293 790 355 155 66 61 
354 473 301 123 130 144 
253 67 316 100 81 61 
223 171 209 113 80 44 
210 416 308 104 117 136 
328 251 373 88 115 139 
248 658 359 71 103 147 
216 1018 293 124 86 41 
299 683 321 79 95 126 
311 410 188 151 132 112 
311 614 346 166 111 103 
200 662 154 63 81 127 
256 752 202 209 176 140 
201 182 337 79 41 38 
222 172 208 106 79 51 
160 671 114 125 134 149 
306 670 288 86 126 158 
186 452 187 159 166 179 
306 763 323 190 71 87 
175 947 293 105 85 69 
306 551 369 157 164 177 
211 350 220 73 109 139 
304 555 247 74 98 120 
288 569 373 63 90 139 
292 655 352 116 130 150 
234 661 187 110 124 167 
191 625 328 113 54 71 
225 399 353 69 95 121 
260 718 448 84 101 120 
245 894 368 177 133 108 
173 774 158 198 171 150 
307 158 270 86 50 46 
247 139 327 72 62 52 
306 718 296 97 118 140 
176 537 319 129 138 152 
223 173 212 121 77 32 
204 734 214 103 106 112 
237 934 277 71 59 48 
300 333 274 94 92 100 
360 358 360 141 96 48 
311 662 272 55 55 99 
162 779 173 161 146 136 
155 779 240 128 111 98 
299 651 391 42 39 42 
281 131 312 96 62 31 
195 245 291 94 86 99 
325 167 302 81 50 60 
154 820 265 173 132 102 
323 458 276 22 69 96 
200 580 215 99 118 139 
258 342 171 163 22 46 
205 594 359 81 130 174 
268 314 241 114 112 115 
263 842 355 171 150 132 
171 675 133 94 117 147 
264 721 171 178 45 113 
307 735 466 115 141 185 
344 207 327 84 76 71 
329 420 387 151 134 116 
360 361 348 131 114 95 
223 169 220 125 79 25 
203 183 286 107 53 28 
351 462 366 114 130 155 
344 227 361 111 67 79 
252 824 304 190 132 109 
249 793 248 199 147 113 
214 381 208 68 87 104 
193 530 204 62 86 123 
266 296 334 105 104 107 
268 731 477 112 143 192 
186 425 187 73 105 141 
305 215 376 94 70 80 
223 171 221 126 80 19 
200 208 325 100 52 44 
294 195 264 92 44 50 
263 627 364 92 67 71 
290 706 215 164 77 28 
307 677 356 65 110 148 
280 210 150 102 50 58 
263 739 194 165 132 88 
193 250 288 137 127 129 
279 423 206 56 65 89 
293 753 460 151 152 203 
230 633 162 55 84 107 
281 541 208 126 136 158 
299 663 309 76 75 79 
265 832 348 153 132 113 
269 715 484 87 118 180 
185 601 311 117 141 167 
185 370 210 72 101 131 
174 939 299 83 65 52 
284 175 178 153 64 2 
297 799 389 147 167 190 
267 715 439 131 131 137 
306 472 207 65 92 138 
305 647 313 161 116 101 
264 454 391 105 120 147 
244 724 373 104 116 132 
235 295 177 83 133 172 
349 298 322 101 123 145 
307 237 273 69 96 119 
194 603 234 116 128 146 
289 792 428 81 107 181 
275 380 361 172 150 129 
227 930 269 56 44 39 
188 374 207 61 97 129 
292 802 410 163 171 188 
289 806 413 183 185 195 
207 581 202 99 122 146 
289 298 365 149 149 155 
289 228 373 62 95 121 
283 727 219 117 113 120 
223 174 220 130 81 1 
223 175 220 125 82 14 
351 278 326 110 127 147 
258 231 204 111 42 75 
206 724 364 120 135 154 
180 529 334 131 137 149 
284 328 268 111 84 50 
247 137 320 84 74 65 
213 777 181 167 134 107 
185 707 262 65 97 124 
213 176 195 101 91 84 
178 667 137 43 82 131 
318 501 212 170 177 193 
213 178 192 140 124 110 
213 178 193 131 118 105 
201 456 329 84 104 133 
209 984 353 91 76 65 
236 502 181 173 170 176 
184 270 272 93 118 149 
253 605 378 92 139 176 
224 662 127 87 79 72 
294 415 193 75 79 107 
289 737 472 69 105 172 
226 291 348 130 48 70 
233 565 186 123 135 154 
245 140 336 72 62 53 
173 559 293 143 144 157 
272 805 427 149 159 201 
288 648 224 156 108 97 
350 368 309 101 115 133 
210 442 352 78 101 136 
318 457 385 101 123 162 
246 852 384 75 42 81 
188 858 268 210 154 116 
292 355 268 102 70 77 
215 176 199 117 105 95 
215 177 198 122 110 98 
200 747 153 116 117 124 
302 668 451 130 100 65 
214 178 197 112 100 90 
233 665 354 26 58 116 
277 127 269 123 76 32 
240 765 427 82 103 151 
207 706 359 54 69 97 
285 167 250 63 58 69 
272 244 177 89 39 57 
226 586 185 90 118 145 
266 187 144 65 57 73 
189 456 251 78 101 135 
187 564 217 111 100 108 
260 233 170 83 45 59 
341 508 366 114 135 163 
177 679 93 103 119 137 
186 505 332 148 146 149 
312 581 357 92 101 126 
285 355 155 215 176 131 
221 1019 299 149 116 85 
211 807 219 192 149 112 
211 447 357 86 106 133 
193 304 281 98 127 156 
250 757 402 64 41 100 
215 182 194 119 105 94 
289 264 177 103 55 73 
255 342 196 86 68 71 
173 737 315 129 140 155 
206 681 354 134 135 143 
213 925 261 66 51 39 
203 419 187 67 97 128 
301 385 191 153 102 39 
303 744 299 120 62 69 
185 705 101 145 161 194 
195 371 223 82 102 146 
324 170 347 55 70 85 
285 501 396 152 161 176 
193 982 346 91 73 60 
198 317 289 150 93 49 
269 133 251 138 85 45 
224 165 288 77 75 77 
211 391 337 96 111 135 
174 556 311 157 161 172 
272 752 222 146 111 61 
256 299 205 69 99 124 
241 736 168 122 123 138 
225 776 195 156 152 154 
246 133 320 91 82 74 
215 177 201 100 91 84 
274 448 189 140 126 116 
245 525 381 176 171 175 
302 206 382 112 97 117 
301 649 403 139 99 80 
330 286 290 109 120 135 
295 763 359 87 109 129 
210 347 295 142 41 87 
284 344 369 103 126 151 
300 387 164 221 185 143 
311 397 184 166 85 23 
216 183 198 132 117 99 
263 521 196 126 140 170 
318 580 347 162 162 170 
270 578 384 60 106 143 
337 315 385 144 139 139 
211 193 305 42 40 49 
244 837 308 188 133 113 
307 670 341 81 106 152 
226 677 233 102 105 113 
293 768 359 81 108 132 
305 360 171 143 39 59 
302 183 368 90 71 69 
214 700 117 115 142 190 
216 179 200 108 97 89 
216 179 201 105 94 85 
207 702 358 69 78 91 
212 197 351 111 47 42 
311 695 310 145 157 175 
251 305 346 96 105 118 
200 642 130 96 118 143 
300 304 152 149 148 153 
299 639 233 137 106 86 
263 740 472 101 121 193 
308 660 433 139 102 70 
217 179 205 114 102 91 
261 137 292 96 67 44 
181 708 277 93 118 142 
180 897 293 103 80 59 
254 708 162 107 58 46 
158 681 106 114 126 147 
311 760 381 155 169 189 
277 766 253 169 163 166 
256 422 364 109 96 82 
277 672 419 76 96 137 
169 540 264 139 140 147 
285 753 286 85 91 98 
227 772 393 136 134 138 
304 394 168 206 172 137 
304 567 366 108 124 158 
219 178 207 94 85 77 
234 780 400 31 56 105 
232 679 131 37 87 131 
333 557 284 163 162 169 
178 482 209 141 145 155 
226 1004 285 149 118 88 
218 874 345 89 67 48 
271 646 412 76 104 143 
307 683 361 98 119 150 
284 798 426 127 139 198 
192 468 276 52 84 134 
217 181 202 118 103 91 
291 737 250 105 101 102 
198 604 229 145 139 141 
300 202 382 96 94 116 
354 404 305 108 124 146 
300 604 381 101 92 85 
308 292 277 129 107 85 
318 163 345 77 72 70 
198 202 287 72 32 29 
248 419 363 111 97 82 
229 716 371 100 110 127 
280 186 245 87 52 39 
233 87 339 110 90 70 
249 479 380 102 123 149 
298 127 323 99 83 72 
227 741 165 149 150 170 
337 242 306 90 109 129 
285 692 479 117 90 66 
260 291 179 127 128 136 
192 822 201 229 157 118 
215 200 352 72 55 77 
359 496 331 91 112 146 
219 180 207 96 87 80 
270 684 372 106 115 156 
242 997 322 90 68 55 
198 365 220 66 99 134 
213 522 369 172 169 175 
286 234 175 90 77 92 
185 552 216 143 141 146 
218 182 206 97 88 80 
219 717 174 117 119 127 
245 729 375 110 119 133 
201 425 184 97 120 146 
212 412 305 75 101 133 
176 833 327 177 159 146 
264 443 381 149 132 112 
269 328 243 100 106 116 
181 483 236 118 127 140 
181 952 286 133 102 73 
236 792 415 111 127 172 
339 225 306 127 118 113 
209 199 307 83 38 46 
324 561 272 138 147 163 
267 336 172 194 153 97 
311 562 233 117 137 170 
216 185 192 166 80 1 
216 185 193 163 80 0 
290 465 398 101 115 148 
224 352 344 143 145 155 
319 423 278 44 77 105 
254 851 386 158 119 137 
176 539 320 99 122 147 
283 397 256 86 100 116 
300 670 324 137 149 168 
174 797 180 172 155 141 
203 747 368 66 95 146 
176 577 280 149 159 176 
310 602 341 122 91 81 
263 700 168 139 58 58 
191 345 225 112 128 147 
318 499 217 161 167 179 
253 370 349 79 93 108 
276 200 147 93 98 111 
299 619 237 77 69 64 
227 188 350 87 42 45 
251 76 316 92 74 54 
218 1014 291 145 113 85 
247 368 188 117 117 122 
273 191 204 133 83 73 
212 629 225 59 93 134 
174 803 326 139 127 122 
218 593 201 128 133 143 
242 903 293 124 91 62 
195 159 274 110 89 65 
271 951 323 70 55 40 
296 678 463 127 99 68 
179 964 299 99 72 53 
340 366 293 92 110 131 
237 634 366 110 119 135 
288 220 264 98 2 34 
263 973 333 135 106 85 
261 283 158 159 156 160 
212 514 369 166 164 170 
200 997 277 128 94 49 
171 778 314 100 106 115 
269 931 321 103 76 60 
242 353 349 126 126 132 
231 639 213 104 102 111 
211 763 171 188 161 136 
270 761 233 178 169 165 
310 755 335 92 148 188 
294 725 276 202 44 67 
301 387 193 159 70 10 
173 790 171 214 197 184 
176 562 310 198 192 193 
210 630 159 52 96 125 
328 565 311 190 185 190 
281 701 417 47 84 157 
193 582 346 190 186 191 
268 416 376 171 74 4 
179 713 285 111 134 158 
175 519 275 151 147 148 
212 366 307 161 120 66 
157 761 271 76 105 135 
235 842 285 166 115 88 
239 707 189 97 107 124 
257 671 156 136 143 156 
328 183 357 116 90 85 
344 214 349 72 99 122 
311 605 343 145 100 91 
327 572 321 163 155 164 
272 732 204 91 50 86 
358 365 342 109 50 71 
321 183 285 64 54 65 
308 767 424 208 204 210 
326 495 274 115 127 143 
227 262 185 110 83 98 
321 162 289 89 49 55 
253 901 374 133 106 84 
219 799 392 115 144 172 
217 185 200 124 77 27 
251 564 383 177 175 179 
312 687 281 56 53 54 
271 659 189 74 83 95 
245 763 390 78 98 128 
305 419 399 184 82 4 
217 186 200 147 62 3 
306 146 338 108 57 5 
308 688 450 147 105 73 
349 250 361 147 144 147 
247 962 371 199 149 125 
243 300 166 136 102 89 
349 310 317 129 131 139 
361 479 327 89 112 150 
332 464 379 145 153 169 
248 871 335 116 90 57 
179 499 204 181 178 184 
286 299 348 111 126 145 
242 80 269 103 86 70 
253 976 354 119 89 78 
360 475 314 139 148 164 
237 841 286 159 109 82 
183 213 265 34 40 75 
223 841 274 201 144 116 
302 410 269 74 92 111 
258 752 207 188 148 119 
267 664 427 95 124 153 
313 619 272 98 123 153 
218 186 204 142 85 18 
251 798 255 207 155 122 
315 315 389 168 155 147 
292 277 271 120 118 121 
262 902 315 120 94 67 
213 233 352 89 42 69 
252 252 346 114 31 64 
278 670 187 43 62 80 
334 295 294 125 130 141 
220 676 163 72 107 146 
154 778 266 137 122 109 
243 93 313 82 67 51 
206 784 180 92 100 116 
226 385 351 80 75 95 
307 628 329 158 114 104 
322 581 326 101 144 180 
273 590 214 114 117 126 
204 751 161 118 89 74 
355 274 345 154 150 153 
311 692 363 142 153 171 
232 698 227 97 99 105 
183 254 270 46 52 72 
218 190 203 155 70 2 
259 424 187 170 77 1 
332 460 284 124 130 143 
277 465 192 49 104 153 
219 191 203 153 72 3 
168 757 205 64 64 68 
204 669 112 103 88 72 
222 551 372 153 161 174 
305 455 395 72 102 160 
261 399 181 102 139 183 
274 30 324 146 122 117 
324 268 380 83 115 143 
218 189 207 150 71 0 
218 190 204 154 64 4 
208 778 384 119 124 149 
238 682 134 96 120 143 
192 323 235 65 65 77 
300 363 184 168 146 124 
181 891 312 134 101 70 
338 196 322 78 59 63 
183 482 259 149 146 150 
287 313 270 71 89 106 
189 984 334 103 79 60 
219 191 206 153 68 1 
200 606 227 144 139 141 
268 343 174 187 150 105 
299 629 229 163 117 105 
219 181 208 110 98 87 
220 742 163 152 124 128 
164 663 119 129 134 144 
309 396 273 80 97 115 
245 713 207 51 50 51 
286 223 360 137 68 74 
214 657 242 125 126 133 
180 654 282 148 148 155 
300 304 274 100 22 32 
285 236 149 102 103 108 
236 996 299 105 86 66 
291 165 155 136 66 10 
220 178 209 117 103 92 
340 244 370 89 115 137 
199 90 281 86 67 50 
266 612 213 87 88 90 
271 808 319 147 122 96 
305 691 287 84 83 92 
244 568 191 106 125 158 
300 631 238 102 114 143 
258 276 175 107 103 102 
327 280 383 143 140 142 
154 753 169 49 47 64 
156 775 238 101 94 90 
289 460 217 96 116 137 
314 689 411 107 129 153 
258 808 424 86 114 196 
222 176 212 99 82 67 
222 177 212 95 83 74 
201 675 257 79 96 118 
295 682 203 106 94 87 
217 595 362 109 124 154 
348 365 305 74 94 119 
238 487 182 150 149 156 
223 177 214 112 101 89 
298 292 273 99 99 104 
265 725 430 110 116 125 
201 931 363 136 108 85 
225 598 367 175 179 188 
185 222 276 85 36 71 
204 688 108 122 132 145 
225 729 154 181 65 67 
246 426 365 69 81 100 
259 921 302 134 97 71 
236 762 193 189 167 156 
275 350 258 124 94 59 
181 704 295 63 103 132 
343 208 315 103 48 44 
188 296 269 78 125 161 
265 693 446 126 135 156 
233 842 389 215 172 114 
265 905 317 135 102 73 
182 870 288 191 145 116 
285 397 198 98 107 124 
216 989 352 85 70 62 
276 537 204 109 127 152 
279 714 399 28 57 139 
233 922 373 134 98 87 
307 628 295 109 86 75 
203 851 357 190 159 131 
182 516 324 77 100 124 
191 833 237 229 173 135 
243 636 160 101 91 82 
221 182 211 93 86 81 
320 713 410 115 134 166 
221 181 212 101 91 83 
221 181 213 109 98 87 
283 773 294 131 103 70 
302 497 259 138 135 139 
209 561 194 100 126 153 
299 518 220 137 149 164 
196 103 270 132 104 72 
279 441 398 132 114 109 
281 160 381 91 80 72 
311 618 305 168 122 113 
344 234 315 111 110 113 
259 245 221 85 100 117 
288 745 255 172 150 133 
257 746 412 78 97 118 
171 946 299 111 92 75 
314 158 342 69 65 63 
286 473 224 71 89 109 
298 772 317 165 147 137 
258 656 375 105 126 176 
309 590 346 102 122 149 
166 943 325 84 70 60 
181 916 306 69 56 47 
181 806 354 53 39 76 
293 22 306 140 106 77 
223 177 216 94 82 75 
252 388 187 145 29 40 
291 690 199 153 177 206 
343 302 308 151 148 150 
238 753 184 185 166 150 
210 330 300 119 45 62 
205 158 281 95 75 53 
223 178 217 91 82 76 
196 271 235 73 101 127 
332 290 291 115 125 139 
219 350 341 91 110 130 
284 829 374 140 66 69 
322 511 270 118 129 145 
197 208 287 125 35 30 
154 795 270 156 120 78 
278 137 193 140 78 9 
359 495 328 106 129 160 
315 327 281 121 54 70 
321 179 286 38 49 71 
233 792 405 74 99 150 
214 847 371 172 135 109 
305 546 260 54 82 126 
222 177 221 99 83 71 
223 176 220 110 80 47 
178 569 313 211 196 190 
282 775 294 152 139 131 
222 177 222 97 78 62 
183 214 256 43 67 104 
264 254 170 104 57 71 
185 844 252 234 170 126 
232 310 205 145 144 148 
297 126 282 108 62 15 
223 179 220 104 94 87 
174 515 270 74 100 128 
276 274 143 87 134 172 
243 640 371 64 69 141 
187 711 317 139 142 151 
288 816 397 170 187 209 
219 98 278 95 76 55 
200 477 354 93 112 136 
302 510 255 100 111 127 
281 704 180 163 144 147 
338 477 288 76 101 141 
171 760 145 118 114 115 
195 69 345 147 109 83 
187 956 281 91 64 35 
270 480 397 117 144 175 
351 351 318 144 146 154 
293 148 261 83 51 53 
193 313 283 122 129 141 
254 241 344 35 54 105 
219 69 344 144 114 98 
166 820 302 138 127 122 
269 929 341 153 121 91 
320 170 334 47 61 77 
346 290 376 131 119 113 
222 183 219 96 86 83 
249 402 359 111 99 89 
295 660 450 118 95 70 
236 578 191 97 112 129 
252 668 360 87 109 137 
203 768 167 172 138 99 
186 947 276 72 56 39 
269 657 380 55 81 128 
278 360 187 118 115 115 
223 708 224 85 91 101 
357 375 367 144 127 111 
262 934 364 90 72 56 
251 412 193 172 147 120 
333 257 296 97 90 91 
321 259 378 81 114 142 
198 333 284 139 59 92 
272 578 211 89 111 142 
271 132 206 139 84 27 
306 684 262 132 98 41 
284 435 398 150 137 127 
355 346 335 149 148 154 
261 28 232 170 150 144 
299 422 266 97 103 113 
353 264 335 107 108 111 
193 319 235 99 95 92 
319 459 196 171 171 180 
283 702 408 77 82 144 
352 495 300 102 121 149 
191 578 351 195 195 205 
352 243 342 109 120 133 
209 637 160 70 119 156 
160 701 137 94 108 125 
191 483 190 117 127 154 
