ply
format ascii 1.0
comment Created by CloudCompare v2.11.1 (Anoia)
comment Created 2/28/22 9:40 PM
obj_info Generated by CloudCompare!
element vertex 2010
property float x
property float y
property float z
property uchar red
property uchar green
property uchar blue
end_header
247 785 420 159 172 192 
272 851 361 158 125 102 
310 764 426 123 139 195 
246 812 407 189 199 218 
255 602 201 99 99 102 
207 490 350 52 80 132 
279 476 379 144 153 169 
355 204 352 108 105 107 
221 150 170 119 73 44 
258 209 224 54 78 99 
157 783 179 209 158 83 
228 292 204 83 120 150 
177 246 259 105 47 40 
194 654 155 32 91 138 
316 741 356 91 43 107 
304 651 301 177 130 122 
223 149 171 112 71 49 
274 946 328 138 109 85 
181 368 221 93 110 144 
252 265 180 90 87 96 
201 500 344 93 112 132 
249 883 359 155 77 81 
262 778 437 159 158 200 
143 725 152 128 82 80 
363 491 287 182 178 182 
239 414 348 58 92 132 
287 241 322 30 59 86 
304 650 293 153 101 93 
302 222 354 44 81 112 
288 440 168 157 137 118 
227 737 374 105 114 127 
199 985 273 119 92 56 
228 694 143 127 146 177 
258 334 213 104 101 102 
215 859 279 157 119 90 
260 717 179 122 52 60 
287 288 325 104 106 111 
293 787 338 118 93 96 
272 958 331 143 110 86 
373 396 337 73 104 136 
324 562 351 179 180 188 
219 155 167 132 87 55 
244 297 165 150 145 147 
237 682 215 87 67 61 
296 177 262 41 51 74 
196 952 271 88 69 47 
212 724 163 94 84 125 
191 734 346 168 164 166 
178 712 256 96 109 124 
175 548 300 102 111 123 
360 314 321 75 108 135 
263 203 212 96 90 104 
264 804 291 116 123 132 
279 397 187 178 131 69 
242 448 193 40 65 93 
249 48 338 128 101 83 
238 1009 315 139 101 70 
288 472 175 97 124 188 
170 718 113 184 199 222 
251 954 368 194 140 118 
222 101 278 102 79 61 
214 842 269 204 147 115 
301 359 387 176 151 122 
179 1008 301 149 125 116 
242 408 347 94 114 140 
285 794 324 186 162 157 
259 237 196 111 60 72 
243 990 289 80 61 49 
187 821 353 191 150 101 
293 245 136 113 98 88 
198 699 155 113 117 127 
187 498 282 115 125 140 
246 472 366 138 144 156 
198 981 339 96 79 67 
285 200 252 63 48 64 
153 809 229 174 126 95 
220 153 163 137 80 38 
269 772 251 144 144 152 
184 767 350 141 152 169 
272 513 377 73 101 151 
183 881 310 170 126 94 
189 537 343 179 173 173 
308 706 464 170 119 93 
209 152 337 117 79 44 
356 351 379 187 160 131 
272 941 345 174 131 102 
330 569 282 139 164 192 
251 988 299 101 83 67 
273 332 327 68 98 122 
320 180 283 45 56 73 
213 424 305 83 108 137 
368 456 333 84 105 153 
187 370 253 128 135 149 
221 156 160 118 91 65 
187 827 210 238 158 120 
199 639 301 136 126 127 
364 305 331 63 98 128 
294 658 232 53 45 48 
266 219 147 46 37 53 
238 938 267 65 54 47 
217 105 311 103 82 61 
249 53 335 124 100 80 
356 423 287 154 149 149 
298 435 173 85 98 126 
317 478 383 84 114 155 
189 638 267 103 121 148 
369 387 321 76 100 124 
272 306 142 129 141 159 
220 159 163 101 95 91 
304 319 264 106 31 51 
219 155 168 128 82 45 
271 923 323 167 125 94 
213 337 208 76 98 124 
283 806 417 146 160 198 
345 515 350 112 125 171 
300 211 340 121 62 78 
288 382 359 184 158 132 
271 768 247 140 117 103 
372 425 323 92 115 150 
325 569 334 147 163 184 
239 985 279 150 121 93 
234 353 335 105 128 155 
295 626 405 106 90 76 
266 745 213 192 155 114 
313 333 380 170 148 126 
186 675 103 37 101 171 
297 185 370 140 53 83 
218 159 169 117 109 106 
284 405 177 184 134 72 
216 846 273 169 120 90 
170 500 201 155 163 181 
210 180 336 77 33 30 
179 820 339 181 159 141 
313 486 192 134 151 172 
283 359 155 208 177 144 
220 259 209 115 118 128 
195 386 273 61 87 128 
170 839 250 218 161 130 
215 568 178 133 145 181 
349 205 361 118 112 111 
212 247 333 125 23 65 
259 793 426 135 158 205 
318 235 286 77 51 56 
236 28 306 101 90 83 
172 851 279 198 147 115 
231 256 344 101 105 127 
149 699 141 87 103 121 
259 412 348 96 89 85 
274 130 285 97 66 28 
279 455 208 64 74 86 
198 257 229 140 94 58 
291 351 257 103 71 77 
237 824 271 204 144 121 
180 926 322 101 82 66 
196 456 280 56 88 134 
258 969 353 171 125 107 
260 734 198 66 50 60 
189 855 331 179 147 121 
181 206 263 80 55 78 
225 658 345 78 101 122 
205 939 360 125 102 82 
271 137 204 150 77 8 
276 292 135 159 147 145 
355 521 324 206 209 220 
359 291 325 118 128 142 
265 791 279 137 121 108 
289 423 389 172 71 8 
146 730 166 95 21 31 
340 254 308 81 104 126 
256 420 351 36 75 104 
289 354 378 127 108 116 
230 499 178 83 104 136 
238 982 356 104 89 78 
177 842 251 232 164 120 
302 550 249 73 101 125 
271 137 308 92 61 22 
301 800 366 179 38 63 
190 649 124 85 96 108 
183 618 257 110 126 146 
186 329 240 156 159 170 
311 494 255 122 124 131 
176 626 264 106 128 151 
227 305 207 135 136 142 
214 461 350 120 134 152 
312 494 182 126 147 210 
222 154 173 108 70 47 
198 719 225 74 85 98 
284 151 252 109 37 32 
180 236 275 99 43 47 
159 721 115 194 222 243 
328 288 290 129 127 129 
245 531 370 104 117 165 
234 75 274 104 86 67 
282 386 184 137 127 124 
277 676 186 92 108 124 
278 905 303 153 125 94 
270 853 368 151 144 140 
346 539 298 147 161 187 
178 673 289 76 104 137 
191 664 297 64 106 139 
358 244 328 149 77 8 
336 313 385 120 133 150 
146 802 255 124 123 127 
281 706 209 174 76 31 
182 507 281 82 106 129 
189 361 231 152 157 169 
208 50 336 98 90 84 
218 164 287 80 71 70 
274 209 319 70 22 19 
266 227 145 45 48 75 
210 319 213 135 131 132 
218 111 336 119 97 75 
199 777 176 155 108 98 
238 204 343 53 44 63 
246 734 188 128 114 103 
220 832 261 209 154 125 
270 929 320 157 120 89 
185 237 284 99 42 77 
313 762 424 168 179 205 
158 807 213 166 117 88 
287 399 185 101 112 136 
250 902 295 107 84 55 
204 642 244 145 143 147 
310 255 280 124 121 123 
218 355 298 143 61 77 
220 348 205 116 105 97 
189 383 239 53 88 136 
217 340 295 140 73 100 
179 269 268 126 132 147 
221 156 176 95 68 50 
253 36 296 101 79 61 
215 458 353 58 82 125 
181 475 224 132 133 141 
145 686 109 75 105 162 
296 520 209 102 115 148 
163 785 171 154 129 107 
274 433 360 111 93 70 
170 567 235 129 134 145 
197 632 251 74 88 130 
293 231 146 89 86 87 
268 303 147 134 153 177 
282 798 322 97 86 84 
210 581 186 83 104 126 
223 902 366 168 125 103 
205 721 216 88 96 108 
164 733 260 114 35 38 
279 390 347 110 113 119 
282 428 186 160 66 7 
291 450 189 70 92 133 
274 283 134 89 132 166 
276 700 437 124 130 143 
217 196 342 109 36 47 
207 640 137 78 91 104 
245 131 320 75 64 52 
171 844 295 194 150 124 
232 798 396 74 129 170 
202 460 170 152 152 159 
172 661 111 65 83 101 
192 400 269 88 113 140 
145 683 126 68 93 120 
236 204 343 84 51 67 
221 158 183 86 73 65 
196 789 365 158 20 42 
368 314 356 161 157 161 
337 159 301 52 57 64 
211 779 197 113 82 58 
315 750 439 115 131 193 
323 215 369 94 83 92 
258 265 236 109 107 109 
308 388 391 144 63 72 
171 848 287 196 148 121 
366 457 297 103 120 148 
320 472 178 131 148 178 
302 660 324 118 122 132 
302 253 364 139 70 83 
223 155 186 90 72 60 
178 274 265 158 156 161 
220 159 185 84 73 67 
190 336 274 150 85 71 
198 614 329 146 147 156 
315 708 355 38 85 156 
223 139 341 109 90 70 
311 743 345 145 160 180 
220 159 187 85 73 65 
295 282 263 113 112 116 
205 714 223 73 85 99 
210 1018 282 125 95 69 
183 591 283 168 162 163 
261 978 344 81 66 54 
247 45 301 78 65 52 
283 408 190 124 117 115 
201 627 235 104 126 151 
341 163 324 52 69 84 
289 385 174 123 115 118 
304 636 320 113 72 68 
321 201 366 133 82 76 
310 697 303 147 156 170 
275 766 268 186 162 141 
220 159 189 87 74 65 
181 570 224 69 109 142 
235 294 185 95 133 165 
224 273 207 148 62 84 
190 894 273 109 89 70 
311 366 157 173 148 123 
341 550 318 111 146 179 
178 927 335 151 92 73 
290 531 202 188 188 205 
289 685 464 117 94 70 
222 157 188 89 74 63 
168 941 322 118 97 79 
282 713 216 186 63 17 
272 955 337 176 134 104 
319 691 438 151 108 72 
213 483 358 78 104 144 
167 583 252 147 155 169 
222 157 191 94 77 65 
284 290 151 114 119 128 
186 237 285 105 34 69 
169 637 275 125 143 164 
188 382 236 67 95 143 
208 166 284 76 62 47 
271 247 149 109 32 46 
186 299 273 144 122 124 
185 725 234 83 90 100 
176 938 299 79 62 50 
215 583 182 86 111 137 
252 396 181 190 160 130 
362 502 322 157 159 169 
344 174 348 88 87 91 
243 100 308 81 67 52 
221 160 159 125 111 98 
257 31 238 127 103 103 
205 166 321 122 43 32 
158 801 205 174 133 83 
314 329 270 94 64 73 
225 415 345 41 76 113 
261 730 439 76 91 117 
182 957 340 88 73 63 
258 651 187 64 65 70 
257 772 235 205 152 111 
213 145 282 78 67 56 
251 788 246 201 147 114 
241 865 287 147 115 82 
263 130 191 134 89 48 
256 57 320 109 84 60 
304 577 221 129 155 203 
334 157 354 88 60 58 
365 484 304 130 140 160 
232 811 250 200 146 113 
193 151 262 106 86 64 
139 699 130 72 101 140 
226 112 339 129 101 74 
194 327 282 133 69 97 
181 359 223 142 148 159 
320 579 287 181 177 182 
185 588 307 120 139 162 
278 392 227 73 93 113 
185 978 320 92 75 61 
364 500 312 158 157 164 
276 158 242 81 47 42 
219 420 338 63 98 134 
202 339 219 88 65 68 
319 206 284 58 56 68 
318 739 364 120 142 164 
169 729 273 121 53 67 
194 620 296 154 153 159 
239 398 345 87 105 133 
232 751 191 191 154 107 
238 703 153 136 97 102 
286 185 250 82 44 32 
290 517 195 73 119 203 
355 353 380 182 154 122 
279 314 139 88 125 163 
234 997 333 102 76 49 
243 182 337 88 49 52 
252 962 274 142 115 86 
310 758 327 172 79 74 
258 368 191 96 53 58 
213 305 215 141 136 136 
226 662 133 145 144 149 
288 154 256 109 35 27 
265 180 165 123 58 0 
283 374 344 161 139 118 
197 125 264 96 79 60 
317 298 278 91 105 119 
282 480 221 82 99 119 
204 509 353 105 125 155 
229 623 351 106 140 179 
223 170 157 146 69 4 
173 415 204 65 95 140 
351 237 320 157 129 95 
308 650 270 107 103 117 
336 502 358 176 173 179 
207 177 331 81 38 30 
232 389 196 152 129 106 
265 966 306 89 74 63 
309 626 300 73 63 61 
346 222 367 140 98 85 
279 250 320 81 52 59 
222 172 159 145 69 5 
222 173 159 145 69 5 
184 514 296 76 101 125 
223 173 158 145 69 4 
224 960 367 187 148 127 
341 531 266 112 128 156 
247 910 286 120 86 50 
222 175 158 141 72 3 
311 630 275 111 128 150 
267 969 320 129 106 87 
258 400 179 91 127 169 
181 452 244 146 147 155 
226 202 345 81 48 61 
212 442 329 159 155 157 
214 380 209 99 103 111 
295 632 224 197 150 143 
301 643 285 188 179 179 
307 533 371 105 122 151 
240 840 303 162 107 90 
292 712 237 155 135 115 
324 527 357 164 170 181 
280 341 332 109 119 133 
244 132 304 94 79 65 
291 343 143 161 38 66 
295 322 378 127 136 150 
208 182 333 83 35 33 
297 748 281 119 98 104 
289 461 203 89 111 133 
362 396 364 129 112 98 
364 263 339 120 129 143 
197 140 261 103 84 62 
157 811 284 79 107 131 
187 886 318 159 121 92 
230 790 393 93 103 131 
316 454 259 85 99 116 
227 896 279 104 81 56 
282 350 148 192 164 137 
267 792 427 81 106 193 
215 164 173 105 94 85 
193 167 277 101 82 62 
372 433 327 103 118 154 
283 625 374 81 79 81 
305 664 330 91 106 124 
255 567 193 77 101 139 
225 305 326 159 156 159 
351 412 284 111 121 136 
270 306 250 114 114 119 
208 214 304 130 39 38 
214 141 337 102 90 78 
215 167 172 126 111 98 
189 609 243 83 106 132 
286 476 210 37 58 76 
202 986 271 117 90 53 
268 126 217 138 86 30 
214 167 175 120 104 91 
261 414 203 78 87 99 
155 797 206 127 113 100 
212 844 270 202 148 117 
283 201 250 38 45 69 
247 567 186 158 160 172 
158 764 206 120 103 87 
185 595 239 101 122 146 
178 520 284 89 108 129 
313 761 425 187 193 209 
297 193 337 48 83 108 
312 135 342 97 81 72 
188 577 318 147 155 170 
185 612 252 99 117 144 
292 230 146 83 83 87 
242 695 156 105 82 90 
207 114 333 123 98 71 
344 408 278 123 130 143 
233 885 361 146 111 86 
271 211 122 98 54 62 
278 775 286 129 104 80 
190 511 326 81 101 123 
308 323 377 136 53 71 
264 172 169 105 91 75 
231 693 360 56 86 115 
191 557 346 107 131 160 
208 357 216 66 96 122 
299 256 334 106 81 70 
244 107 310 80 65 50 
269 167 210 102 105 112 
248 864 340 111 87 63 
203 905 351 156 117 90 
233 325 324 120 123 133 
176 852 270 211 158 125 
264 456 182 151 134 120 
214 132 337 111 89 66 
183 909 311 90 69 56 
233 284 191 147 34 81 
283 551 205 122 134 160 
246 597 192 101 100 102 
304 785 409 147 157 199 
152 760 157 89 108 129 
170 659 284 116 57 83 
259 833 335 174 144 116 
273 696 462 79 108 133 
215 420 331 86 103 135 
189 501 292 116 124 137 
258 31 234 121 116 122 
288 151 329 108 96 86 
346 341 387 127 137 147 
362 401 302 84 108 134 
269 128 241 141 78 24 
243 315 333 73 111 142 
207 227 303 90 65 76 
201 781 368 147 151 160 
313 674 384 145 158 174 
219 165 164 130 116 104 
189 725 229 87 97 109 
183 923 311 70 55 45 
218 164 167 121 108 97 
236 263 171 129 71 77 
296 446 165 173 151 128 
311 758 318 157 98 79 
202 557 354 156 159 170 
181 883 288 123 86 61 
303 449 257 107 113 124 
237 860 283 159 124 89 
211 437 306 85 99 125 
309 136 340 97 80 69 
359 358 314 109 118 132 
263 696 168 63 133 179 
325 319 278 139 106 74 
182 212 271 81 31 33 
289 297 128 88 141 185 
269 952 310 101 85 71 
332 178 291 50 59 81 
282 660 210 93 97 103 
293 339 259 102 61 73 
152 799 218 145 135 130 
160 782 288 91 93 98 
298 654 334 92 102 117 
353 228 323 127 33 63 
232 315 326 156 155 161 
319 195 284 109 53 47 
202 182 287 95 66 55 
260 957 289 90 73 59 
340 222 308 100 69 71 
147 769 180 146 128 123 
185 838 339 204 178 156 
181 925 325 127 102 83 
221 164 160 121 108 98 
323 416 164 146 124 100 
294 297 333 127 133 145 
213 820 376 144 129 133 
295 140 324 102 70 30 
210 1015 280 116 92 72 
306 631 332 165 109 97 
197 296 293 106 124 143 
269 700 462 95 116 137 
234 259 170 109 80 89 
276 166 241 81 76 79 
287 377 350 170 146 124 
155 811 225 182 130 99 
291 501 215 63 91 119 
174 577 236 93 96 116 
180 926 304 65 53 46 
225 699 173 95 103 135 
204 587 195 100 122 147 
285 643 413 128 106 85 
226 593 359 118 130 147 
233 862 281 161 121 87 
331 466 264 117 124 138 
313 197 279 93 54 74 
258 287 149 170 165 168 
262 353 182 138 87 52 
182 805 349 67 44 88 
194 263 231 96 79 75 
283 566 208 149 156 169 
244 462 189 79 95 113 
334 304 384 161 161 168 
175 852 269 213 159 126 
333 373 276 86 101 118 
218 160 168 116 107 102 
232 555 182 178 172 174 
305 651 381 32 51 75 
233 633 157 102 92 84 
334 296 296 116 121 130 
184 461 261 88 112 138 
285 632 397 101 95 94 
289 608 367 119 98 88 
159 688 93 80 102 185 
172 948 329 91 73 60 
305 755 446 170 180 202 
305 612 255 119 139 163 
177 760 340 146 138 146 
277 917 299 138 114 88 
317 727 365 77 79 128 
258 741 377 46 81 138 
148 676 120 97 116 137 
285 636 202 181 127 113 
338 551 338 161 175 196 
307 454 391 128 118 111 
312 341 147 141 143 152 
246 455 193 95 103 115 
239 541 369 118 135 161 
256 625 359 67 83 113 
186 340 256 167 123 71 
262 278 246 76 100 121 
280 778 289 179 154 130 
295 635 360 49 40 55 
223 818 384 174 32 53 
304 692 261 130 69 25 
303 787 407 179 186 202 
206 838 365 161 146 138 
349 344 305 133 139 150 
239 87 266 81 67 53 
208 470 315 106 123 143 
309 213 373 116 76 78 
217 166 168 124 110 99 
233 773 220 152 110 76 
301 618 245 131 134 144 
182 443 245 75 100 132 
168 730 278 132 25 40 
251 662 353 57 87 116 
271 562 200 125 143 166 
357 358 377 181 156 134 
187 752 154 110 71 56 
274 329 148 143 45 84 
222 193 344 140 38 23 
214 405 308 74 107 135 
206 189 299 52 44 58 
211 865 339 139 112 93 
185 865 319 180 136 107 
370 443 316 98 118 149 
243 686 156 97 132 165 
283 257 151 99 59 66 
253 424 352 92 107 124 
254 277 205 105 109 117 
181 558 317 156 163 177 
238 707 205 73 79 88 
303 499 184 116 134 204 
317 458 168 113 139 198 
280 712 213 196 82 10 
370 371 331 130 131 137 
270 130 221 139 77 7 
229 353 331 109 124 142 
176 548 305 190 179 175 
296 618 395 105 91 79 
338 474 265 160 165 179 
187 385 250 68 97 134 
165 790 300 156 139 126 
247 536 183 125 137 159 
298 748 281 134 110 104 
307 133 316 105 83 68 
300 562 241 133 136 144 
182 922 302 65 52 43 
221 711 364 52 76 112 
363 257 364 144 142 145 
180 262 276 88 115 146 
367 330 334 151 149 152 
219 174 164 142 72 0 
291 601 222 65 102 138 
220 679 163 127 135 156 
147 797 245 128 117 109 
238 272 169 117 56 79 
336 322 290 147 121 95 
293 507 188 153 173 215 
283 200 249 48 51 68 
302 332 158 106 96 96 
263 336 201 100 99 102 
167 542 274 186 170 160 
188 222 285 115 42 34 
220 168 162 123 106 87 
279 929 303 139 116 93 
183 695 147 26 59 114 
196 728 176 74 90 110 
268 430 180 176 70 2 
180 902 295 97 76 61 
299 637 356 110 107 110 
274 686 434 107 111 148 
221 171 160 146 67 10 
235 916 367 159 119 97 
250 431 187 148 73 19 
177 540 309 201 183 170 
220 171 162 141 77 16 
257 849 383 223 166 131 
201 777 177 141 100 95 
274 178 239 103 60 48 
323 697 388 134 142 156 
215 872 255 153 117 89 
201 721 354 71 116 154 
234 880 284 136 101 66 
260 732 437 13 36 94 
305 626 361 161 111 101 
215 633 218 124 129 141 
269 128 269 122 92 69 
191 661 119 95 85 75 
279 350 156 196 164 129 
258 212 211 129 90 72 
291 673 395 90 133 168 
282 135 308 93 61 17 
217 368 293 139 60 93 
274 944 330 145 111 83 
216 1017 300 113 87 66 
207 184 302 45 40 55 
296 345 160 57 91 116 
322 242 374 104 46 66 
304 325 380 159 102 98 
161 738 261 118 28 39 
195 915 259 120 91 59 
352 260 320 129 114 100 
260 816 305 115 124 136 
221 175 162 141 71 2 
200 337 286 111 132 150 
267 181 224 135 67 65 
290 218 157 125 81 96 
225 662 220 118 113 117 
296 149 365 81 71 65 
218 134 280 84 71 59 
364 387 310 65 97 123 
180 903 301 92 74 61 
182 834 238 238 171 131 
264 159 177 110 72 64 
217 168 168 118 105 94 
310 635 303 176 114 111 
197 765 362 106 108 116 
311 740 328 123 151 180 
266 280 140 139 65 75 
209 276 310 82 123 156 
244 554 370 125 138 159 
220 1014 283 155 127 103 
283 816 345 90 100 115 
217 170 169 122 108 97 
279 27 309 155 136 131 
281 795 315 111 101 92 
284 402 358 163 78 4 
320 427 262 52 79 107 
221 385 328 80 103 130 
174 750 141 82 60 100 
169 942 326 101 85 73 
318 263 284 129 128 130 
192 619 245 68 105 140 
206 240 326 148 31 26 
180 927 327 111 86 70 
310 371 387 163 123 103 
274 424 183 142 91 43 
198 907 265 84 62 47 
363 335 371 181 154 127 
238 587 188 69 92 114 
216 851 360 177 155 137 
316 457 259 79 97 117 
252 516 371 144 155 174 
308 299 373 113 114 119 
305 222 271 101 30 50 
282 557 206 100 118 155 
228 49 308 77 67 58 
231 692 223 101 102 107 
140 693 126 55 93 130 
231 43 307 75 65 56 
368 373 327 108 118 132 
293 185 330 36 58 86 
187 1009 308 151 125 100 
237 808 252 199 146 117 
361 282 371 121 132 147 
352 422 282 132 131 135 
285 604 218 136 137 145 
303 264 360 105 81 95 
245 844 385 185 23 60 
305 490 193 86 109 148 
361 349 373 184 157 130 
198 904 343 155 120 91 
335 339 285 144 109 75 
290 810 354 157 128 98 
260 253 335 116 20 62 
297 558 368 65 70 106 
194 381 270 96 113 139 
207 901 355 162 123 97 
273 616 213 74 78 82 
176 530 213 64 88 132 
254 554 372 133 149 171 
271 250 322 65 40 45 
296 776 308 99 69 63 
152 763 250 114 101 91 
372 373 334 147 141 140 
282 604 216 72 94 120 
170 570 260 141 146 163 
271 246 251 124 119 120 
264 801 289 165 152 146 
330 314 285 117 83 39 
213 166 178 73 75 77 
239 535 368 146 161 181 
277 437 204 70 81 95 
341 399 385 179 62 1 
227 500 363 124 138 157 
279 427 220 86 97 110 
278 380 224 57 84 108 
329 146 348 111 60 3 
256 619 200 56 69 80 
276 932 303 141 114 88 
322 361 271 65 83 101 
214 165 178 72 72 73 
352 415 372 150 132 128 
253 927 366 155 121 91 
271 306 160 75 111 140 
234 370 334 117 125 139 
189 545 343 84 109 147 
214 167 176 111 98 86 
256 287 201 102 104 109 
363 306 371 126 139 156 
348 217 315 140 50 50 
218 70 278 99 83 67 
207 472 314 134 143 156 
212 167 180 65 67 73 
325 445 177 99 120 149 
303 705 471 168 115 95 
234 1013 292 158 128 98 
185 709 320 136 140 150 
361 493 323 99 120 159 
274 420 201 66 82 102 
171 832 232 233 167 127 
213 166 182 61 59 61 
325 243 293 123 122 125 
333 559 336 208 208 217 
277 380 235 64 91 114 
206 65 348 139 113 85 
260 132 287 98 68 38 
221 699 143 147 179 213 
214 871 253 160 117 83 
301 530 211 128 142 161 
261 662 169 60 73 86 
331 199 366 82 88 100 
214 165 183 70 66 64 
210 653 343 89 109 130 
258 135 300 94 69 45 
236 532 368 98 116 157 
179 721 309 137 137 143 
191 700 322 69 111 143 
238 791 399 74 105 145 
301 316 352 101 125 149 
262 782 434 139 149 200 
244 205 340 38 56 84 
211 463 328 157 153 154 
313 686 268 106 119 145 
175 504 264 138 139 146 
213 166 187 81 68 58 
305 180 375 104 57 86 
282 355 154 197 163 125 
316 160 368 113 107 108 
239 400 193 155 134 113 
318 577 346 95 103 125 
287 404 368 171 70 8 
215 165 185 77 69 66 
205 676 338 76 126 163 
214 165 187 78 68 58 
221 707 217 90 94 103 
176 716 310 140 138 142 
204 720 355 72 116 151 
215 892 277 96 66 44 
222 1017 304 117 87 51 
188 919 272 85 67 51 
310 383 391 138 24 61 
339 182 299 85 54 55 
355 510 338 101 110 160 
289 411 251 93 101 113 
220 518 363 90 112 145 
238 1005 293 115 95 73 
268 170 218 143 102 71 
185 760 157 153 129 111 
259 409 179 197 168 139 
278 758 453 230 224 228 
302 771 325 185 79 78 
215 166 189 84 75 68 
296 737 463 78 110 171 
202 272 225 69 101 129 
292 715 240 114 126 140 
279 566 377 148 143 144 
265 743 409 91 107 124 
273 224 152 68 30 50 
254 579 194 131 136 147 
202 893 341 156 120 91 
232 701 179 120 124 135 
274 699 181 89 108 140 
203 51 336 111 105 100 
267 395 207 40 68 89 
211 172 182 110 100 92 
197 175 283 98 89 81 
296 516 192 194 193 208 
304 774 424 136 141 182 
367 310 364 132 141 156 
219 909 267 77 64 52 
211 175 183 129 114 103 
156 773 216 78 72 69 
231 843 380 153 115 82 
218 771 205 77 53 35 
190 695 317 70 114 149 
257 644 179 139 95 77 
199 636 250 74 93 134 
292 159 333 100 85 74 
227 134 301 78 64 53 
269 372 186 161 127 80 
215 878 269 132 104 74 
206 628 222 66 102 139 
281 337 254 121 104 85 
188 890 320 158 124 93 
223 129 338 118 96 72 
244 987 286 104 83 74 
180 785 167 196 169 150 
285 471 210 42 54 64 
178 335 229 152 159 173 
260 192 123 91 74 52 
343 540 342 131 147 180 
214 170 176 135 119 107 
214 171 176 134 117 106 
323 733 436 132 149 177 
188 963 284 146 114 81 
281 626 380 46 59 71 
312 480 176 209 213 230 
249 659 157 66 88 108 
306 380 261 80 95 112 
308 649 394 138 99 82 
184 408 247 117 125 140 
212 169 183 66 67 69 
168 750 296 86 45 79 
169 761 304 134 30 44 
333 401 389 198 168 137 
227 351 320 167 137 102 
262 714 366 87 109 137 
239 85 305 84 68 51 
305 230 274 88 103 116 
277 227 320 38 33 36 
300 141 337 92 51 10 
291 763 285 115 75 54 
261 370 193 90 84 84 
251 17 292 106 92 81 
306 674 283 73 112 144 
167 553 246 101 112 137 
204 194 297 63 39 58 
296 450 393 138 119 99 
304 678 235 188 140 77 
288 486 388 87 118 165 
323 384 391 186 160 131 
295 146 340 73 67 65 
229 653 342 60 89 118 
285 469 386 72 105 158 
314 631 398 135 103 72 
365 402 356 59 76 121 
251 692 160 134 95 101 
185 756 347 150 148 153 
246 430 189 141 114 82 
309 765 353 161 178 200 
201 659 336 143 147 157 
315 350 268 81 99 115 
292 335 374 169 143 118 
268 325 224 102 101 103 
347 471 360 132 150 173 
223 632 157 59 72 86 
234 278 176 131 38 78 
266 556 195 126 145 177 
273 699 178 145 176 206 
178 662 117 72 67 62 
360 308 375 160 157 161 
319 705 421 58 89 119 
243 848 327 137 122 111 
190 198 282 117 105 106 
212 175 183 132 116 106 
266 327 160 142 46 81 
355 438 363 165 165 171 
294 590 358 95 103 115 
351 533 298 184 189 202 
260 300 165 88 113 136 
210 461 320 84 107 138 
179 731 329 96 117 140 
227 939 372 181 141 115 
218 658 345 78 103 127 
259 462 365 160 156 159 
227 689 136 99 131 161 
308 551 218 88 115 153 
267 971 336 119 91 76 
200 690 332 72 116 150 
211 169 188 72 66 63 
281 753 252 181 144 98 
279 555 379 141 154 171 
298 545 221 47 85 124 
310 511 201 56 87 146 
174 717 266 120 136 155 
314 726 453 116 93 103 
330 571 320 187 182 187 
190 1015 299 155 135 115 
204 213 319 46 51 85 
290 412 167 183 150 110 
362 384 307 77 104 128 
281 179 160 149 74 5 
188 1014 297 151 125 99 
274 457 211 63 76 90 
299 630 411 112 94 76 
198 672 317 132 123 128 
363 368 317 104 112 126 
276 426 359 104 94 86 
286 811 412 156 152 190 
233 851 322 114 71 60 
307 675 286 79 117 150 
330 222 298 99 75 78 
235 907 367 194 141 116 
271 13 329 116 105 97 
363 316 371 103 126 151 
198 122 264 92 76 57 
229 669 180 147 155 170 
194 158 276 110 88 65 
172 559 287 180 172 171 
277 194 165 49 51 87 
278 207 246 30 58 94 
218 116 277 83 67 51 
315 710 366 66 91 146 
187 360 240 109 128 149 
316 359 388 157 133 107 
245 364 184 142 103 78 
295 412 165 120 131 147 
209 54 322 90 74 58 
223 845 372 138 127 124 
244 126 321 79 66 51 
196 138 274 110 88 64 
237 669 351 50 77 114 
222 948 260 76 57 44 
273 405 213 46 70 98 
327 588 268 128 152 179 
366 262 356 122 131 144 
373 400 331 92 111 138 
282 265 321 92 99 105 
268 307 147 112 130 153 
313 479 257 110 119 133 
206 170 328 105 39 45 
221 432 349 63 88 122 
355 232 364 111 29 43 
192 621 248 66 89 132 
280 425 188 152 69 5 
300 355 260 103 77 78 
311 693 460 145 102 79 
172 681 301 153 158 169 
188 293 233 161 142 124 
318 753 385 159 170 191 
317 147 281 121 52 20 
321 587 283 126 147 172 
194 822 213 225 168 131 
263 732 454 131 129 154 
199 779 367 143 150 162 
289 363 379 131 119 130 
258 8 241 112 99 89 
323 714 417 78 107 149 
309 700 463 163 115 88 
274 369 182 126 92 64 
351 427 279 98 111 128 
216 162 177 94 62 49 
208 178 289 69 69 71 
270 382 211 74 92 110 
263 707 364 78 101 131 
309 192 370 90 67 67 
202 742 362 62 92 145 
199 692 152 43 69 122 
283 640 393 73 102 142 
151 668 105 46 79 116 
172 679 300 155 157 167 
256 677 162 97 122 192 
363 287 331 98 87 89 
304 638 301 111 128 161 
303 703 324 99 112 128 
150 740 182 122 93 46 
232 815 254 206 148 122 
354 419 368 101 117 149 
263 450 361 55 82 115 
313 389 167 142 97 72 
270 317 149 139 63 110 
174 733 124 128 123 158 
157 765 153 161 135 120 
314 294 276 96 105 117 
282 232 122 124 82 51 
275 828 346 99 100 108 
268 298 324 81 87 97 
344 370 290 93 108 127 
216 163 183 71 66 65 
170 515 209 136 141 154 
300 425 395 185 82 7 
233 996 281 122 97 71 
362 260 366 158 153 154 
201 657 336 148 151 160 
316 678 377 43 73 135 
316 470 188 88 114 154 
233 1012 305 110 79 60 
298 446 254 73 91 110 
307 653 370 182 182 190 
146 757 170 91 112 132 
277 722 416 97 110 128 
220 528 364 182 180 184 
183 593 282 188 174 167 
240 194 340 101 31 33 
259 313 206 71 75 83 
197 701 113 62 112 164 
200 633 155 95 122 147 
253 212 336 87 42 54 
216 164 177 81 66 54 
180 300 252 70 124 166 
142 787 221 139 119 98 
216 164 183 73 66 66 
186 347 248 149 103 39 
216 163 185 79 73 69 
287 782 433 196 201 226 
252 260 208 102 75 49 
347 173 311 81 41 42 
286 494 216 59 76 96 
347 459 364 101 123 165 
310 771 358 172 186 204 
282 434 370 158 150 148 
254 301 208 70 93 115 
350 304 312 86 110 133 
198 436 176 99 115 132 
325 710 384 119 135 165 
175 454 181 162 161 167 
291 727 268 160 52 55 
182 731 131 142 96 87 
304 653 279 72 126 164 
322 427 263 58 83 107 
297 238 331 67 86 105 
298 800 361 90 108 133 
169 940 328 101 80 64 
281 783 291 176 157 143 
248 848 383 159 111 108 
291 450 179 63 87 133 
276 135 304 92 60 13 
178 650 286 131 135 143 
236 657 145 118 122 131 
210 898 271 86 65 53 
214 277 318 99 109 127 
182 922 320 103 83 66 
200 281 303 127 127 134 
205 633 228 94 118 151 
235 327 201 145 142 145 
303 627 352 164 111 99 
176 1006 304 160 137 118 
168 823 214 212 147 118 
183 514 293 79 104 128 
219 161 189 86 74 66 
215 595 359 79 144 191 
274 257 126 68 92 117 
238 262 344 164 158 161 
260 954 287 92 74 62 
246 77 261 91 76 60 
201 994 318 116 92 68 
252 134 287 103 82 61 
181 374 205 43 88 127 
191 970 286 147 115 83 
285 643 209 157 109 95 
283 196 162 53 86 111 
228 426 351 62 92 135 
315 195 281 84 62 68 
189 602 312 73 102 136 
357 222 358 135 126 121 
205 178 301 35 58 86 
291 651 434 111 92 72 
343 345 294 114 115 119 
305 327 132 150 165 187 
262 24 249 134 112 115 
312 540 205 143 160 200 
268 368 209 93 103 116 
207 734 364 70 93 140 
220 160 185 83 73 66 
359 448 354 100 123 151 
222 73 309 88 72 55 
353 514 339 99 119 167 
221 445 354 65 94 137 
150 792 206 188 172 164 
261 759 445 135 134 181 
247 838 391 176 39 57 
206 913 260 68 56 51 
164 755 232 41 35 46 
291 238 260 69 89 106 
313 299 275 121 110 102 
199 642 299 81 97 115 
261 851 380 186 86 113 
282 122 261 116 89 67 
342 276 378 85 104 124 
286 432 384 147 130 119 
227 766 196 106 77 61 
218 179 167 147 69 1 
221 336 310 158 113 59 
300 530 379 124 137 163 
308 707 291 122 149 178 
208 718 176 75 97 121 
266 197 159 98 46 43 
210 710 359 45 89 142 
208 692 156 114 123 137 
219 181 166 150 72 0 
173 733 326 119 140 164 
200 647 313 143 141 145 
214 987 342 137 116 97 
224 695 360 62 87 111 
303 676 357 103 119 145 
248 827 298 191 132 109 
212 700 163 98 105 128 
220 177 163 143 69 1 
344 166 322 48 62 76 
214 737 172 150 115 99 
197 656 158 27 55 97 
283 21 318 155 141 134 
221 581 181 105 122 141 
265 968 307 94 75 61 
221 178 162 144 70 1 
365 329 328 155 152 155 
294 506 210 34 73 128 
227 410 344 61 93 121 
222 176 161 141 66 0 
189 750 350 157 154 160 
314 720 304 112 142 170 
320 387 151 195 169 144 
202 703 234 92 98 107 
240 626 176 99 94 92 
172 844 306 182 143 116 
225 908 367 191 147 122 
267 707 461 66 101 145 
145 737 166 116 51 65 
220 179 164 147 74 2 
169 465 190 6 61 118 
340 538 320 94 118 168 
168 579 243 144 142 147 
289 388 367 168 139 109 
271 949 311 84 70 56 
342 415 381 128 109 91 
221 180 163 152 74 4 
171 654 286 125 118 130 
274 354 176 149 126 102 
186 502 287 148 146 150 
240 61 304 80 66 51 
221 182 163 151 79 28 
223 277 209 153 77 96 
322 573 292 164 166 176 
224 384 332 94 111 135 
233 447 186 54 86 120 
256 58 317 108 84 60 
244 889 288 149 117 83 
320 472 382 98 122 162 
145 744 160 158 24 50 
356 452 277 124 133 150 
197 505 180 174 172 179 
259 154 168 88 78 68 
340 492 264 182 178 186 
222 183 163 128 94 80 
188 1000 276 149 116 85 
181 918 329 124 94 73 
149 777 211 98 87 76 
265 301 162 72 105 133 
283 928 297 119 104 92 
223 149 284 109 74 62 
242 997 323 90 73 58 
197 317 222 94 92 99 
308 781 361 139 156 178 
271 339 239 125 103 81 
196 576 208 128 135 149 
148 709 114 161 163 182 
150 798 221 132 95 86 
262 161 321 127 62 1 
217 704 147 174 105 130 
360 294 326 113 125 142 
220 657 218 88 41 60 
221 513 175 86 112 154 
169 751 228 91 79 68 
175 988 303 119 97 74 
339 457 266 92 112 145 
256 552 190 144 154 174 
218 177 168 143 68 1 
179 724 309 120 130 146 
206 617 332 65 110 145 
217 75 279 100 82 65 
270 927 345 117 96 73 
301 372 260 74 86 100 
218 179 169 145 68 0 
258 136 302 93 71 49 
211 249 331 138 26 67 
200 764 171 195 163 131 
288 725 265 126 118 114 
303 629 348 167 112 99 
229 123 337 115 92 66 
260 910 295 150 109 81 
146 762 173 163 131 111 
216 177 174 143 78 10 
309 409 171 113 96 79 
270 935 301 140 106 89 
216 179 173 150 72 3 
217 178 172 149 70 2 
219 374 312 128 134 145 
286 681 458 113 91 69 
271 924 333 151 120 91 
283 398 354 134 127 122 
293 759 449 167 171 203 
199 419 185 44 85 116 
273 709 369 75 92 143 
217 180 171 147 71 0 
191 664 154 54 81 139 
178 560 304 177 174 180 
211 427 310 133 136 145 
320 307 277 85 91 100 
175 575 276 150 163 180 
319 680 431 141 99 68 
323 455 261 77 95 116 
306 317 148 104 122 142 
206 1017 303 183 149 116 
266 132 184 139 88 41 
174 559 290 135 138 154 
257 897 363 123 88 71 
218 182 169 148 74 2 
230 702 153 152 142 171 
303 694 312 157 160 170 
335 425 383 174 159 147 
205 216 311 89 66 87 
355 191 324 119 68 56 
240 905 284 106 81 56 
330 267 298 77 98 117 
289 449 168 175 156 153 
251 67 309 88 71 53 
167 559 249 112 124 145 
188 672 104 58 86 155 
280 659 420 130 105 84 
311 729 297 112 148 180 
255 592 199 123 124 129 
177 940 341 96 81 68 
228 615 356 97 138 185 
334 448 265 88 111 133 
231 825 390 167 89 109 
247 898 290 149 120 93 
273 397 345 113 97 79 
305 176 271 83 49 69 
240 129 329 93 77 60 
339 424 270 132 132 138 
269 400 198 74 94 114 
217 182 174 149 73 1 
347 279 313 119 112 111 
193 794 363 157 21 43 
309 428 161 128 108 89 
227 287 206 145 36 79 
231 595 192 64 73 82 
209 138 310 103 93 86 
196 990 314 70 51 37 
254 363 337 120 119 123 
219 189 167 122 131 143 
275 29 309 143 132 126 
222 184 161 104 96 92 
183 705 154 38 51 71 
358 301 376 111 129 150 
321 751 419 174 183 208 
260 563 374 182 178 181 
268 723 467 132 153 190 
165 544 231 76 104 154 
257 19 341 162 148 141 
274 437 212 80 91 105 
257 475 368 178 171 171 
233 81 335 107 87 65 
169 562 234 145 148 158 
275 922 302 115 92 76 
295 429 394 148 116 70 
172 711 314 126 147 172 
189 270 235 98 89 91 
367 466 302 111 129 148 
206 1016 297 149 115 76 
343 374 387 187 158 128 
169 942 324 98 84 74 
218 44 335 90 78 67 
144 731 150 159 17 40 
195 837 251 199 147 110 
182 588 237 122 136 153 
220 185 166 125 103 88 
366 308 336 97 122 146 
224 684 227 95 101 111 
183 616 255 103 119 141 
241 832 292 191 132 110 
174 440 198 72 99 140 
225 793 227 193 141 105 
252 268 160 119 104 103 
203 926 255 67 52 38 
220 186 167 115 107 106 
313 621 334 165 116 102 
240 135 282 102 83 65 
272 381 219 64 72 81 
292 271 124 139 80 86 
147 785 201 208 178 150 
251 358 174 161 11 59 
171 837 308 161 134 107 
200 1018 306 198 168 140 
292 696 387 147 159 175 
255 646 181 101 70 55 
246 837 309 183 132 109 
166 555 249 118 131 151 
298 429 395 165 66 19 
204 692 237 51 77 99 
225 857 357 150 124 102 
318 705 433 81 112 143 
212 415 312 109 123 141 
307 431 174 87 88 118 
191 448 272 55 91 134 
224 993 335 124 97 71 
322 584 284 149 155 168 
223 905 271 82 68 55 
212 419 315 107 121 141 
301 214 345 100 75 95 
241 145 336 125 111 99 
259 812 414 149 169 204 
305 677 234 180 133 82 
171 777 313 84 80 94 
193 818 361 70 59 92 
202 941 263 79 59 43 
306 722 334 98 114 132 
184 752 151 163 116 102 
187 695 286 144 145 149 
257 184 168 87 49 48 
298 773 434 198 197 213 
169 787 311 145 111 74 
171 683 299 162 164 174 
264 200 193 98 106 120 
221 191 164 57 79 108 
248 269 171 56 85 109 
169 636 274 122 142 167 
264 941 361 188 140 116 
168 713 164 99 108 120 
306 676 397 163 159 163 
218 184 169 150 69 8 
186 703 251 62 87 109 
272 774 271 186 170 160 
207 157 302 121 79 65 
278 419 198 79 92 107 
150 783 250 138 117 98 
214 521 361 111 124 155 
217 540 176 60 92 151 
306 708 317 124 143 165 
254 322 194 93 88 95 
363 411 357 73 102 149 
247 609 364 104 121 154 
319 214 286 115 52 31 
238 382 339 82 102 122 
270 593 373 95 127 155 
245 950 270 76 60 46 
261 850 353 173 151 135 
279 522 197 165 173 194 
186 441 227 106 118 136 
356 478 350 174 171 177 
279 203 128 91 79 83 
261 416 178 192 163 133 
344 464 366 75 103 143 
282 710 418 72 101 143 
346 177 345 92 93 96 
293 209 259 73 51 35 
292 688 218 185 121 27 
182 849 325 185 161 140 
198 632 138 90 121 148 
219 354 303 164 135 105 
217 186 172 152 65 4 
304 419 170 78 83 113 
282 181 145 143 65 6 
206 812 225 203 151 114 
277 564 205 76 96 136 
265 776 251 195 167 141 
223 68 308 87 71 55 
180 748 143 139 124 115 
225 35 325 80 72 63 
362 218 340 71 98 120 
253 351 190 88 78 84 
186 604 245 101 118 142 
228 663 135 173 178 191 
275 238 151 76 40 39 
305 662 331 117 127 141 
156 699 100 117 147 224 
307 651 370 138 154 174 
268 229 146 34 43 69 
219 189 168 121 131 144 
219 189 169 120 129 141 
323 706 409 132 141 155 
308 428 393 185 86 7 
162 816 294 91 111 131 
150 788 241 109 91 74 
196 202 288 99 37 36 
291 694 386 96 107 147 
252 757 429 123 133 147 
249 67 330 115 94 74 
265 930 359 115 93 69 
215 833 377 137 105 75 
218 191 170 89 103 124 
345 176 306 84 49 34 
189 694 292 113 76 90 
268 127 202 133 98 67 
205 708 126 136 164 194 
293 728 271 149 31 8 
283 472 222 114 121 133 
219 357 304 166 142 120 
204 613 331 109 48 69 
220 698 360 52 44 89 
311 734 458 98 85 99 
163 791 295 120 111 106 
156 685 91 94 125 216 
321 136 354 103 94 88 
186 661 118 92 83 74 
274 939 311 66 52 38 
238 751 381 102 109 120 
217 191 174 121 125 133 
206 225 327 56 39 43 
259 128 265 122 91 68 
245 452 359 149 149 155 
271 853 364 122 34 18 
218 191 172 120 128 141 
179 718 310 143 139 142 
212 170 286 80 75 73 
286 744 277 165 130 97 
247 274 152 104 52 65 
332 293 383 155 154 159 
218 916 261 70 58 48 
311 512 377 111 134 171 
290 724 244 88 86 87 
201 659 123 97 86 76 
215 178 176 145 87 23 
242 117 259 94 81 70 
215 179 176 150 70 8 
261 391 200 43 65 86 
273 210 244 34 61 102 
233 769 388 132 130 133 
308 605 253 192 189 195 
193 932 350 85 67 53 
185 413 255 71 89 128 
276 342 157 199 167 133 
372 389 333 86 109 137 
203 887 334 133 100 75 
213 177 180 138 120 103 
194 620 320 91 126 162 
286 145 253 112 39 22 
356 399 372 145 130 118 
209 588 190 105 122 141 
199 868 331 188 140 112 
245 956 271 84 64 45 
216 125 277 78 65 52 
321 586 319 70 131 174 
212 178 183 135 119 105 
197 950 268 108 82 54 
312 544 215 84 118 156 
252 295 338 149 148 153 
274 909 298 147 123 99 
278 306 137 171 168 173 
314 171 365 116 93 94 
303 532 376 102 120 152 
200 650 324 150 151 159 
251 12 336 83 71 62 
169 799 310 136 121 108 
261 569 197 143 153 172 
197 496 309 82 102 125 
282 477 221 117 123 134 
297 253 145 131 77 73 
165 540 245 52 74 137 
219 620 205 128 132 141 
294 392 392 187 161 135 
273 11 316 128 115 107 
181 647 286 137 141 152 
215 183 178 155 73 4 
278 761 262 189 153 115 
213 180 182 149 113 69 
240 921 365 119 86 76 
213 181 183 148 95 35 
344 195 362 93 98 106 
278 304 255 80 89 101 
203 305 295 137 144 159 
188 468 273 62 97 130 
222 992 272 123 99 74 
288 580 367 97 128 155 
155 817 237 185 134 100 
333 552 324 118 139 164 
195 167 280 100 81 61 
307 761 329 192 86 91 
192 509 189 179 179 186 
258 654 180 37 55 84 
307 189 373 117 93 83 
281 839 383 95 58 153 
179 501 270 73 100 130 
246 11 321 64 56 47 
200 579 200 111 133 158 
308 611 383 122 103 85 
279 232 121 121 67 51 
211 177 185 139 122 107 
265 498 192 165 165 173 
276 377 239 43 76 101 
211 177 186 140 124 109 
246 612 363 110 115 130 
298 688 231 191 142 74 
211 178 187 130 116 103 
244 268 342 157 153 157 
144 730 160 113 130 148 
198 667 157 45 61 97 
312 721 312 112 139 167 
292 699 227 205 147 56 
360 488 337 138 144 158 
198 891 259 135 95 67 
281 469 186 93 110 157 
210 606 334 84 93 117 
256 16 290 108 91 79 
271 391 178 149 2 44 
241 627 172 109 99 91 
195 575 333 82 111 148 
152 702 104 163 181 213 
180 465 205 156 157 164 
357 496 340 175 173 180 
226 715 203 94 99 107 
221 561 179 131 145 169 
221 628 209 125 129 139 
266 177 319 99 41 24 
222 883 360 150 114 87 
167 707 157 71 90 109 
220 335 305 161 114 56 
192 293 229 107 113 123 
214 424 182 57 87 111 
205 226 306 92 60 79 
255 58 324 112 88 69 
355 392 374 173 115 78 
187 647 142 94 115 137 
211 183 189 142 109 65 
195 105 274 127 98 77 
283 243 320 34 53 79 
274 466 185 73 108 151 
273 704 368 38 92 142 
229 440 187 137 136 141 
303 241 369 127 110 103 
350 476 356 106 122 158 
248 352 332 133 131 135 
263 132 180 139 90 52 
251 26 292 107 90 78 
272 402 181 171 131 80 
260 14 338 102 89 80 
201 845 262 186 138 102 
341 198 304 97 42 42 
256 163 322 100 64 31 
255 274 222 114 111 112 
245 122 258 100 85 72 
261 709 364 86 112 135 
221 937 258 59 47 35 
194 775 360 139 152 171 
277 448 215 74 90 107 
256 216 140 80 52 62 
251 74 312 91 73 53 
187 831 234 229 171 134 
204 627 146 86 120 150 
153 741 136 129 60 50 
230 570 184 122 142 171 
336 159 330 77 69 61 
265 844 389 183 33 55 
248 760 382 103 114 129 
231 725 371 115 121 133 
305 767 321 185 160 143 
268 9 234 125 107 94 
213 182 186 154 112 61 
259 152 167 106 99 93 
183 487 270 79 106 135 
190 391 226 54 95 141 
233 694 177 121 126 140 
195 1014 298 160 129 93 
186 620 271 68 103 133 
292 649 354 108 123 143 
263 730 433 59 71 106 
349 237 369 112 43 68 
161 811 291 142 122 105 
344 518 266 159 165 179 
167 729 258 97 51 47 
256 596 369 169 171 179 
266 915 301 168 123 85 
238 916 366 158 119 99 
291 442 167 159 139 117 
227 715 194 32 43 63 
294 258 263 67 90 110 
215 185 180 156 73 8 
162 828 287 180 141 114 
263 274 332 103 57 12 
198 933 261 81 61 42 
255 422 183 163 62 0 
175 654 132 106 116 130 
176 805 330 132 114 99 
199 332 286 125 134 151 
200 702 341 135 134 140 
237 320 190 135 130 130 
167 570 247 139 149 165 
221 300 316 87 116 148 
273 425 211 51 73 93 
323 545 255 112 139 174 
242 869 356 174 128 111 
175 576 235 79 95 123 
337 158 347 103 87 70 
200 832 248 212 158 127 
215 189 178 155 72 10 
215 189 179 156 72 10 
215 190 179 154 70 8 
311 745 453 187 198 217 
272 188 166 97 86 91 
197 799 366 88 43 52 
215 189 181 157 69 6 
278 296 149 119 125 140 
240 133 278 103 83 61 
220 648 138 98 85 73 
267 293 144 180 177 182 
288 285 125 82 127 163 
202 666 160 74 97 136 
313 626 394 133 104 76 
245 76 330 120 97 78 
182 703 269 99 115 134 
255 269 146 96 128 154 
281 423 228 86 100 119 
225 716 200 68 73 80 
310 719 298 122 146 171 
178 772 339 67 59 58 
150 728 170 120 48 41 
222 816 245 199 145 114 
257 241 145 133 4 25 
265 970 321 117 91 73 
330 568 322 177 173 177 
176 836 242 241 176 133 
211 435 298 98 108 134 
366 393 309 105 115 128 
287 740 275 109 95 96 
341 430 379 167 34 88 
213 184 185 167 79 4 
310 668 384 87 96 140 
290 432 178 64 75 114 
339 395 387 192 160 125 
268 319 246 89 99 111 
216 607 200 77 104 129 
213 656 226 125 127 135 
174 744 192 55 31 43 
266 968 309 104 85 67 
304 397 156 221 180 132 
174 683 98 115 143 178 
213 187 185 166 78 3 
317 366 268 100 106 117 
170 588 245 78 118 151 
205 551 185 120 144 173 
336 157 337 80 70 63 
245 908 286 109 82 56 
180 459 238 110 121 136 
170 721 116 162 184 215 
154 771 166 125 118 119 
142 763 187 117 98 83 
275 694 439 117 129 157 
190 517 334 162 158 160 
272 916 295 150 123 96 
197 597 215 70 117 152 
220 138 302 84 66 54 
212 185 190 161 79 7 
372 427 323 90 115 149 
209 194 334 89 56 70 
337 158 319 51 71 87 
172 724 173 87 98 111 
319 506 370 128 137 160 
291 689 399 96 119 176 
363 502 316 126 138 157 
231 986 279 127 100 72 
254 601 199 106 104 107 
172 687 98 164 164 180 
366 256 353 148 145 148 
250 25 342 136 123 116 
294 698 231 100 78 57 
229 338 320 115 127 143 
170 782 310 99 117 138 
170 667 293 97 97 115 
228 944 372 184 145 116 
338 367 390 156 27 77 
323 710 429 123 138 157 
255 248 339 117 46 68 
221 153 342 115 88 62 
202 433 284 64 95 129 
199 868 269 187 129 83 
298 288 337 130 133 141 
278 167 144 120 101 90 
275 252 321 68 42 50 
249 391 184 159 115 81 
229 854 326 91 60 41 
335 164 358 129 83 66 
199 803 367 52 43 117 
365 314 333 94 60 74 
283 722 473 79 121 179 
245 177 336 47 54 74 
227 862 325 102 73 57 
181 200 263 118 105 97 
235 392 342 88 104 122 
346 237 315 132 72 26 
142 721 130 185 196 216 
211 428 319 130 138 153 
305 674 397 159 156 160 
319 441 261 93 105 120 
301 674 350 82 119 153 
311 735 301 88 125 158 
265 964 343 179 131 109 
208 231 332 115 18 27 
180 717 299 91 76 98 
216 178 176 148 77 13 
311 695 329 101 128 163 
200 619 228 102 123 147 
254 885 301 125 99 68 
274 125 254 133 97 71 
178 249 269 46 57 89 
232 717 369 103 117 133 
305 447 178 58 80 126 
216 183 176 152 71 6 
299 646 256 137 92 85 
174 563 287 148 148 159 
232 889 363 143 108 85 
216 185 176 152 72 7 
268 378 175 200 162 119 
269 146 191 127 89 47 
231 884 282 132 100 68 
272 407 197 47 76 100 
292 528 222 76 102 129 
254 287 185 66 85 103 
180 479 226 124 130 141 
278 541 202 172 172 185 
216 188 176 152 69 10 
216 188 177 154 70 9 
256 253 152 94 51 60 
315 764 408 202 199 206 
275 726 468 124 137 183 
230 263 183 114 81 88 
280 462 209 83 86 92 
260 196 156 105 39 32 
346 524 345 173 174 183 
172 417 189 75 95 122 
216 191 177 119 101 94 
254 568 192 135 145 162 
317 712 338 153 164 180 
298 804 381 145 171 200 
237 866 317 95 72 53 
235 142 143 140 131 125 
223 97 341 132 101 83 
259 260 335 114 115 120 
329 565 300 193 190 196 
296 356 160 79 109 135 
172 629 275 103 125 148 
368 433 306 108 125 144 
299 288 129 78 109 136 
281 326 154 63 102 133 
305 736 289 117 40 59 
245 688 202 56 49 50 
197 1017 304 199 166 134 
184 856 266 209 156 120 
348 313 307 139 138 142 
291 758 283 125 121 122 
201 890 260 136 96 66 
208 410 191 52 82 107 
284 710 411 69 94 148 
177 472 240 116 124 138 
210 729 365 72 103 145 
218 1017 284 122 90 65 
184 633 266 104 126 162 
249 950 272 100 82 70 
273 435 361 118 66 86 
231 140 149 140 118 103 
185 942 270 95 76 57 
328 243 374 122 25 58 
264 652 194 68 71 75 
242 770 390 34 53 98 
285 133 305 93 63 21 
319 133 294 118 73 40 
231 142 148 141 120 106 
262 738 204 151 132 114 
329 728 410 177 180 192 
303 536 372 131 145 167 
310 633 291 166 120 108 
230 143 150 139 114 97 
273 410 350 108 95 84 
302 216 269 62 39 39 
186 361 216 40 80 121 
246 345 176 99 105 118 
187 367 244 134 139 150 
284 253 321 72 62 83 
258 274 227 114 110 110 
209 699 355 83 89 100 
266 186 186 81 108 132 
261 268 138 91 140 176 
288 399 182 112 115 138 
218 260 336 79 126 162 
219 748 376 77 95 130 
340 273 308 109 88 84 
207 213 306 133 50 48 
274 719 428 105 114 128 
291 623 220 61 61 64 
319 277 283 114 117 124 
195 961 353 87 70 57 
186 861 271 196 148 117 
193 69 284 111 86 55 
202 685 153 72 96 132 
263 971 304 89 74 61 
196 451 171 130 139 154 
292 479 204 75 101 138 
270 736 391 41 70 113 
322 723 378 90 122 174 
314 728 454 106 92 100 
257 295 193 64 97 124 
344 206 365 83 113 139 
226 142 155 136 112 95 
258 408 347 97 69 54 
273 330 169 126 130 140 
284 742 247 173 153 138 
296 655 355 81 104 133 
186 308 269 108 129 153 
191 582 218 92 124 153 
279 740 463 99 111 189 
269 542 195 121 136 158 
181 912 305 73 58 47 
266 725 460 142 151 170 
280 754 273 143 125 109 
235 31 337 100 85 71 
278 684 427 95 99 142 
265 636 182 186 132 117 
302 233 346 96 77 91 
293 135 313 100 63 22 
185 450 225 83 110 137 
220 508 362 160 166 178 
166 557 241 104 130 158 
249 846 338 121 111 105 
307 450 391 137 126 120 
215 433 179 46 85 118 
358 417 292 83 102 124 
305 612 254 111 132 156 
321 710 375 139 152 170 
299 760 291 126 112 107 
327 430 264 60 86 111 
273 454 366 82 103 131 
239 37 301 82 68 56 
256 446 360 62 88 125 
261 184 321 64 25 24 
285 437 383 145 57 81 
304 269 271 116 115 118 
300 210 267 93 34 27 
274 131 231 136 78 7 
302 659 313 74 106 133 
186 463 267 80 106 138 
228 138 157 119 104 91 
332 561 333 142 160 186 
287 209 253 37 42 66 
361 347 321 139 140 146 
165 531 251 147 148 155 
177 1003 296 104 71 64 
325 742 411 168 172 191 
220 675 165 105 123 153 
298 641 232 165 113 105 
196 374 273 149 148 155 
230 138 156 121 105 93 
247 801 255 206 154 121 
327 516 258 97 116 142 
204 1017 304 221 185 150 
340 170 354 130 97 82 
323 410 389 183 142 87 
198 361 220 85 57 59 
265 725 457 56 81 147 
263 337 220 103 103 107 
306 785 388 170 182 200 
276 433 215 97 102 112 
211 937 364 170 133 106 
188 389 200 58 105 139 
220 256 339 105 78 104 
194 423 273 54 89 132 
224 110 339 133 104 79 
291 533 203 181 184 214 
329 532 353 170 179 193 
334 152 312 46 59 73 
227 644 204 68 114 152 
225 731 372 92 102 123 
363 246 358 149 144 146 
176 718 254 101 113 126 
210 96 318 89 71 50 
214 90 313 90 72 52 
238 1009 316 160 131 103 
278 199 130 115 86 55 
349 384 382 192 165 140 
288 479 177 114 140 197 
206 169 306 75 63 84 
235 309 197 103 58 49 
296 648 242 149 113 96 
270 253 252 124 120 121 
194 83 262 144 114 85 
240 120 328 104 85 65 
285 188 156 125 124 127 
193 495 297 61 91 126 
319 703 429 80 110 141 
266 184 224 131 58 60 
274 129 233 137 78 7 
182 915 304 71 56 47 
252 504 370 189 183 186 
259 368 187 111 47 57 
283 821 405 184 200 224 
286 219 255 102 35 45 
235 779 226 173 128 89 
354 189 318 122 62 43 
235 140 145 157 136 119 
165 734 271 66 68 76 
173 500 212 128 137 151 
279 412 221 78 96 114 
184 847 328 87 122 152 
165 746 197 102 87 71 
319 349 387 167 146 125 
225 450 182 105 117 132 
221 256 340 109 80 107 
302 792 402 132 144 180 
212 792 215 186 139 97 
195 917 346 156 119 94 
197 587 329 214 196 185 
273 329 151 131 111 125 
189 907 327 155 116 93 
170 592 248 75 127 165 
233 140 148 146 124 107 
186 592 301 124 141 162 
288 630 206 117 95 74 
297 780 337 130 35 57 
234 140 148 148 126 110 
258 264 154 115 96 90 
369 415 343 107 111 144 
173 754 308 101 31 42 
251 871 352 171 124 110 
185 809 353 87 102 120 
271 832 399 116 114 156 
318 242 286 122 121 124 
326 205 293 98 53 33 
279 720 214 125 98 76 
283 478 383 86 118 164 
