ply
format ascii 1.0
comment Created by CloudCompare v2.11.1 (Anoia)
comment Created 2/28/22 9:40 PM
obj_info Generated by CloudCompare!
element vertex 2011
property float x
property float y
property float z
property uchar red
property uchar green
property uchar blue
end_header
255 188 119 100 38 44 
132 768 189 186 160 138 
357 209 349 92 33 43 
300 346 244 106 71 76 
325 472 366 66 101 156 
276 730 428 113 111 124 
351 289 370 162 152 146 
213 634 336 93 95 118 
198 993 262 180 134 97 
355 144 295 129 65 51 
190 551 314 147 157 174 
269 297 147 106 132 157 
206 239 294 103 98 109 
158 543 213 119 138 159 
262 369 172 199 157 107 
370 432 358 160 66 104 
302 641 266 187 178 177 
291 236 261 71 92 110 
395 342 313 103 124 147 
165 483 229 104 118 136 
262 361 172 206 165 114 
174 824 313 158 135 115 
182 760 342 148 156 170 
120 671 108 141 148 161 
313 280 308 56 89 117 
264 270 158 130 127 131 
253 185 125 125 35 19 
221 924 249 64 54 46 
145 761 155 214 193 176 
301 486 157 74 108 196 
310 423 157 139 115 93 
252 187 125 120 32 29 
206 719 174 129 117 113 
316 644 415 118 96 73 
208 565 170 129 143 164 
190 328 279 152 29 82 
198 310 199 101 112 126 
261 259 159 69 80 97 
265 533 353 115 133 160 
284 405 188 63 75 88 
184 701 298 67 117 154 
155 813 223 209 145 114 
215 219 305 104 36 42 
334 430 249 100 115 135 
290 254 111 138 127 132 
271 163 239 118 84 66 
223 940 250 73 57 46 
276 937 321 160 123 94 
346 354 273 136 127 119 
231 469 331 108 116 129 
254 189 123 99 29 40 
276 920 326 133 105 78 
220 462 310 106 121 138 
274 694 189 174 54 48 
321 600 359 127 106 87 
241 156 329 168 76 3 
379 447 280 131 146 166 
277 456 202 64 78 95 
240 63 303 85 68 48 
288 406 332 134 116 97 
309 255 304 118 14 62 
336 551 290 180 178 186 
280 706 210 146 71 46 
297 319 302 63 93 119 
257 58 318 101 78 54 
315 476 235 110 115 127 
288 780 419 178 181 220 
383 256 363 136 132 133 
140 682 141 97 110 125 
127 725 137 226 18 65 
357 221 350 44 31 41 
253 190 125 94 38 38 
310 687 263 95 108 123 
252 190 126 105 33 29 
307 671 276 79 104 131 
327 488 237 74 108 144 
209 768 365 146 148 157 
235 264 178 97 59 76 
315 706 288 123 141 160 
290 680 216 157 123 84 
265 769 252 164 161 165 
131 712 118 174 187 208 
291 397 171 125 126 133 
312 633 357 29 47 79 
313 380 146 180 154 127 
237 587 177 133 150 176 
230 876 273 128 97 65 
253 247 166 74 61 72 
212 442 281 94 113 135 
268 517 351 145 150 163 
249 770 383 17 43 89 
320 635 402 114 94 73 
176 838 253 224 161 123 
188 713 226 75 88 102 
301 563 226 129 134 144 
279 295 132 139 132 138 
284 358 153 190 162 134 
293 792 327 139 133 133 
182 253 282 159 155 157 
184 393 263 138 146 160 
349 157 295 92 55 69 
255 10 304 100 87 74 
165 522 257 134 139 148 
166 797 303 120 97 74 
172 423 239 59 87 132 
307 271 116 122 65 83 
284 408 185 166 141 117 
208 418 275 45 79 121 
247 816 388 169 145 148 
316 644 360 47 46 50 
293 470 228 123 123 129 
173 172 258 108 99 90 
170 483 216 131 136 146 
285 449 162 142 129 121 
245 194 119 51 73 114 
245 195 119 35 61 99 
281 427 184 153 58 4 
223 250 305 112 73 87 
208 954 347 91 74 61 
299 273 304 120 73 24 
282 774 422 231 223 223 
292 236 304 26 64 100 
280 334 145 171 151 132 
185 180 281 85 75 63 
307 303 265 100 58 64 
282 172 94 186 87 27 
233 359 288 149 103 39 
182 408 259 56 90 138 
277 263 308 158 72 5 
250 627 165 158 117 95 
321 316 270 98 88 86 
218 147 279 108 68 49 
235 990 267 137 112 88 
222 696 171 182 52 87 
331 704 366 140 148 166 
130 762 198 134 123 116 
317 179 275 53 48 69 
247 196 119 62 71 102 
191 203 290 154 69 76 
189 827 245 196 144 107 
316 619 354 143 101 84 
275 460 200 66 80 96 
331 687 374 83 106 147 
244 192 120 51 81 126 
203 763 185 132 120 111 
268 212 108 134 54 80 
145 803 242 173 125 93 
231 649 154 101 105 113 
262 955 346 175 128 107 
372 296 370 144 147 154 
142 757 205 122 99 79 
202 710 170 88 83 77 
296 321 240 125 99 72 
303 649 320 102 111 124 
217 208 313 48 62 93 
221 371 281 101 119 139 
283 487 166 56 91 174 
332 733 421 123 149 183 
269 745 377 18 55 112 
180 569 215 71 104 130 
303 376 125 203 145 105 
211 115 268 83 66 47 
305 366 139 143 134 131 
327 194 335 102 92 105 
244 193 124 43 74 113 
155 440 186 95 117 145 
214 281 286 159 159 165 
181 189 287 114 54 62 
359 475 254 92 112 138 
275 288 142 134 137 145 
253 243 187 100 80 81 
383 189 326 151 64 82 
283 389 216 61 80 98 
244 195 125 48 66 93 
244 194 126 45 72 104 
301 219 104 96 90 96 
244 195 126 46 63 91 
369 338 374 190 165 143 
169 562 252 166 155 164 
207 399 191 57 88 113 
369 279 302 151 148 151 
209 620 157 45 90 128 
298 724 262 180 68 36 
260 887 346 133 89 77 
298 525 360 106 124 151 
320 178 304 56 83 104 
216 139 329 122 109 99 
200 772 201 152 111 74 
274 595 201 102 122 151 
397 250 354 83 115 143 
184 77 257 138 106 80 
192 150 270 92 73 52 
241 803 385 114 146 175 
339 123 287 139 86 54 
169 321 226 93 92 95 
232 26 261 119 110 106 
287 689 216 102 73 57 
245 854 323 101 74 45 
274 255 244 101 103 109 
258 667 172 75 95 115 
272 951 301 113 92 75 
215 614 174 30 80 116 
174 819 212 240 158 119 
285 236 120 99 37 58 
276 347 307 115 118 125 
395 343 317 107 130 155 
286 671 362 94 112 159 
242 784 386 34 51 83 
138 718 175 28 43 79 
224 392 183 176 151 126 
241 90 303 93 74 50 
206 210 298 95 68 94 
237 288 181 88 123 152 
192 429 267 54 84 128 
341 358 367 130 31 30 
209 759 189 96 93 99 
244 199 127 51 42 52 
327 644 407 122 96 65 
247 201 119 59 44 64 
305 629 346 61 52 64 
179 547 202 118 121 131 
262 652 184 71 75 81 
243 204 127 68 43 42 
188 509 296 90 109 129 
169 564 239 180 169 165 
373 459 271 109 120 142 
293 204 300 84 29 33 
244 200 123 57 45 60 
266 21 238 128 86 69 
178 986 298 140 112 87 
320 602 311 160 110 100 
245 201 122 55 42 62 
284 398 184 135 118 103 
286 252 120 28 51 96 
324 406 249 51 84 113 
168 510 193 152 163 185 
381 299 303 84 112 138 
288 618 352 73 68 64 
212 699 217 86 91 99 
220 509 166 127 134 149 
307 760 311 194 61 70 
286 622 364 70 86 117 
202 679 150 129 157 189 
307 776 337 98 67 72 
300 663 285 68 69 75 
230 992 263 138 110 83 
339 561 255 175 178 194 
311 663 252 69 59 101 
315 762 422 169 177 202 
205 68 348 140 109 69 
139 759 157 183 153 126 
279 767 276 143 136 152 
322 768 398 117 137 189 
150 781 273 163 135 106 
269 400 194 74 86 103 
332 429 368 116 101 86 
317 763 353 156 166 184 
229 108 299 72 58 44 
227 670 184 89 114 142 
246 293 177 83 123 157 
203 151 319 169 70 8 
183 659 113 207 200 205 
178 821 230 231 168 130 
244 202 126 52 42 55 
324 209 308 132 61 73 
286 432 177 114 51 39 
249 287 175 80 113 143 
314 394 132 207 177 144 
290 269 256 110 108 110 
223 902 355 182 138 113 
212 666 168 131 140 159 
325 570 294 84 144 187 
239 893 355 180 134 106 
326 426 246 59 90 117 
281 841 346 173 165 179 
170 342 231 88 123 155 
361 176 355 107 99 97 
233 780 383 99 121 165 
309 691 263 69 64 64 
296 705 386 165 170 182 
146 787 193 112 90 75 
274 237 247 108 104 104 
289 705 234 126 105 110 
334 528 347 142 159 180 
272 280 235 74 93 111 
290 426 223 119 122 130 
226 640 352 91 120 148 
330 550 236 189 186 190 
309 481 357 104 128 160 
184 777 345 154 20 41 
254 866 302 104 85 64 
245 207 124 115 40 45 
196 936 257 113 88 62 
150 745 142 118 108 131 
228 844 290 150 106 82 
289 524 207 90 104 123 
195 636 283 110 115 124 
288 229 260 82 61 64 
235 34 340 113 101 92 
373 147 310 101 77 84 
198 922 250 79 63 50 
348 537 276 122 144 192 
191 577 191 105 130 157 
336 153 338 128 61 4 
300 646 300 74 88 133 
195 679 307 61 95 127 
259 731 202 162 141 127 
221 846 270 180 133 100 
295 401 330 115 102 90 
135 657 111 66 91 113 
303 628 338 74 63 68 
240 414 177 141 106 72 
333 182 344 64 82 100 
296 321 123 150 146 148 
251 193 112 77 98 121 
235 833 290 155 101 85 
287 217 260 73 43 63 
337 337 273 155 121 77 
271 639 191 174 123 103 
256 27 228 166 145 140 
383 458 308 88 112 157 
197 687 233 62 55 66 
264 625 350 37 50 64 
273 782 280 137 91 46 
294 316 114 188 185 189 
199 910 336 157 120 95 
248 194 116 49 64 105 
165 533 261 132 134 142 
291 511 195 56 91 127 
332 711 368 160 165 178 
179 630 141 129 137 151 
226 338 184 87 108 130 
286 478 161 81 116 188 
187 489 165 109 129 181 
168 499 205 138 144 157 
264 891 347 170 125 103 
251 198 115 64 83 118 
293 503 188 97 118 144 
178 703 157 95 102 118 
168 636 132 106 116 130 
244 413 176 148 98 44 
353 123 296 117 87 71 
322 483 367 138 156 179 
182 562 205 150 144 146 
157 734 251 108 16 38 
231 759 209 122 87 61 
384 353 366 129 142 160 
226 461 321 78 101 127 
178 171 267 97 89 81 
300 771 316 183 142 93 
288 481 158 66 115 177 
195 648 245 86 106 126 
241 765 381 131 130 133 
289 781 304 162 135 144 
246 896 280 104 76 40 
371 490 273 98 120 157 
250 199 117 45 51 82 
251 198 116 72 88 121 
293 693 244 113 6 15 
247 266 212 99 92 88 
131 774 199 210 178 146 
281 750 270 112 104 100 
255 59 324 111 87 67 
337 395 369 189 160 131 
272 188 99 135 72 96 
332 268 336 68 105 138 
168 718 278 123 89 89 
387 425 336 131 143 162 
307 607 372 108 93 81 
221 824 369 148 33 56 
193 643 266 100 114 131 
172 671 107 81 108 136 
213 861 329 96 61 45 
249 552 353 164 171 184 
263 904 339 169 128 110 
312 318 263 98 32 46 
277 249 122 50 49 81 
252 199 115 52 67 107 
163 407 175 139 148 162 
227 372 181 167 145 123 
192 865 316 180 135 104 
284 488 347 126 139 159 
289 618 214 105 90 74 
182 663 292 71 104 132 
305 516 188 102 121 151 
341 140 334 91 79 68 
258 52 322 105 84 61 
222 672 156 108 155 194 
199 940 346 88 72 59 
268 229 313 81 49 45 
206 782 211 186 136 98 
161 432 194 83 106 144 
182 663 285 71 104 137 
264 751 376 23 58 116 
269 441 200 85 88 101 
314 461 356 68 106 154 
173 647 276 141 146 157 
189 173 272 88 78 68 
190 367 273 83 108 141 
280 467 200 59 72 90 
211 976 331 100 82 67 
310 748 322 74 104 157 
253 194 127 82 38 52 
224 669 195 56 112 154 
253 195 127 73 40 59 
377 400 276 91 112 136 
296 365 320 97 106 117 
262 163 315 112 122 132 
346 379 266 84 109 133 
163 825 240 221 162 128 
147 792 204 207 167 128 
313 747 305 116 44 93 
210 204 199 125 63 70 
330 191 326 139 97 83 
172 461 210 98 117 140 
255 195 124 81 35 48 
216 653 187 89 95 115 
253 645 186 47 44 45 
389 190 338 128 86 73 
316 395 345 166 69 5 
163 772 163 101 107 118 
319 295 314 117 80 83 
256 782 253 205 153 124 
270 939 293 100 86 73 
201 511 163 97 122 163 
321 355 340 145 24 75 
184 64 272 95 76 53 
175 540 204 99 113 132 
354 529 326 200 199 205 
361 507 262 84 97 146 
160 433 193 84 105 141 
166 448 172 116 133 163 
193 648 123 86 80 74 
341 521 346 158 174 196 
372 323 292 149 144 144 
247 78 324 116 89 72 
277 299 130 168 168 176 
272 403 180 152 130 107 
279 598 203 168 170 181 
254 299 217 82 95 109 
202 238 204 66 90 111 
248 50 340 125 102 87 
197 272 207 62 87 110 
153 744 246 46 33 57 
128 742 169 123 112 104 
245 540 352 105 127 163 
288 284 114 93 123 150 
245 982 280 88 66 59 
355 271 298 131 123 123 
334 143 310 96 103 111 
293 695 448 98 116 135 
224 126 330 124 100 73 
342 537 336 107 133 177 
288 170 108 120 105 94 
183 689 295 76 101 130 
212 376 190 90 113 138 
214 967 263 118 85 60 
199 720 188 56 57 63 
274 442 342 158 156 161 
303 298 304 133 134 142 
254 678 162 107 166 221 
262 493 350 166 166 175 
266 219 112 158 49 77 
375 208 313 90 86 85 
210 801 229 196 144 106 
303 217 107 91 86 88 
301 369 123 185 37 72 
278 751 433 106 122 179 
287 715 255 118 68 70 
300 664 428 120 98 74 
257 125 246 136 84 50 
331 747 391 112 134 190 
258 8 245 95 78 69 
198 888 261 112 82 55 
308 614 263 139 123 131 
357 249 361 75 96 113 
231 812 257 196 135 109 
343 538 247 123 137 157 
253 200 114 46 60 98 
396 269 339 119 131 147 
234 820 267 207 143 118 
175 931 303 102 86 71 
310 460 353 161 166 177 
306 453 348 105 126 152 
274 371 176 194 160 121 
192 979 269 89 72 54 
234 408 313 117 129 145 
172 527 200 86 100 132 
271 243 312 127 17 59 
173 754 311 98 86 91 
255 202 113 80 98 126 
357 326 284 145 134 128 
271 916 334 84 71 58 
340 237 292 134 130 131 
264 434 176 141 113 84 
277 252 248 110 108 109 
376 426 355 133 42 42 
330 306 277 96 108 123 
180 649 276 135 139 150 
160 827 277 195 147 120 
322 736 361 69 104 160 
360 122 296 116 86 70 
228 998 265 133 102 76 
232 127 268 96 73 52 
302 330 115 156 164 178 
197 611 206 107 78 95 
196 333 200 86 110 132 
336 549 293 173 172 180 
274 27 298 151 133 125 
312 374 249 70 86 103 
307 533 189 98 116 181 
183 957 289 98 67 43 
253 204 117 75 50 78 
243 858 304 98 74 50 
308 526 188 111 136 180 
225 186 325 96 36 66 
253 207 117 66 49 75 
142 756 152 217 169 121 
252 206 119 65 49 72 
290 559 197 171 173 193 
224 702 360 52 91 124 
258 211 115 71 46 76 
240 655 155 54 82 107 
293 400 231 72 88 106 
256 827 319 171 151 137 
249 966 346 97 79 65 
294 376 323 124 125 129 
348 157 295 109 57 62 
214 427 180 68 97 123 
258 615 192 83 82 84 
226 612 345 130 100 116 
239 748 204 130 138 152 
322 609 369 127 103 78 
337 534 240 145 159 185 
194 481 166 134 139 162 
128 693 147 53 83 111 
169 598 243 114 122 135 
190 575 189 137 147 162 
278 295 133 135 127 136 
399 331 345 180 153 126 
248 207 121 75 40 61 
358 527 316 116 132 171 
252 345 300 93 111 130 
233 674 158 108 167 228 
280 464 173 39 82 149 
248 207 122 91 39 58 
334 175 342 92 61 45 
162 641 118 93 114 135 
280 470 172 39 87 170 
164 271 253 123 112 103 
275 848 350 146 96 93 
351 520 284 95 113 171 
255 201 123 88 38 47 
165 817 211 228 153 120 
273 307 139 100 121 144 
299 696 389 23 55 138 
363 452 258 123 134 153 
310 443 143 161 108 154 
346 338 276 164 122 80 
250 217 226 96 57 65 
249 671 159 121 146 171 
253 203 127 86 37 39 
144 783 247 140 122 107 
308 376 123 236 198 145 
298 268 113 145 70 94 
182 880 301 153 115 82 
271 318 158 112 115 131 
224 893 268 86 68 47 
193 532 323 100 117 141 
225 490 339 62 95 140 
249 16 341 100 86 74 
212 557 168 69 97 160 
310 291 269 115 115 120 
260 677 164 109 132 156 
176 348 217 70 67 82 
254 203 127 88 40 42 
325 709 359 164 172 190 
295 817 384 168 185 207 
196 710 335 158 155 160 
253 241 131 125 71 80 
196 345 201 79 107 135 
334 214 351 149 66 79 
282 586 203 71 107 148 
271 18 229 115 85 58 
218 265 191 137 88 70 
301 575 206 132 155 189 
301 649 266 73 128 167 
178 383 198 33 82 123 
300 752 437 161 168 213 
360 305 292 162 158 160 
191 648 123 89 81 75 
282 813 398 166 187 212 
269 311 158 141 48 76 
342 413 256 95 113 134 
185 89 263 131 89 79 
335 260 343 90 128 157 
248 76 323 113 86 68 
204 706 215 79 88 99 
194 634 255 128 133 145 
221 67 345 133 105 88 
216 501 339 147 147 154 
378 327 294 149 143 143 
216 1008 267 114 87 68 
282 457 167 55 89 150 
276 135 235 117 72 30 
244 209 127 117 42 58 
273 161 310 108 114 119 
234 785 383 70 99 160 
177 956 305 130 104 78 
303 148 298 106 95 86 
249 454 177 106 111 126 
301 649 269 88 121 148 
275 355 173 226 180 121 
319 600 306 155 106 100 
185 510 187 130 138 154 
319 653 383 126 87 71 
178 566 278 139 157 181 
218 138 291 89 64 47 
253 476 180 169 166 171 
356 181 303 120 58 40 
273 945 335 200 151 128 
225 97 300 74 57 37 
342 539 246 146 162 184 
190 713 171 80 99 121 
207 537 165 97 122 170 
273 131 287 86 64 41 
239 15 324 79 67 54 
314 354 126 143 142 147 
293 489 350 172 172 179 
292 745 441 159 169 205 
146 786 194 115 82 59 
328 654 392 136 96 67 
261 197 121 88 41 40 
325 308 331 103 110 123 
370 403 271 101 116 134 
287 364 142 194 165 135 
361 490 343 160 161 171 
254 499 349 168 170 181 
198 651 123 79 89 100 
200 622 210 104 115 130 
371 144 367 139 84 8 
235 146 331 116 101 91 
168 478 221 98 111 130 
292 804 335 125 115 112 
320 578 332 77 129 169 
261 751 373 80 107 135 
190 464 164 59 91 124 
170 611 255 73 107 140 
301 642 274 100 75 67 
164 485 185 150 156 178 
163 287 253 72 118 156 
253 209 119 75 43 67 
248 987 296 112 88 67 
289 13 308 127 100 80 
331 259 328 140 14 63 
163 695 107 146 172 207 
244 308 178 87 92 105 
224 862 272 145 109 79 
367 424 266 161 155 155 
153 745 244 50 31 67 
262 125 257 142 92 44 
226 469 324 89 104 128 
287 480 201 59 78 97 
182 589 257 79 112 142 
318 428 352 161 147 139 
302 636 273 176 166 166 
207 543 337 101 126 170 
293 392 165 142 140 145 
179 924 284 74 58 48 
174 352 214 89 73 82 
326 360 352 142 22 73 
326 396 253 55 85 113 
149 705 164 98 104 115 
240 632 345 77 98 127 
256 235 229 108 105 106 
323 505 235 146 154 177 
311 557 351 42 77 141 
274 272 307 127 119 114 
244 873 278 155 122 91 
275 389 326 126 86 96 
231 570 171 135 142 167 
334 297 344 156 155 161 
362 159 373 152 87 45 
312 466 166 140 150 166 
350 451 367 75 103 167 
159 488 199 112 126 147 
178 279 220 113 37 58 
258 964 278 117 98 83 
300 439 150 160 31 79 
124 669 125 63 94 122 
312 700 292 128 142 159 
210 613 169 63 101 142 
289 404 331 148 132 118 
255 637 347 40 57 116 
204 938 253 80 63 49 
225 670 199 44 101 145 
186 492 172 97 120 152 
173 728 181 47 64 76 
218 65 267 106 86 71 
207 346 190 148 143 144 
234 604 345 108 134 173 
177 725 150 100 116 136 
264 271 158 130 128 131 
251 213 121 129 42 69 
300 806 347 150 62 53 
129 748 185 92 89 88 
245 221 203 110 73 73 
251 556 178 136 147 165 
206 548 335 170 168 173 
291 482 180 56 87 130 
265 923 280 95 70 55 
243 332 176 134 133 139 
255 493 181 160 164 178 
181 808 337 99 90 88 
141 781 227 103 81 55 
161 724 133 163 132 87 
396 273 336 96 109 124 
387 288 311 96 95 103 
296 665 367 59 83 135 
203 528 336 99 125 156 
235 618 181 82 78 77 
279 720 366 96 124 150 
181 235 280 105 102 116 
211 694 344 157 154 158 
249 968 268 171 137 101 
258 260 170 58 86 111 
363 501 336 188 184 188 
325 383 354 170 143 115 
160 744 145 156 114 138 
260 331 168 166 50 72 
196 696 230 69 85 100 
161 561 227 126 138 155 
339 538 339 183 185 196 
339 317 279 146 105 61 
236 993 310 115 89 66 
274 915 318 146 118 88 
385 235 320 144 141 141 
310 784 346 148 167 189 
228 263 185 118 90 76 
310 336 119 167 173 187 
289 314 125 119 130 145 
345 480 246 94 117 147 
253 213 121 132 54 70 
280 342 157 174 140 102 
346 467 365 80 108 164 
261 300 304 79 134 175 
304 293 115 183 182 189 
207 996 311 90 64 50 
291 262 114 132 72 86 
205 374 276 77 99 138 
286 302 240 95 100 108 
191 963 279 122 83 57 
239 91 327 107 86 64 
252 784 249 211 157 124 
243 860 283 155 118 84 
169 819 214 242 160 118 
298 504 225 92 103 118 
264 630 355 83 106 129 
189 502 176 120 134 156 
279 170 117 106 97 89 
297 139 249 111 96 85 
204 680 159 80 121 159 
316 375 251 76 90 105 
397 309 330 106 127 150 
253 227 153 68 40 42 
358 420 370 163 82 20 
354 471 357 89 114 171 
249 781 388 56 87 117 
389 333 303 138 135 138 
309 595 279 122 102 110 
288 362 170 98 110 124 
311 331 258 88 91 98 
320 548 346 101 117 160 
376 285 305 100 121 142 
270 779 417 73 96 183 
256 606 195 82 85 90 
197 604 292 163 158 161 
327 282 324 155 153 158 
320 136 268 132 67 0 
270 584 195 84 116 158 
239 871 273 142 104 71 
251 219 125 157 66 73 
250 219 126 156 77 80 
330 304 339 109 126 145 
220 335 282 175 130 70 
213 698 217 87 92 100 
152 790 187 195 148 110 
250 221 126 170 55 56 
268 335 177 114 88 75 
307 477 171 104 125 155 
250 222 127 172 61 50 
312 375 125 203 169 132 
285 607 209 94 122 170 
377 246 308 155 70 4 
175 603 247 132 138 149 
207 216 202 126 90 77 
214 644 184 61 99 137 
212 972 336 93 76 64 
189 669 274 104 125 148 
253 217 122 142 36 61 
243 725 366 103 109 120 
201 461 272 69 95 135 
319 344 333 177 153 131 
173 733 187 101 36 37 
236 233 170 90 50 84 
254 216 120 140 48 74 
240 405 317 64 97 130 
169 816 205 238 153 116 
237 351 291 130 97 59 
370 395 271 117 127 142 
295 404 330 139 123 108 
282 718 430 135 137 144 
278 27 327 150 136 129 
171 795 182 222 155 114 
201 513 330 116 131 151 
271 557 192 167 168 178 
367 481 263 162 164 172 
258 226 130 127 30 40 
285 663 360 87 109 152 
296 705 381 36 60 146 
207 598 178 90 110 130 
200 68 322 96 77 55 
137 687 145 79 95 111 
277 326 152 180 154 128 
237 851 287 154 109 85 
206 134 305 112 89 74 
246 148 328 105 93 84 
186 693 155 108 100 119 
146 767 265 99 97 98 
255 257 148 153 28 73 
288 203 258 36 46 65 
273 437 340 101 115 137 
297 640 245 112 80 82 
273 734 424 102 122 151 
324 134 289 105 63 9 
205 575 171 134 153 186 
284 439 177 83 72 63 
198 408 271 78 102 133 
319 284 276 101 112 126 
192 661 271 61 89 126 
192 329 205 130 127 128 
273 417 192 75 81 94 
190 576 198 131 138 151 
349 136 328 107 60 5 
268 248 238 103 106 112 
256 234 144 116 30 21 
295 819 350 158 92 107 
327 126 273 144 79 34 
349 335 279 156 113 58 
307 473 232 107 112 121 
329 507 362 99 127 165 
125 719 158 128 46 63 
251 225 127 182 65 59 
266 852 357 160 154 154 
210 113 266 82 67 50 
300 656 378 64 97 161 
263 554 185 94 120 156 
256 301 301 86 134 173 
253 225 126 184 61 59 
246 438 331 83 104 132 
352 505 248 131 146 167 
249 958 259 136 107 78 
245 973 343 100 85 72 
210 486 322 113 119 131 
339 133 293 122 65 5 
217 118 308 79 71 63 
302 392 137 199 166 131 
321 313 325 101 71 62 
214 738 184 180 145 105 
282 719 439 105 122 155 
136 746 145 164 134 99 
254 225 126 185 61 57 
204 733 176 183 172 169 
215 51 320 78 70 62 
261 319 219 93 97 105 
225 415 300 103 115 136 
353 471 358 81 106 166 
313 384 248 55 80 100 
238 833 294 154 100 83 
287 802 328 122 106 92 
291 698 246 108 81 68 
303 650 261 71 113 150 
285 805 403 173 179 217 
382 195 367 137 94 98 
255 228 125 185 57 55 
260 232 134 127 22 25 
177 612 251 64 90 136 
354 377 268 104 124 144 
226 466 324 104 116 135 
198 947 261 107 82 55 
260 491 180 101 127 174 
367 512 319 124 137 184 
329 511 360 127 142 173 
206 51 337 109 103 98 
265 752 404 41 76 127 
289 753 437 205 204 218 
240 784 235 196 146 109 
129 732 174 115 20 35 
396 266 340 149 148 153 
254 233 127 137 76 95 
350 132 300 124 63 5 
158 730 250 105 31 33 
394 379 335 144 129 117 
187 561 190 133 138 149 
215 129 304 85 74 65 
232 435 318 149 148 154 
191 62 344 115 108 105 
162 640 126 106 119 135 
234 54 342 122 98 77 
287 441 160 131 118 109 
163 722 179 76 43 41 
164 440 172 107 126 159 
168 486 244 94 115 137 
356 502 343 181 179 185 
299 805 394 161 155 196 
239 688 170 74 87 124 
198 573 320 153 157 169 
314 263 306 121 122 128 
181 943 278 114 88 71 
294 372 152 138 130 126 
210 237 296 130 21 65 
190 508 299 95 112 131 
334 305 346 155 155 162 
184 638 268 109 124 145 
201 503 324 94 111 137 
372 450 348 111 124 158 
172 362 233 135 142 155 
256 687 169 150 181 217 
256 181 104 123 134 149 
272 945 301 99 79 66 
323 155 301 128 64 3 
197 424 174 54 81 103 
341 719 401 100 117 147 
225 777 221 178 129 91 
326 380 257 50 78 107 
371 326 291 141 138 140 
215 160 322 129 130 133 
332 665 420 131 99 66 
223 951 354 155 121 106 
313 122 262 126 108 93 
313 462 156 185 186 196 
197 759 179 131 124 120 
280 354 223 103 104 109 
177 618 259 64 106 139 
316 170 271 106 40 25 
302 729 267 126 27 40 
302 447 233 88 99 113 
199 232 207 114 85 74 
230 695 360 63 88 120 
215 674 223 95 101 111 
289 121 251 146 119 96 
309 703 296 132 148 169 
165 826 239 230 168 128 
222 343 282 169 126 73 
187 133 255 103 84 63 
213 1010 296 109 87 64 
143 778 238 129 103 72 
318 709 332 89 113 167 
179 585 254 165 159 160 
189 128 249 93 79 63 
234 290 183 72 105 135 
383 349 291 117 121 130 
189 128 251 95 80 63 
152 815 245 203 149 116 
199 167 276 59 49 37 
238 357 177 161 137 113 
267 243 314 125 11 56 
165 259 252 101 34 44 
162 732 278 128 29 44 
189 131 250 94 79 63 
329 690 364 131 148 169 
202 314 282 163 92 105 
190 128 249 93 78 63 
282 187 125 115 75 42 
156 412 188 56 93 141 
227 11 256 68 54 38 
234 25 333 92 78 65 
165 639 133 113 121 132 
215 843 268 167 122 90 
210 473 301 136 140 150 
304 551 202 121 136 154 
257 732 365 56 82 114 
237 873 349 162 121 101 
188 128 255 99 81 62 
283 432 340 110 128 151 
249 289 305 83 134 173 
289 257 112 135 119 124 
129 666 93 44 94 128 
174 401 237 121 131 145 
214 248 297 153 151 153 
165 589 238 63 114 151 
282 730 396 42 73 124 
206 203 300 113 37 38 
303 328 116 109 138 166 
317 382 138 193 164 134 
188 131 255 102 83 62 
238 805 256 208 152 128 
295 773 423 122 146 205 
265 511 350 162 161 169 
223 615 181 66 87 105 
214 577 175 111 126 156 
341 552 262 113 148 185 
262 37 337 134 94 87 
275 280 128 111 92 85 
148 751 147 139 104 90 
183 337 273 163 64 104 
219 607 343 81 125 160 
267 304 158 151 136 123 
219 632 347 155 155 162 
337 725 418 110 126 168 
183 314 273 115 118 126 
326 704 447 172 119 92 
298 698 395 108 136 169 
184 433 260 109 128 147 
313 649 350 151 157 169 
392 380 305 90 112 142 
368 149 349 138 71 7 
313 127 278 98 90 84 
181 770 337 70 33 44 
318 577 277 111 61 93 
313 475 164 149 162 188 
370 188 314 147 75 58 
222 600 185 86 89 94 
376 234 308 162 137 111 
287 484 347 98 118 155 
266 557 354 147 155 169 
188 134 253 102 84 64 
186 855 316 188 143 115 
264 753 406 73 96 138 
175 930 324 118 99 82 
167 640 136 102 112 125 
238 80 330 133 105 89 
187 143 245 93 80 67 
121 714 137 168 183 204 
237 643 350 94 107 122 
199 180 302 52 43 57 
331 176 313 119 85 95 
257 184 116 101 40 39 
295 572 217 97 106 118 
188 676 116 109 138 169 
194 817 350 149 131 123 
389 415 303 93 113 150 
331 250 325 140 62 88 
183 742 340 151 152 159 
334 362 361 140 27 63 
234 986 266 118 97 76 
204 1011 304 167 141 118 
297 274 263 114 112 114 
248 470 344 100 115 135 
209 154 272 77 75 75 
392 377 348 172 99 35 
200 623 143 23 60 115 
188 713 325 135 136 143 
270 153 310 150 72 3 
220 564 346 180 183 194 
200 475 282 144 145 153 
189 138 247 94 79 64 
256 945 265 101 81 60 
224 655 143 76 94 111 
329 163 282 133 41 20 
311 437 143 177 149 137 
283 505 167 136 154 200 
291 373 142 159 40 71 
360 247 357 119 45 79 
229 674 181 149 151 159 
172 512 193 156 162 187 
290 308 301 93 106 122 
255 966 275 94 76 65 
236 801 382 162 170 185 
190 139 244 95 81 68 
127 665 115 87 95 105 
205 851 338 133 130 135 
174 705 272 129 139 154 
367 507 302 200 205 216 
299 814 359 174 59 51 
200 466 272 115 131 150 
272 738 408 43 79 116 
257 904 278 157 105 84 
266 752 414 69 96 142 
275 485 347 106 122 153 
186 785 184 170 126 90 
208 891 344 165 125 98 
166 802 189 219 148 109 
295 507 188 111 125 143 
248 940 360 185 137 111 
354 246 363 104 75 88 
251 172 323 138 37 21 
189 339 213 98 80 78 
305 411 338 105 94 85 
196 406 185 99 108 119 
234 198 327 34 59 110 
242 792 388 73 122 160 
251 442 176 140 125 112 
395 239 357 100 97 99 
263 189 118 75 36 51 
203 684 155 175 105 109 
185 641 130 93 83 74 
220 708 359 110 126 145 
216 133 298 84 68 55 
301 540 226 97 113 133 
345 544 316 205 203 210 
260 246 125 120 84 85 
289 352 161 155 148 146 
225 694 170 156 86 92 
244 260 318 181 172 169 
325 594 253 191 191 202 
246 847 335 114 101 91 
237 790 239 199 146 112 
218 560 170 159 163 176 
170 513 262 99 113 132 
324 581 241 119 141 180 
304 641 410 113 95 77 
339 560 253 132 144 167 
187 139 252 104 85 64 
221 1009 287 114 89 66 
292 664 363 68 92 143 
292 717 261 159 57 21 
393 234 341 100 88 99 
248 237 167 87 22 37 
162 294 245 78 116 151 
139 789 220 163 138 126 
364 399 371 196 164 131 
155 724 126 145 17 50 
352 292 371 189 165 141 
264 231 119 175 91 68 
297 252 304 112 23 61 
232 876 351 149 114 89 
296 493 180 84 106 136 
305 488 159 139 164 213 
252 780 396 117 135 160 
281 242 253 95 86 81 
303 751 282 166 31 48 
324 575 237 198 198 206 
228 86 336 117 95 72 
225 326 283 144 126 109 
280 353 169 225 182 129 
353 237 360 66 53 73 
358 139 366 118 105 93 
165 256 252 84 28 45 
185 369 204 81 84 91 
353 501 249 150 159 178 
296 385 141 209 172 127 
186 625 148 31 85 133 
327 310 337 111 132 155 
253 207 228 99 88 79 
241 130 273 89 68 49 
297 693 369 102 127 155 
261 218 122 39 47 94 
169 776 167 173 155 148 
230 445 319 131 140 155 
177 815 323 117 91 73 
269 11 314 123 111 102 
319 131 286 103 76 50 
372 145 307 83 60 80 
165 265 258 136 131 130 
290 321 128 124 133 146 
205 513 334 138 143 156 
316 609 293 142 104 91 
266 244 123 83 80 96 
169 724 291 138 47 50 
329 187 327 132 74 70 
365 382 372 195 164 133 
283 720 415 51 63 98 
234 31 338 100 86 72 
296 634 371 77 120 158 
243 256 166 94 82 97 
321 700 354 75 123 159 
302 313 250 79 90 101 
390 227 365 148 103 87 
311 749 318 192 23 59 
314 387 248 57 81 101 
270 744 398 36 74 110 
392 319 311 148 143 143 
384 182 358 96 106 118 
326 644 407 122 96 65 
176 954 303 118 93 66 
197 659 243 71 94 127 
315 371 337 177 153 131 
258 270 225 109 108 111 
245 226 169 117 13 33 
229 656 147 61 81 102 
367 358 278 118 124 134 
332 167 307 130 57 12 
313 321 127 76 116 148 
274 126 229 141 79 12 
283 568 201 70 84 154 
267 309 224 99 100 105 
192 961 274 161 120 79 
272 322 172 101 107 119 
181 584 262 128 138 152 
255 849 344 188 148 98 
315 608 292 127 98 84 
300 659 376 74 118 152 
234 711 185 180 171 167 
331 294 338 154 154 161 
275 950 314 111 85 67 
207 605 328 164 162 168 
274 358 315 133 135 144 
236 521 168 139 145 161 
284 653 356 82 97 116 
184 684 261 148 146 150 
330 339 270 129 78 87 
181 937 331 89 72 58 
193 220 288 109 98 104 
303 576 208 114 151 188 
191 578 192 104 129 156 
287 403 331 153 141 133 
275 329 160 165 137 104 
389 419 328 98 115 147 
287 337 159 158 148 143 
153 675 142 81 98 122 
207 663 165 68 92 151 
202 668 159 38 70 138 
300 629 243 140 132 137 
225 234 184 125 69 68 
259 379 203 68 80 97 
191 649 284 70 111 142 
395 360 349 188 159 129 
257 295 180 85 98 112 
163 581 236 147 148 159 
170 317 229 51 87 116 
215 654 341 150 152 161 
233 913 260 71 60 49 
331 281 336 154 152 156 
193 966 277 109 80 54 
190 152 238 116 96 76 
255 358 173 188 132 91 
275 332 224 99 102 109 
251 254 155 146 46 70 
162 485 199 52 83 140 
274 178 245 114 47 58 
221 895 265 77 62 45 
231 852 318 60 38 39 
273 707 356 83 110 135 
192 899 260 92 66 49 
206 483 303 123 130 142 
206 612 320 149 152 162 
356 325 284 142 135 132 
256 261 196 89 95 105 
303 783 338 98 56 83 
277 229 251 71 77 89 
181 648 154 29 55 96 
263 212 111 115 44 69 
315 579 333 65 110 145 
317 585 324 71 112 144 
216 152 277 96 78 75 
381 162 325 72 91 109 
189 562 182 90 117 144 
254 497 349 138 145 169 
253 131 284 75 60 45 
197 433 170 56 84 110 
307 758 300 163 29 77 
205 441 174 77 101 122 
305 537 228 94 106 122 
307 779 339 138 143 152 
303 807 355 152 174 199 
360 414 370 190 93 2 
159 453 195 74 101 138 
191 156 236 114 97 78 
226 800 237 193 140 108 
193 598 207 81 124 157 
239 327 287 120 134 153 
321 506 234 173 172 181 
184 705 300 62 112 147 
255 293 306 81 133 172 
273 672 177 96 126 154 
190 575 295 122 138 163 
309 333 131 61 81 104 
399 328 344 174 156 141 
309 672 331 98 125 157 
381 383 281 78 104 127 
294 779 417 189 196 217 
299 430 150 150 129 109 
282 440 183 111 98 88 
320 619 359 145 102 85 
330 166 306 130 48 8 
263 799 286 169 142 120 
160 729 269 56 50 87 
294 534 217 83 97 116 
266 211 120 42 43 53 
178 217 283 45 106 145 
166 479 238 120 130 146 
259 762 397 94 111 130 
264 772 255 102 95 94 
370 203 361 134 36 71 
183 688 295 73 106 132 
236 619 172 111 100 93 
284 208 257 30 58 87 
331 208 285 50 59 80 
340 320 359 155 143 134 
221 225 313 119 32 34 
156 644 117 99 116 135 
152 686 145 87 100 116 
292 436 185 62 88 115 
189 105 263 121 98 72 
302 716 455 80 118 179 
325 556 235 154 162 182 
262 168 120 74 61 51 
285 313 121 174 176 186 
203 428 272 99 118 141 
317 641 369 116 87 75 
195 859 253 161 124 93 
300 366 122 178 77 103 
368 353 280 160 151 147 
306 607 371 111 96 83 
372 495 276 126 145 180 
219 658 198 61 113 150 
325 558 307 115 122 135 
208 100 317 90 72 52 
394 380 339 165 113 89 
304 530 183 172 181 210 
388 210 364 109 112 120 
217 674 223 92 99 110 
211 839 266 180 130 97 
259 23 225 114 92 88 
173 445 212 116 127 143 
288 534 179 115 141 200 
385 324 370 161 132 100 
290 368 319 106 115 127 
365 306 294 141 138 139 
221 501 341 117 126 143 
311 609 274 116 91 81 
233 234 174 141 56 79 
183 634 266 103 118 142 
182 868 304 178 132 103 
307 545 197 139 159 186 
390 404 304 98 115 147 
182 458 256 138 146 158 
201 602 195 53 95 128 
182 152 250 102 84 64 
310 419 343 109 96 89 
237 800 249 203 149 120 
329 280 283 126 128 135 
282 901 286 142 117 91 
270 851 358 55 42 75 
292 645 361 42 69 137 
249 127 265 83 69 55 
269 325 223 100 99 103 
182 851 266 198 151 120 
399 314 343 158 157 164 
185 908 309 107 84 66 
173 229 278 102 55 85 
209 786 366 146 161 181 
299 219 266 91 41 52 
293 537 183 94 117 184 
276 514 180 109 142 196 
197 644 239 110 115 126 
182 427 175 66 97 124 
298 614 367 118 99 82 
331 448 244 112 126 146 
236 112 298 82 67 51 
364 460 354 98 118 165 
180 639 268 119 131 150 
303 227 301 55 65 81 
140 755 152 186 154 129 
384 450 299 96 115 158 
155 796 193 198 136 103 
233 844 285 145 92 71 
207 229 296 143 37 46 
183 627 135 96 121 146 
182 153 253 106 87 65 
231 994 264 132 100 71 
214 1009 284 123 101 79 
182 154 252 106 87 66 
269 366 316 128 126 130 
347 482 247 157 159 169 
291 266 259 111 109 110 
264 9 247 106 92 84 
134 735 136 91 74 107 
170 565 243 116 125 145 
288 168 252 82 66 79 
181 158 248 100 83 66 
277 491 176 102 124 156 
209 745 182 188 153 116 
145 775 254 151 122 86 
339 132 282 153 73 0 
212 55 347 103 90 78 
270 446 202 69 83 98 
191 717 176 95 107 124 
378 224 312 102 52 61 
260 867 318 134 108 79 
235 44 260 108 85 68 
294 507 221 73 91 110 
155 667 145 75 104 137 
223 777 376 182 176 180 
180 156 253 107 87 65 
255 332 181 93 81 82 
356 129 300 115 65 8 
252 795 398 92 111 157 
292 308 114 174 172 178 
250 325 291 137 135 140 
263 929 352 185 140 114 
215 903 255 65 53 41 
346 220 358 132 83 56 
235 47 259 109 86 68 
296 509 188 111 124 147 
261 285 168 145 143 146 
288 329 137 131 124 130 
189 793 351 191 156 115 
299 603 358 119 102 89 
272 174 243 116 64 53 
387 430 296 90 111 148 
145 650 112 113 124 138 
261 247 319 118 69 92 
248 851 341 153 121 85 
391 378 349 181 80 18 
219 767 212 162 116 80 
275 459 200 67 81 97 
289 321 237 117 93 68 
180 961 303 124 95 70 
337 142 319 107 88 69 
248 883 350 180 133 111 
218 433 180 74 96 117 
176 798 324 122 111 104 
274 919 285 142 113 88 
167 840 273 202 147 120 
308 599 362 98 89 83 
287 304 123 117 104 94 
362 394 267 113 123 140 
198 620 211 91 110 133 
274 899 304 123 93 66 
187 146 244 92 80 68 
207 814 363 139 98 95 
213 532 346 131 144 162 
228 53 340 90 72 53 
298 310 301 78 92 107 
207 412 184 86 106 126 
187 148 243 92 80 67 
144 779 243 91 75 64 
195 134 269 83 66 44 
315 361 128 182 153 125 
186 150 243 92 79 67 
178 416 255 102 119 138 
316 416 348 146 136 130 
191 691 124 199 216 242 
292 373 158 148 147 153 
208 234 295 133 26 56 
265 970 333 87 70 57 
191 137 267 101 80 58 
191 568 181 108 127 150 
236 19 325 84 70 56 
200 640 233 143 143 149 
195 951 263 112 87 59 
287 789 413 131 144 203 
268 285 230 72 90 107 
222 758 372 160 157 161 
284 659 199 80 92 105 
338 535 294 66 96 151 
212 619 162 25 60 93 
124 718 149 149 30 39 
293 262 261 118 115 115 
198 144 299 113 70 54 
288 477 223 87 100 127 
234 53 341 116 94 74 
309 465 152 179 187 211 
186 906 259 95 71 45 
244 216 208 120 63 74 
349 508 246 126 139 160 
242 425 325 83 113 143 
264 407 175 191 161 131 
373 323 374 159 46 87 
191 520 176 74 99 141 
371 420 268 149 145 147 
313 420 138 179 151 132 
198 648 166 104 124 157 
289 712 416 109 115 126 
348 231 361 72 98 121 
301 197 298 112 49 48 
380 471 316 112 123 152 
317 695 320 113 134 162 
193 166 286 61 60 63 
240 241 322 165 39 21 
183 82 262 130 93 76 
241 661 355 41 66 106 
140 654 105 90 112 135 
392 336 309 152 150 154 
168 778 168 172 154 145 
309 355 252 90 94 100 
308 674 280 120 84 90 
184 396 262 93 118 150 
256 288 308 145 81 94 
382 453 291 114 134 164 
199 439 270 56 83 131 
180 922 276 77 60 46 
332 285 337 150 150 157 
130 705 114 124 136 190 
174 655 113 92 82 73 
302 634 331 108 117 153 
179 942 281 114 90 68 
226 787 226 187 136 100 
170 354 228 129 140 157 
267 295 155 115 134 155 
231 203 326 30 64 121 
248 311 292 167 168 177 
242 294 179 74 107 140 
271 763 261 182 158 136 
152 677 141 37 65 115 
323 295 322 118 135 154 
232 893 270 93 71 48 
308 702 302 122 140 161 
258 429 174 169 72 0 
181 713 235 87 95 106 
371 237 355 97 63 57 
200 636 228 133 140 152 
328 194 313 105 97 103 
294 224 103 81 105 129 
285 379 170 174 43 67 
348 202 297 123 39 28 
221 177 323 88 49 41 
299 686 376 79 116 166 
299 655 335 61 83 117 
168 543 270 200 186 178 
210 44 258 77 67 59 
330 178 323 127 57 76 
392 277 319 144 140 142 
182 650 118 91 83 76 
174 278 225 108 55 83 
180 643 153 43 101 140 
257 902 278 154 112 82 
185 362 209 86 58 51 
300 670 434 121 99 75 
303 268 304 95 105 117 
281 811 399 136 165 210 
258 315 196 104 105 109 
186 144 250 102 84 64 
187 307 278 102 131 159 
387 348 294 109 118 130 
330 675 405 137 98 68 
185 145 253 105 86 66 
200 643 231 125 128 136 
159 822 240 218 160 127 
391 246 330 136 133 136 
294 369 236 69 84 102 
211 102 333 136 108 80 
250 703 182 178 131 63 
276 225 121 96 26 47 
339 514 350 116 131 176 
191 316 280 120 12 45 
184 146 254 106 87 66 
305 758 296 227 129 114 
184 147 254 105 86 66 
215 184 315 96 52 79 
393 263 366 89 124 154 
184 148 249 100 82 64 
175 844 306 192 146 119 
173 743 306 140 22 34 
185 148 248 97 81 65 
295 369 146 161 150 145 
301 474 230 125 124 128 
319 734 351 121 140 161 
291 369 234 74 89 106 
174 368 244 104 119 137 
145 795 266 119 111 106 
370 504 303 159 159 194 
184 351 270 159 62 98 
167 259 235 93 77 98 
285 408 188 71 79 89 
279 370 185 99 73 67 
138 788 238 107 99 94 
146 803 232 183 131 99 
165 692 148 24 38 90 
285 767 428 97 135 203 
163 374 190 75 110 141 
293 233 262 81 96 109 
152 790 188 187 137 105 
235 543 168 130 139 161 
272 814 398 184 194 216 
135 768 206 109 95 84 
271 455 202 52 72 89 
270 459 346 153 156 165 
360 172 306 113 41 43 
259 206 320 27 59 101 
205 611 312 102 128 156 
312 436 348 145 55 93 
121 677 128 100 115 133 
204 453 166 113 122 136 
275 671 348 91 110 133 
306 754 433 115 136 211 
325 445 363 142 124 105 
194 436 268 52 83 129 
263 397 204 50 69 90 
184 152 247 97 81 65 
287 559 361 184 180 184 
264 268 154 123 123 127 
185 854 265 191 147 113 
212 250 196 94 107 123 
301 266 116 96 51 69 
322 579 327 92 143 184 
160 394 198 78 102 149 
344 547 318 160 183 210 
195 536 169 106 120 150 
254 640 345 47 41 90 
154 745 275 109 96 80 
245 193 206 101 87 88 
308 596 277 90 116 138 
186 961 317 93 75 59 
324 676 380 167 166 173 
275 402 189 76 75 89 
214 697 170 157 91 109 
326 632 389 124 97 64 
398 302 359 111 130 151 
306 481 156 174 189 222 
280 898 296 132 108 84 
178 925 301 66 54 44 
352 522 252 113 132 166 
186 156 241 98 85 71 
358 506 253 107 125 150 
277 757 272 84 76 91 
264 306 172 88 108 128 
187 157 240 105 90 74 
145 738 135 214 78 68 
205 1011 297 186 157 131 
269 132 296 80 62 42 
304 311 123 132 132 137 
200 748 177 119 88 54 
342 549 266 117 151 188 
283 499 168 99 127 179 
171 712 282 127 139 155 
313 676 328 116 126 161 
397 313 333 146 150 161 
129 754 191 129 100 73 
319 732 352 113 136 160 
361 361 275 141 140 145 
391 371 299 124 129 141 
300 657 374 88 131 165 
252 63 307 91 72 48 
177 277 275 86 115 141 
285 710 435 140 153 170 
286 391 222 71 90 110 
309 635 407 113 94 76 
276 332 161 170 141 107 
320 222 306 110 52 71 
210 683 225 76 86 101 
190 181 223 95 86 83 
364 172 365 63 102 131 
267 627 349 58 72 90 
389 418 299 82 109 148 
191 182 221 108 98 90 
197 641 253 79 90 135 
170 457 240 151 152 159 
179 874 281 114 76 47 
178 435 251 146 151 161 
199 80 324 102 82 62 
397 284 362 147 146 152 
171 352 231 110 125 146 
392 267 324 150 147 151 
197 372 202 88 70 69 
298 761 431 224 223 232 
187 757 171 192 161 128 
161 821 289 182 142 112 
316 397 247 45 75 99 
377 480 283 123 138 164 
334 491 240 164 163 168 
192 222 215 86 89 101 
182 422 258 65 91 136 
347 140 344 114 101 91 
229 435 185 62 84 108 
189 187 221 113 61 5 
247 38 298 71 59 47 
291 232 121 96 30 48 
311 404 132 223 97 46 
186 375 268 82 106 143 
256 177 103 158 72 18 
305 421 137 172 123 85 
311 793 385 167 174 199 
368 141 355 125 104 77 
171 266 269 100 121 143 
207 328 282 129 139 147 
246 126 261 84 70 57 
295 519 194 105 121 140 
353 199 300 104 34 30 
190 185 222 108 78 42 
376 160 361 109 78 72 
369 357 280 137 136 141 
181 593 250 86 106 127 
161 351 214 90 111 155 
328 582 265 175 175 183 
162 406 196 70 99 148 
293 651 229 67 49 45 
393 377 310 135 141 152 
239 617 176 103 95 89 
191 189 219 130 58 17 
197 635 238 132 134 142 
250 986 308 80 58 53 
316 692 454 128 94 72 
179 859 277 189 142 112 
324 361 259 96 104 116 
272 237 245 111 108 109 
328 264 321 92 117 137 
180 433 172 67 100 130 
285 586 355 41 78 128 
262 318 190 118 118 122 
205 594 325 164 162 167 
324 591 245 123 150 181 
286 709 432 74 104 144 
300 593 344 69 62 61 
226 395 182 180 152 122 
315 134 263 137 68 0 
314 693 334 94 118 152 
340 394 259 89 108 129 
296 501 185 65 89 132 
229 77 303 82 67 51 
274 920 296 82 64 47 
222 546 348 167 159 158 
172 348 242 122 81 36 
334 373 263 84 101 121 
364 384 373 193 163 134 
199 590 181 118 135 156 
312 746 316 185 25 68 
256 285 197 57 77 94 
261 26 231 102 74 63 
212 562 336 184 176 176 
225 46 259 94 80 67 
175 409 183 66 95 139 
220 581 337 181 171 170 
394 225 348 143 84 87 
216 693 349 129 130 137 
191 976 305 89 64 45 
194 884 317 143 111 80 
223 932 248 48 43 41 
279 318 304 72 112 145 
248 269 179 58 80 98 
136 760 166 155 135 126 
229 217 321 79 44 41 
183 818 229 215 163 124 
182 633 264 90 113 143 
193 722 210 107 109 114 
336 310 352 142 144 152 
327 338 344 168 153 141 
201 311 197 101 113 127 
322 513 363 122 137 160 
313 426 155 155 134 111 
245 178 326 138 30 19 
344 528 289 178 177 184 
197 141 304 127 75 50 
348 531 307 137 151 198 
198 379 274 104 123 148 
302 645 298 72 64 81 
399 302 357 115 133 155 
174 175 248 93 87 82 
225 701 194 45 45 49 
218 99 266 113 88 69 
299 399 144 208 171 131 
192 760 176 144 126 127 
274 12 326 123 112 105 
203 372 276 78 104 140 
303 358 119 143 153 176 
297 812 348 129 79 96 
301 630 392 128 108 89 
131 693 149 97 106 119 
207 773 364 152 159 173 
213 378 190 100 115 133 
290 240 107 140 87 94 
151 755 221 63 68 74 
311 657 346 94 118 143 
172 312 262 153 161 175 
206 752 183 193 174 160 
190 592 210 66 109 144 
331 454 368 135 59 90 
261 883 295 127 103 76 
218 898 259 66 56 45 
222 108 264 105 82 63 
323 556 234 148 154 182 
292 404 159 184 158 132 
219 634 347 160 159 166 
219 996 316 169 142 116 
175 178 239 105 97 90 
243 129 272 85 68 51 
261 586 352 84 107 161 
166 430 171 148 153 163 
271 433 337 84 108 142 
304 721 268 165 36 51 
267 514 184 177 182 196 
237 951 357 213 166 147 
145 744 201 41 51 78 
175 183 237 116 99 78 
288 475 219 89 105 127 
142 784 197 159 138 124 
160 343 212 110 131 158 
180 700 289 70 117 153 
170 716 282 122 136 153 
228 231 180 136 47 68 
359 149 370 151 75 8 
256 615 188 79 76 76 
263 914 281 107 75 59 
218 694 352 82 83 90 
208 820 244 185 136 102 
180 598 237 107 124 144 
239 969 264 108 77 56 
181 400 186 69 99 126 
255 635 177 175 121 100 
138 766 167 119 93 67 
237 684 197 100 94 94 
220 119 262 78 63 46 
161 762 293 171 151 133 
307 307 263 92 34 42 
235 845 318 111 93 77 
261 260 160 74 77 92 
145 760 221 109 92 78 
184 955 320 89 70 54 
175 190 235 119 58 7 
161 725 182 86 37 41 
307 419 135 164 107 59 
173 188 239 129 62 5 
283 438 184 110 97 86 
148 704 110 194 205 233 
245 369 174 125 91 102 
260 183 232 106 63 63 
201 597 185 80 117 150 
184 211 286 156 91 77 
173 191 239 120 60 5 
377 163 359 110 64 65 
281 790 302 20 30 52 
324 563 336 87 94 118 
306 599 361 103 93 86 
167 744 211 85 49 37 
272 355 171 211 164 107 
169 484 219 132 135 144 
170 448 239 92 106 130 
294 186 300 73 64 75 
202 266 204 120 98 84 
153 749 277 82 110 133 
292 473 227 123 125 132 
232 384 293 93 108 134 
253 337 297 152 149 153 
199 502 163 120 131 157 
288 784 308 191 166 166 
293 441 164 62 91 123 
212 58 348 132 120 113 
197 683 137 150 166 186 
256 969 280 104 86 73 
307 186 298 81 76 87 
175 176 242 94 85 81 
277 203 102 126 99 122 
208 686 335 133 128 127 
218 888 352 162 120 95 
193 171 303 41 55 94 
160 370 206 102 125 157 
241 741 200 156 144 134 
180 160 256 105 86 65 
326 166 281 88 43 71 
224 677 158 94 153 207 
163 804 192 203 136 102 
171 563 220 78 90 118 
229 635 150 113 90 61 
211 84 341 145 116 96 
365 473 346 124 139 167 
395 365 320 144 128 117 
384 408 350 155 135 115 
216 482 169 151 146 148 
226 961 350 141 113 98 
260 268 169 91 81 91 
192 964 277 122 89 65 
387 374 359 103 128 153 
313 431 156 86 108 133 
256 12 256 109 88 76 
362 187 354 126 78 83 
255 259 149 110 82 101 
169 272 265 130 105 109 
173 326 260 162 113 55 
242 253 168 110 71 64 
298 310 246 85 83 84 
180 906 290 67 53 44 
197 661 121 171 172 190 
330 486 239 108 127 155 
237 279 303 164 160 165 
256 266 173 66 83 105 
333 533 238 137 152 182 
350 460 364 70 99 162 
312 778 406 175 178 205 
184 869 271 137 101 71 
283 129 280 95 78 61 
173 183 241 109 84 54 
308 631 346 83 83 91 
216 649 138 110 111 115 
321 702 453 179 122 100 
222 357 184 86 105 128 
261 342 197 71 81 93 
352 122 292 141 85 60 
218 465 309 89 109 132 
399 314 342 158 157 163 
190 73 336 136 93 73 
246 981 279 78 63 51 
222 978 265 104 85 64 
266 567 188 69 104 157 
316 428 150 159 139 131 
208 364 191 163 159 162 
229 246 314 115 77 97 
214 975 263 105 79 50 
308 312 117 149 164 185 
335 160 340 133 60 9 
397 338 323 134 138 148 
309 493 177 97 120 157 
225 579 345 94 109 130 
204 900 256 74 58 41 
329 230 284 80 99 120 
305 497 164 129 141 198 
287 617 349 74 57 62 
189 972 280 87 69 48 
332 175 315 127 79 86 
257 168 117 113 61 35 
243 111 300 89 73 55 
359 152 369 155 67 7 
261 894 288 144 107 70 
267 280 158 125 129 139 
292 185 259 82 36 33 
201 174 306 39 59 99 
194 62 274 88 70 48 
327 442 244 55 86 119 
171 179 252 111 101 93 
180 931 274 86 66 47 
270 678 173 75 131 171 
279 302 304 134 134 140 
251 245 186 94 70 76 
278 347 169 224 185 138 
255 292 198 61 87 109 
196 593 192 110 116 127 
198 479 281 120 127 139 
303 511 228 116 120 129 
318 757 361 146 161 183 
160 679 103 63 109 173 
285 215 259 39 47 79 
333 717 424 82 110 143 
177 300 224 137 60 2 
376 488 285 152 168 189 
323 263 281 128 127 132 
171 180 254 93 86 80 
174 738 204 125 38 40 
260 270 192 117 117 122 
376 212 314 99 87 82 
206 125 269 78 65 51 
197 423 270 62 89 128 
328 196 332 106 93 103 
333 558 284 196 192 198 
315 463 237 92 105 123 
282 514 352 168 168 176 
294 566 215 93 106 123 
234 900 264 94 77 60 
301 661 381 62 87 160 
164 390 182 78 107 134 
183 584 270 119 131 147 
346 540 253 89 119 176 
277 125 266 119 97 79 
292 423 171 97 103 120 
173 727 181 79 88 99 
195 378 198 119 120 124 
267 455 177 142 22 65 
173 739 202 121 50 52 
330 558 238 131 150 178 
278 375 178 173 53 59 
166 256 237 88 69 89 
191 628 272 127 131 141 
259 361 201 76 83 93 
278 158 307 128 65 23 
278 764 428 216 211 215 
295 511 355 179 179 186 
205 347 280 162 76 109 
300 156 256 118 41 39 
185 954 324 89 73 61 
180 649 282 80 55 61 
327 408 360 172 74 7 
285 723 407 112 117 127 
156 478 197 111 135 161 
382 168 326 57 79 97 
274 930 295 85 68 52 
197 725 166 133 112 99 
368 148 348 136 67 7 
217 148 279 106 70 54 
368 286 368 140 140 146 
399 315 338 155 154 159 
260 976 317 105 85 71 
266 234 240 117 113 113 
350 285 369 138 144 156 
336 539 295 108 138 174 
314 614 247 117 147 180 
291 758 275 149 150 160 
286 672 363 101 117 159 
204 753 182 174 158 148 
242 948 257 87 69 52 
182 423 258 66 86 136 
225 97 301 74 57 37 
269 419 199 58 76 97 
236 995 270 147 116 84 
277 880 300 123 100 76 
119 687 118 131 150 172 
263 347 170 213 171 116 
169 318 228 69 72 89 
295 437 339 137 147 163 
255 898 278 152 104 72 
263 212 112 122 55 78 
371 250 356 127 45 75 
271 210 312 88 42 44 
210 892 265 74 56 43 
309 321 126 66 100 129 
171 188 243 130 57 4 
273 921 305 128 100 72 
214 48 262 87 79 73 
317 614 380 119 99 78 
371 447 352 116 132 169 
259 979 326 107 86 64 
220 701 174 196 140 101 
285 19 319 150 136 128 
247 740 203 178 147 113 
145 769 251 125 112 103 
263 923 277 101 68 58 
188 472 163 165 170 189 
270 271 135 123 130 142 
357 388 374 195 168 143 
180 630 263 90 109 143 
186 79 275 130 97 85 
334 331 353 140 93 69 
