ply
format ascii 1.0
comment Created by CloudCompare v2.11.1 (Anoia)
comment Created 2/28/22 9:40 PM
obj_info Generated by CloudCompare!
element vertex 2011
property float x
property float y
property float z
property uchar red
property uchar green
property uchar blue
end_header
272 267 146 178 170 171 
281 642 211 92 68 54 
283 12 294 100 80 58 
208 137 321 132 116 104 
265 796 398 94 130 200 
171 816 226 246 177 133 
272 788 404 103 135 207 
238 81 298 93 71 40 
342 196 284 106 43 36 
180 887 295 102 74 53 
301 523 347 94 121 160 
176 823 240 225 163 123 
175 583 226 131 137 151 
314 668 316 117 121 156 
156 418 185 74 108 149 
200 374 192 135 132 134 
164 298 257 169 166 170 
208 379 270 106 120 145 
272 838 370 177 22 46 
284 693 217 138 98 103 
199 538 321 195 183 179 
348 163 286 137 45 15 
182 908 317 131 95 75 
199 117 263 77 63 46 
386 200 355 120 47 58 
276 738 246 131 117 118 
185 71 273 121 91 60 
352 212 323 106 83 106 
211 996 260 186 152 123 
263 577 345 119 136 161 
313 381 137 189 158 122 
206 790 221 191 141 100 
286 637 211 171 115 106 
156 766 163 190 172 160 
280 490 172 64 95 161 
257 809 294 98 121 144 
264 945 281 91 73 63 
201 153 267 66 55 43 
197 684 230 68 62 65 
157 291 236 88 92 98 
209 182 302 116 53 59 
263 517 341 128 143 163 
263 486 177 119 141 180 
277 149 242 61 78 95 
198 602 285 131 140 156 
256 480 175 100 126 169 
283 320 163 116 114 116 
202 608 190 103 124 147 
203 598 298 85 115 145 
262 254 305 166 157 155 
177 820 319 184 165 153 
189 221 285 112 65 69 
224 197 170 66 110 144 
179 633 266 115 134 160 
190 166 300 53 64 96 
159 263 260 160 159 165 
342 193 285 115 52 45 
193 683 233 59 58 67 
270 128 284 79 65 53 
204 178 301 51 41 53 
217 94 334 148 114 92 
227 196 169 74 110 140 
257 390 305 79 101 135 
272 126 251 130 90 60 
171 847 285 185 140 115 
256 151 314 156 57 7 
183 509 277 68 92 114 
182 656 156 67 92 134 
342 239 311 142 83 89 
200 138 266 77 66 55 
335 246 307 117 51 74 
207 201 295 114 48 39 
286 794 320 157 117 117 
171 234 274 137 33 70 
326 123 266 132 91 60 
176 377 256 91 112 149 
185 615 147 90 122 153 
298 719 257 186 79 69 
244 214 219 112 83 75 
254 67 323 116 91 70 
377 301 282 93 91 103 
396 341 289 143 138 138 
291 176 294 102 31 39 
335 522 345 169 175 190 
185 907 261 93 70 57 
213 859 261 116 92 67 
188 654 283 58 98 133 
411 201 333 103 99 100 
227 130 279 96 70 50 
272 716 210 127 117 118 
110 680 136 59 95 129 
232 873 270 125 89 56 
288 760 274 139 72 105 
329 686 441 131 96 69 
204 608 295 106 129 154 
196 500 303 66 94 119 
349 458 355 96 127 168 
307 393 148 148 71 18 
264 575 346 95 113 144 
383 437 268 112 126 147 
325 756 369 126 137 183 
360 521 256 163 173 196 
187 713 174 91 104 122 
404 389 316 159 147 142 
241 362 284 111 123 139 
163 773 168 164 140 130 
246 834 371 235 193 137 
372 141 298 138 50 25 
221 715 358 116 126 141 
217 374 272 156 151 153 
414 230 354 134 94 85 
175 818 233 229 162 125 
280 742 425 162 165 177 
178 934 319 75 61 52 
234 896 352 192 141 117 
324 591 248 169 181 201 
365 513 265 135 157 194 
418 231 344 147 63 95 
198 388 268 68 93 147 
193 552 164 130 147 190 
413 245 354 112 87 100 
313 374 142 182 153 124 
168 480 186 101 119 145 
316 704 314 85 116 159 
242 232 175 94 18 39 
266 15 224 132 93 50 
160 495 212 90 102 137 
255 955 341 126 93 85 
253 357 171 204 166 119 
216 381 182 172 146 118 
293 271 248 92 98 107 
312 312 302 84 114 139 
300 767 314 178 72 83 
213 629 313 156 155 161 
240 915 355 107 90 74 
234 352 279 151 100 27 
300 204 262 33 43 62 
154 813 271 187 138 110 
187 889 265 87 67 54 
338 659 396 137 99 69 
228 202 170 154 103 84 
180 816 327 114 92 74 
218 441 179 58 78 96 
186 946 271 127 95 76 
184 899 304 116 85 66 
215 52 321 77 65 56 
362 531 312 152 171 205 
207 874 336 155 122 94 
177 712 231 74 85 97 
225 477 168 86 104 123 
230 202 169 157 98 76 
246 92 314 116 94 71 
290 584 346 90 110 141 
403 361 295 130 116 102 
328 744 419 145 156 197 
164 632 126 73 91 108 
309 366 314 175 150 123 
239 268 178 63 82 100 
316 212 273 69 42 29 
157 731 275 119 28 32 
303 286 253 83 93 105 
182 176 283 76 67 61 
181 877 298 154 116 82 
171 348 253 177 138 92 
310 708 302 139 153 172 
272 162 110 140 64 7 
298 525 179 158 172 214 
195 614 206 86 111 136 
187 663 152 97 117 139 
285 721 426 129 140 155 
275 233 110 117 117 127 
142 756 157 180 153 131 
218 326 180 105 119 135 
218 472 311 140 142 149 
281 185 296 44 50 85 
400 201 355 125 50 75 
201 352 188 131 137 149 
308 470 169 82 104 144 
184 285 276 104 139 172 
282 430 174 94 59 41 
283 840 350 146 135 127 
306 537 352 75 103 150 
233 193 166 102 100 117 
204 646 131 148 150 159 
261 173 112 73 105 131 
280 830 334 117 87 67 
335 681 399 133 94 70 
276 507 340 134 142 160 
369 326 354 181 160 140 
211 707 198 109 109 113 
179 182 268 97 83 64 
400 424 306 69 99 148 
361 519 253 113 130 166 
302 742 272 149 88 76 
235 194 164 100 89 100 
249 261 220 95 88 82 
262 231 237 100 91 88 
182 902 299 89 69 57 
181 716 221 94 104 118 
335 640 392 126 99 68 
232 196 166 99 94 103 
158 450 174 136 147 162 
271 339 171 212 171 123 
352 528 239 117 141 174 
196 701 330 158 154 158 
216 278 181 127 38 74 
372 507 325 190 187 193 
337 508 349 136 148 172 
303 329 126 66 105 137 
279 202 97 116 90 117 
398 432 288 114 126 157 
245 27 340 120 111 107 
167 368 198 59 88 121 
235 197 165 93 83 94 
370 226 294 146 123 111 
114 692 120 136 144 169 
235 198 165 97 77 88 
245 994 285 134 106 81 
247 570 346 170 165 167 
244 191 316 82 49 83 
290 272 107 95 141 178 
191 775 196 159 120 85 
133 776 206 190 182 182 
237 192 162 101 87 101 
369 230 348 63 103 134 
275 923 327 170 127 101 
331 658 386 126 89 66 
223 586 172 91 119 151 
382 480 269 135 144 164 
363 518 276 107 127 183 
349 357 345 143 32 64 
296 817 375 160 185 214 
146 805 250 190 138 108 
181 694 289 72 119 155 
179 780 330 104 112 121 
347 508 236 93 123 167 
291 749 430 94 111 188 
238 20 305 101 91 85 
246 825 303 128 124 124 
306 205 266 34 46 63 
414 264 348 96 79 92 
277 830 332 132 103 75 
219 287 282 152 154 164 
178 957 303 125 96 71 
218 628 325 104 133 160 
275 152 102 148 129 115 
263 970 321 92 76 66 
188 524 302 174 166 165 
248 394 173 142 136 134 
179 185 276 93 53 32 
223 641 149 136 97 73 
266 310 280 74 120 157 
267 945 286 83 66 56 
358 266 330 80 119 150 
237 197 161 83 69 77 
155 753 155 158 135 119 
254 576 347 131 143 172 
237 196 162 81 74 80 
237 196 163 86 79 84 
298 203 260 39 42 60 
404 195 321 140 75 64 
223 514 340 107 122 143 
163 450 159 165 166 174 
202 82 265 77 62 46 
219 684 344 138 139 146 
190 600 266 98 121 148 
180 867 299 179 133 103 
397 315 355 165 156 153 
165 720 279 131 25 49 
325 604 344 151 108 92 
312 742 290 83 138 177 
181 759 336 105 35 39 
190 723 334 110 128 148 
238 196 161 77 67 76 
238 197 160 76 65 68 
298 599 222 124 134 149 
321 594 243 174 175 186 
268 949 330 174 127 100 
240 696 181 171 136 85 
199 839 337 163 145 134 
245 986 286 132 103 73 
219 460 170 106 117 130 
123 676 141 67 88 112 
191 594 196 60 111 148 
164 822 293 184 143 114 
297 754 275 120 109 116 
256 862 330 149 113 90 
220 456 299 127 133 145 
220 680 166 228 121 123 
267 937 283 83 68 58 
218 464 166 117 124 137 
151 735 266 129 42 50 
238 615 345 144 151 164 
294 324 292 86 112 136 
178 357 204 93 60 60 
300 642 381 86 106 149 
238 566 349 179 182 193 
155 793 189 200 137 104 
197 449 165 66 101 137 
210 635 193 61 108 144 
184 388 263 113 134 161 
208 803 232 191 139 103 
158 299 230 80 97 117 
217 441 278 109 121 139 
237 194 174 77 44 37 
263 675 170 113 162 203 
209 973 256 107 82 49 
219 509 336 68 98 132 
293 469 177 59 93 128 
256 178 132 115 37 26 
238 193 173 85 49 46 
399 324 352 180 156 128 
162 512 195 103 119 140 
348 549 315 188 197 216 
273 638 193 146 102 86 
263 609 342 83 89 102 
380 496 276 143 157 185 
146 746 257 124 114 108 
275 744 419 155 154 160 
235 452 316 57 89 127 
277 216 247 66 64 66 
292 505 194 94 109 131 
239 557 346 100 119 140 
154 338 213 159 168 184 
165 818 297 109 101 96 
313 321 244 101 90 95 
364 487 248 159 161 170 
298 681 415 109 116 146 
282 368 303 112 100 91 
170 725 153 149 161 177 
244 231 217 103 93 92 
297 267 255 117 113 112 
257 126 277 75 60 44 
316 581 287 83 111 138 
305 130 282 99 90 82 
279 517 342 93 114 160 
299 722 443 134 145 190 
257 248 167 65 86 105 
375 513 301 147 163 199 
235 980 320 143 105 72 
395 209 314 87 90 98 
268 756 244 169 155 145 
154 728 261 105 35 35 
155 405 190 60 91 140 
180 883 276 112 82 61 
286 572 202 77 103 133 
240 978 267 129 103 77 
321 700 344 85 109 149 
158 742 211 72 23 26 
160 523 202 63 88 124 
287 401 166 182 145 104 
189 864 262 126 102 79 
359 292 340 151 151 157 
202 424 178 80 101 123 
295 622 372 77 109 146 
252 624 168 150 111 90 
248 112 311 106 84 59 
332 547 334 108 130 163 
180 916 293 59 47 41 
158 324 215 144 148 158 
391 137 339 125 72 6 
130 775 214 136 127 123 
235 202 165 117 66 52 
288 179 252 103 64 60 
181 530 166 115 131 173 
295 219 260 82 41 51 
188 645 123 89 78 68 
207 397 189 63 83 100 
154 407 182 89 114 141 
253 318 207 109 108 112 
288 780 301 165 133 122 
411 314 316 167 163 166 
310 711 270 72 115 147 
310 590 350 97 88 82 
317 661 341 92 116 149 
320 404 330 135 92 36 
235 204 165 111 51 39 
326 368 252 93 106 122 
235 281 169 79 119 151 
133 660 95 184 189 206 
179 442 165 53 85 117 
330 711 354 106 129 176 
331 356 257 96 113 133 
264 126 269 87 69 54 
308 671 332 93 117 141 
295 615 367 41 77 117 
152 714 132 141 133 118 
215 383 183 174 148 120 
188 642 126 90 80 71 
307 706 257 210 180 155 
285 400 180 181 156 130 
248 329 170 138 135 136 
276 666 346 66 87 110 
158 326 225 169 171 182 
124 669 138 96 113 132 
302 801 354 140 164 190 
272 199 117 45 40 48 
401 390 292 92 110 132 
237 951 253 119 94 71 
180 919 317 117 85 69 
380 501 285 149 158 202 
235 439 311 114 127 145 
308 406 152 133 113 96 
257 976 314 112 92 77 
304 442 145 128 152 206 
284 134 299 110 95 82 
237 202 160 110 53 41 
297 203 260 38 41 59 
412 286 317 82 119 150 
327 760 385 203 204 215 
326 750 367 160 173 196 
220 938 351 137 110 91 
223 530 162 162 165 175 
304 329 298 151 148 152 
219 917 245 49 43 39 
402 411 307 103 131 161 
210 697 343 127 128 135 
269 717 205 92 85 82 
236 204 161 113 51 35 
317 206 274 116 44 37 
181 919 312 109 87 71 
185 407 262 78 105 149 
242 639 355 127 142 163 
416 259 342 114 70 83 
322 592 256 172 175 185 
224 332 278 182 136 83 
276 154 109 104 95 85 
270 300 283 71 119 158 
235 837 364 56 74 115 
275 286 290 168 162 165 
321 629 397 116 96 75 
225 436 294 142 143 149 
159 742 217 80 72 64 
194 643 243 91 106 124 
212 61 344 104 88 76 
158 450 173 147 153 164 
272 206 112 119 52 82 
326 566 302 140 143 153 
325 296 269 124 114 107 
218 597 180 85 88 92 
308 581 335 62 80 109 
195 582 292 115 137 160 
235 394 291 75 111 140 
258 886 282 134 100 65 
167 500 244 72 97 124 
291 214 257 34 61 85 
370 293 350 164 143 121 
303 643 400 134 110 87 
324 205 278 124 36 20 
390 311 287 84 113 138 
327 617 376 121 97 71 
302 288 251 107 107 111 
238 169 319 69 26 32 
179 582 251 100 110 135 
405 170 346 111 85 70 
156 735 146 121 77 60 
359 246 330 113 94 105 
345 725 390 99 123 160 
313 496 227 132 133 139 
254 72 311 104 83 60 
408 170 361 111 100 105 
302 640 332 79 99 126 
316 273 299 99 120 143 
357 281 281 94 122 147 
211 430 270 94 107 125 
329 606 352 152 113 92 
149 672 103 58 99 170 
256 41 298 91 71 44 
313 724 310 144 158 176 
314 459 228 89 103 118 
251 285 208 77 69 75 
157 464 215 114 126 142 
185 725 195 117 121 129 
286 796 400 158 162 213 
313 198 292 116 45 59 
379 281 355 167 167 175 
141 795 249 132 135 142 
387 139 354 117 104 93 
212 697 176 101 101 126 
287 361 147 167 143 117 
333 563 307 150 164 195 
194 737 173 145 122 105 
293 406 315 133 116 119 
378 507 294 184 191 215 
191 664 291 70 109 139 
384 460 268 113 124 150 
371 234 352 54 65 102 
181 603 238 79 116 148 
161 382 202 72 105 142 
303 614 372 112 97 84 
210 998 261 206 173 142 
174 422 175 75 113 145 
349 532 333 156 168 189 
364 515 265 141 163 194 
217 90 337 144 113 93 
245 871 345 121 61 61 
167 724 230 72 34 39 
284 609 207 118 130 148 
277 236 300 116 44 41 
180 536 181 144 157 178 
207 270 284 80 131 169 
238 204 173 73 51 66 
236 125 267 88 66 43 
239 204 173 71 48 66 
227 79 336 134 108 88 
330 559 300 136 141 152 
153 737 203 74 61 52 
229 428 298 70 96 131 
312 414 144 150 127 106 
190 324 275 123 142 158 
201 628 282 139 139 146 
195 585 177 136 142 155 
305 175 103 145 71 7 
298 125 267 109 97 88 
259 915 268 151 104 70 
344 554 250 186 188 199 
184 906 263 93 73 57 
241 527 167 104 117 145 
210 660 172 126 140 164 
299 689 360 98 118 149 
233 186 316 107 35 65 
181 720 312 145 152 166 
214 671 220 88 95 106 
291 415 202 57 72 87 
272 129 286 85 71 61 
142 640 112 104 119 136 
234 566 167 123 139 174 
196 713 206 100 104 112 
193 663 156 57 85 136 
351 329 339 140 20 62 
343 541 235 133 157 187 
224 972 331 135 113 93 
179 354 264 160 84 118 
406 327 344 115 133 154 
309 674 329 105 122 144 
333 218 300 98 70 81 
177 577 253 90 107 136 
128 717 177 117 42 41 
267 693 355 52 80 112 
249 972 331 118 96 82 
197 979 260 114 88 56 
207 976 316 103 82 64 
196 581 295 124 133 152 
338 697 415 151 106 77 
262 18 253 157 140 136 
166 567 234 94 107 122 
325 367 250 87 100 115 
224 664 343 142 137 140 
184 598 223 123 119 125 
405 374 326 184 82 10 
165 231 271 110 91 101 
122 677 99 188 208 238 
322 572 304 143 141 149 
236 195 179 100 46 29 
237 192 180 94 43 38 
302 277 105 129 112 138 
334 738 374 201 196 200 
291 426 158 156 139 130 
196 438 264 74 97 128 
229 695 180 189 145 71 
225 739 366 148 152 162 
272 11 241 136 124 118 
279 812 392 195 207 226 
393 427 329 116 137 163 
291 486 162 82 114 178 
386 159 351 110 117 128 
295 529 209 60 79 106 
164 644 122 96 86 76 
253 46 297 91 71 48 
113 698 145 77 86 136 
169 407 209 70 97 137 
293 643 232 94 63 50 
330 226 301 102 85 100 
296 557 207 73 92 120 
165 500 241 64 92 126 
239 194 182 106 55 44 
301 553 217 103 120 141 
198 197 293 147 71 73 
274 258 130 126 127 142 
364 403 258 104 116 133 
340 232 309 140 84 82 
230 283 171 71 72 94 
238 789 243 196 143 111 
344 302 323 109 128 150 
322 588 339 118 101 85 
214 458 289 120 130 144 
294 264 252 115 111 111 
320 366 247 94 100 110 
336 474 236 150 157 170 
236 198 180 108 45 35 
304 644 369 72 101 153 
239 148 321 156 69 10 
316 698 314 90 120 165 
163 545 223 111 127 149 
207 864 254 117 83 53 
361 416 254 75 101 133 
185 561 192 143 140 144 
127 717 177 121 26 32 
192 768 196 148 107 74 
310 656 309 105 119 140 
239 196 182 108 44 35 
235 760 218 192 139 102 
194 591 185 80 107 134 
179 860 276 185 142 110 
175 594 244 88 104 124 
416 223 352 160 95 93 
150 810 244 204 149 117 
257 445 172 154 138 128 
290 355 131 148 121 91 
205 619 172 57 95 150 
294 805 392 144 154 205 
163 517 251 142 142 149 
180 864 299 185 138 108 
235 200 179 83 48 54 
181 880 298 142 106 76 
260 166 117 113 104 95 
302 365 311 138 95 74 
336 734 414 145 145 180 
266 433 175 128 97 73 
352 500 344 181 181 188 
266 638 188 134 93 76 
203 751 356 105 110 118 
208 670 134 126 152 183 
214 745 362 81 111 148 
134 645 108 80 106 130 
345 396 346 187 163 140 
259 609 351 72 89 121 
392 386 281 66 103 138 
202 681 226 81 25 50 
314 301 256 92 31 40 
350 166 287 116 58 68 
190 574 180 138 143 155 
304 665 294 82 94 119 
169 750 161 130 102 72 
210 436 270 126 130 139 
320 325 310 143 145 155 
192 784 200 161 124 89 
291 324 149 106 119 133 
297 212 102 122 44 54 
333 677 396 130 92 69 
295 626 366 60 103 153 
388 328 283 147 142 142 
209 385 187 169 143 116 
219 1005 295 122 90 61 
310 420 225 127 125 129 
288 587 203 74 117 153 
265 755 398 40 74 129 
244 243 163 80 83 111 
270 267 300 115 132 152 
304 632 281 86 78 79 
333 403 339 167 72 6 
291 365 163 126 127 133 
227 589 172 96 124 161 
305 299 114 123 142 164 
187 866 309 165 123 90 
155 786 285 167 130 90 
267 345 201 94 89 95 
141 671 99 167 168 182 
237 203 183 75 52 63 
239 847 276 157 118 88 
215 827 258 180 125 97 
318 769 403 148 151 195 
231 276 288 163 162 168 
271 187 303 45 41 48 
413 301 318 151 144 143 
266 152 237 73 95 114 
265 507 340 140 151 166 
215 919 348 186 142 115 
198 610 278 148 147 153 
191 602 203 68 111 143 
281 294 136 151 152 159 
314 665 337 95 117 141 
284 590 202 54 89 137 
234 602 340 83 128 163 
384 462 330 114 132 168 
236 205 179 81 56 77 
296 224 94 76 100 127 
197 587 293 84 109 157 
391 137 362 116 103 92 
289 385 200 70 78 89 
167 457 230 91 111 140 
192 706 327 155 154 160 
121 692 111 130 151 196 
213 151 316 175 67 8 
204 134 297 117 83 67 
158 703 163 75 85 97 
203 493 158 63 95 136 
218 1003 303 138 110 83 
236 204 183 72 57 70 
276 286 158 84 81 83 
409 301 310 93 107 123 
213 584 174 103 105 111 
237 205 182 70 54 67 
311 131 252 134 70 3 
360 142 324 91 84 78 
286 353 161 203 165 124 
390 472 286 119 141 167 
387 452 330 109 130 161 
409 344 323 183 155 128 
301 582 212 138 150 167 
251 243 194 116 113 114 
177 682 149 104 111 133 
237 207 182 77 63 71 
291 682 221 197 99 33 
196 648 285 67 103 132 
314 621 276 152 107 98 
292 721 381 130 147 170 
238 207 183 70 55 63 
308 786 395 93 117 188 
267 312 176 112 114 123 
252 217 233 99 66 70 
379 374 269 66 104 134 
267 796 292 121 68 50 
185 70 273 115 89 54 
286 373 305 141 122 98 
253 295 164 163 161 167 
338 147 297 105 94 85 
284 810 326 112 109 111 
180 596 230 106 127 153 
285 148 299 158 76 7 
169 734 155 98 122 169 
383 456 336 87 107 157 
278 425 180 139 52 4 
171 714 236 84 92 101 
313 451 229 128 127 131 
283 299 127 131 128 130 
201 828 349 199 176 160 
183 957 288 100 74 56 
256 930 353 180 133 108 
273 917 284 156 126 98 
322 620 354 139 98 80 
293 201 92 156 128 106 
310 243 103 80 77 90 
329 264 280 146 144 147 
205 641 173 58 86 136 
343 245 284 145 139 139 
164 210 256 78 42 32 
180 872 295 175 131 99 
226 211 172 163 96 74 
260 124 246 125 70 22 
408 263 356 83 124 156 
363 437 251 114 129 151 
192 594 193 63 110 145 
320 573 230 132 144 182 
195 675 235 62 88 110 
322 652 350 87 92 99 
287 197 103 102 27 46 
251 787 388 103 121 161 
245 907 348 123 82 74 
190 613 155 57 82 124 
300 202 103 82 74 83 
283 709 229 142 125 111 
386 415 346 124 111 100 
268 241 150 94 17 38 
204 857 253 142 106 69 
196 439 170 97 110 127 
189 161 265 94 75 54 
172 562 214 73 104 130 
179 415 177 94 114 135 
220 1005 270 130 99 67 
325 659 381 118 86 66 
164 450 183 103 120 147 
202 518 325 101 112 133 
279 363 302 131 117 113 
309 462 221 101 112 126 
405 304 304 90 110 130 
230 210 171 139 84 54 
249 261 209 82 87 95 
180 176 286 76 76 80 
232 698 182 141 38 106 
319 454 233 118 126 139 
217 960 259 132 96 64 
177 380 194 45 93 131 
278 354 175 215 178 136 
228 117 293 75 63 50 
293 194 91 169 115 88 
215 950 345 102 79 64 
380 345 274 103 113 128 
252 732 366 39 73 107 
270 209 117 115 59 81 
142 637 123 119 127 140 
231 213 171 128 55 61 
187 625 139 87 100 114 
231 215 171 126 41 56 
125 746 169 155 136 122 
190 967 310 102 84 71 
309 195 266 92 54 67 
367 318 274 125 132 144 
233 759 215 180 131 92 
268 636 186 174 123 102 
262 969 309 93 76 64 
215 213 296 94 36 47 
309 643 409 115 95 76 
175 302 269 161 162 170 
233 974 333 104 88 78 
221 442 290 98 112 132 
258 563 180 156 165 181 
247 828 306 91 87 87 
197 61 329 107 90 79 
334 667 422 133 100 69 
176 468 155 116 127 141 
191 832 334 195 170 151 
121 654 99 41 57 81 
397 370 345 183 161 142 
382 396 355 183 78 6 
288 788 312 100 83 78 
249 467 174 67 96 145 
253 813 385 185 202 226 
302 269 110 128 90 99 
196 640 235 128 129 136 
280 191 297 55 67 91 
178 923 292 65 53 46 
307 360 312 165 142 120 
264 242 236 85 84 87 
281 471 167 78 115 172 
282 152 246 88 75 73 
178 388 189 69 96 122 
280 163 247 95 77 74 
269 283 220 87 90 96 
226 219 174 150 63 66 
285 420 174 125 52 26 
185 993 280 134 104 82 
306 522 189 159 164 176 
311 619 317 174 125 115 
280 285 146 142 141 145 
405 320 301 156 152 155 
199 460 164 49 98 141 
372 423 259 164 157 157 
306 528 184 106 129 178 
215 643 142 80 61 36 
240 995 274 158 129 99 
269 375 186 108 74 85 
303 416 136 155 129 107 
183 684 285 117 59 84 
273 886 287 142 115 86 
262 641 188 106 82 66 
325 758 403 204 203 213 
294 514 173 202 200 214 
236 838 310 93 61 49 
296 558 196 93 123 189 
238 126 321 115 90 64 
162 558 225 120 129 146 
203 487 158 132 140 154 
170 641 126 96 85 75 
186 549 295 137 144 162 
272 566 347 173 171 176 
361 533 312 118 146 189 
123 735 160 149 122 91 
227 363 177 81 110 138 
205 873 330 153 120 89 
300 477 158 57 98 175 
414 221 355 153 65 86 
228 695 205 99 99 103 
355 530 251 108 128 158 
340 687 415 155 106 77 
257 545 346 139 151 169 
238 826 289 158 102 84 
263 617 186 74 77 82 
368 266 347 88 124 154 
247 336 170 173 139 105 
182 529 164 114 134 168 
213 749 190 145 136 133 
278 524 182 65 106 179 
198 475 265 120 128 142 
193 150 307 161 65 11 
127 651 120 90 102 116 
172 806 311 151 105 62 
214 950 344 103 81 66 
249 375 172 107 122 141 
273 398 179 158 127 90 
206 646 205 55 102 136 
279 252 241 90 94 101 
307 264 266 112 106 103 
321 315 256 93 47 49 
183 689 243 59 62 72 
201 84 343 150 103 96 
276 210 105 131 65 76 
165 807 300 134 108 88 
243 786 243 202 149 117 
307 298 251 111 93 72 
323 419 336 137 120 105 
233 656 151 53 98 134 
280 167 298 139 36 38 
366 145 343 165 73 10 
294 188 90 165 99 88 
285 720 255 186 67 44 
407 291 350 165 164 170 
402 358 342 187 162 139 
298 764 420 97 123 200 
283 205 296 107 28 42 
190 583 185 83 107 132 
239 259 177 57 77 95 
170 842 271 210 159 126 
268 132 303 71 60 49 
179 695 156 103 101 117 
306 446 162 53 86 136 
321 650 362 105 134 161 
326 472 344 29 74 138 
274 169 244 111 72 52 
169 527 188 99 113 160 
391 144 317 77 95 113 
345 552 247 152 163 188 
300 555 216 130 134 145 
234 859 341 167 125 103 
175 193 271 111 52 15 
278 193 246 53 47 56 
235 209 166 118 64 44 
227 786 228 192 139 105 
409 326 309 158 155 157 
297 303 117 124 132 144 
261 761 238 94 132 163 
148 791 272 152 147 149 
348 546 325 150 170 201 
386 459 272 107 120 152 
211 616 310 110 133 159 
196 412 266 60 88 137 
172 67 263 158 144 136 
337 646 394 130 99 65 
235 215 163 148 35 60 
397 310 294 78 112 142 
234 213 165 125 43 53 
213 716 355 91 115 147 
311 399 322 130 116 103 
371 245 354 98 107 129 
388 132 329 113 93 71 
331 188 294 96 92 96 
398 203 317 143 91 68 
321 599 362 121 101 81 
247 199 198 103 75 60 
296 199 294 100 44 38 
219 691 180 116 108 131 
265 494 178 93 121 171 
405 295 352 139 141 150 
178 186 279 88 50 33 
378 441 348 182 176 178 
232 882 270 106 79 44 
206 874 335 155 123 94 
229 120 325 137 108 80 
215 603 321 166 162 166 
140 747 208 122 102 83 
154 380 196 92 115 153 
310 178 92 140 70 8 
418 211 347 103 109 118 
176 854 277 190 144 115 
251 264 203 107 109 115 
369 154 346 139 73 36 
327 667 369 100 125 149 
294 123 256 138 115 92 
209 860 257 115 89 65 
276 921 321 162 123 92 
268 760 252 115 122 132 
273 841 366 170 41 60 
180 681 149 104 106 129 
184 86 256 122 85 69 
412 220 356 130 88 111 
292 443 173 64 84 113 
385 152 352 143 73 14 
186 713 324 96 111 129 
262 786 272 132 111 107 
290 386 177 86 89 102 
392 141 339 129 70 6 
383 369 357 187 162 135 
236 212 162 142 34 61 
186 753 345 148 158 175 
264 19 338 147 136 131 
218 754 367 124 133 154 
221 625 329 82 129 164 
380 131 346 108 95 86 
392 466 308 125 137 165 
147 790 198 189 132 100 
334 201 297 123 63 74 
276 474 334 87 102 146 
257 941 349 199 146 123 
189 415 176 46 76 103 
143 723 190 91 41 29 
177 946 319 115 92 71 
258 329 169 159 9 55 
191 605 207 113 71 84 
263 590 190 123 146 181 
205 810 236 184 136 100 
239 665 353 59 79 101 
296 698 360 72 102 149 
238 69 300 92 71 46 
393 414 279 62 97 135 
389 396 277 106 116 131 
233 208 169 137 74 52 
233 209 169 128 71 55 
181 464 157 94 114 136 
248 438 319 82 104 132 
235 388 286 69 106 135 
232 209 171 140 87 58 
206 817 357 48 44 52 
245 641 179 47 39 40 
311 596 287 104 110 125 
284 513 173 188 190 203 
361 200 297 115 26 27 
318 725 332 23 61 133 
346 265 320 80 119 150 
375 280 353 169 172 181 
250 11 256 108 90 79 
367 143 345 130 93 38 
206 794 360 121 125 147 
407 238 320 130 125 124 
415 276 342 145 146 154 
278 29 314 108 100 95 
306 353 309 152 132 114 
277 639 198 148 107 91 
178 619 145 84 112 141 
319 607 324 163 111 98 
280 655 194 88 90 95 
226 570 337 191 183 183 
265 848 354 62 74 82 
213 875 264 111 81 53 
301 426 142 165 140 120 
312 502 345 109 136 163 
292 212 257 30 62 87 
157 448 169 156 161 172 
364 151 342 147 61 10 
205 669 142 124 158 191 
218 166 312 85 50 86 
159 385 181 67 99 130 
164 525 190 73 96 154 
230 113 293 78 64 48 
293 279 115 111 108 120 
248 560 346 119 139 167 
245 841 363 102 69 72 
240 324 279 117 134 155 
194 719 202 109 110 117 
259 165 116 131 82 65 
192 203 289 156 70 70 
206 984 302 104 82 64 
246 316 170 143 143 149 
262 718 197 61 58 63 
355 311 274 117 129 144 
208 632 184 65 103 138 
239 211 175 77 27 40 
295 598 344 115 96 81 
308 402 321 129 119 114 
233 217 167 132 43 58 
192 791 351 151 21 36 
209 618 302 93 117 150 
237 635 159 188 135 111 
144 793 212 173 122 88 
308 633 290 154 104 90 
250 604 358 155 157 170 
220 910 350 181 141 114 
375 131 342 106 94 83 
176 940 312 80 64 49 
283 296 285 113 138 166 
234 217 167 134 40 58 
286 299 122 111 118 130 
194 394 268 54 84 143 
263 189 125 87 50 39 
347 196 310 79 102 123 
253 637 179 144 101 84 
295 780 317 66 52 67 
335 687 364 147 155 168 
192 849 321 193 146 117 
217 369 272 106 130 152 
180 711 230 83 93 104 
286 396 170 196 159 117 
257 800 283 76 87 101 
183 452 161 63 88 121 
176 673 298 154 161 175 
152 807 276 168 146 129 
184 670 271 99 125 151 
235 221 164 133 50 69 
219 772 217 176 128 93 
202 294 277 161 159 165 
156 442 168 95 111 147 
320 305 260 99 44 40 
265 378 203 84 82 90 
269 753 386 92 108 128 
279 696 208 76 61 44 
317 705 285 135 154 177 
187 550 296 120 134 158 
213 703 186 83 98 117 
282 732 377 42 99 141 
147 771 270 137 115 93 
232 807 375 173 33 52 
268 354 293 129 135 146 
274 309 213 86 89 95 
208 748 187 180 150 138 
176 860 280 193 148 119 
254 452 329 92 116 149 
264 739 367 50 83 126 
370 221 296 96 91 102 
237 218 163 133 39 58 
237 219 163 136 43 66 
330 683 437 133 100 73 
189 682 129 156 179 206 
239 216 160 131 41 66 
352 156 309 137 62 6 
369 380 361 191 162 134 
307 310 116 98 133 165 
154 393 191 82 110 151 
269 392 176 163 133 98 
238 219 162 136 51 67 
304 694 446 50 91 132 
283 355 196 87 81 88 
340 273 316 156 154 158 
166 661 109 112 132 165 
291 460 184 64 88 121 
279 345 200 92 90 97 
198 886 320 136 97 72 
293 682 226 166 137 120 
151 764 278 95 90 91 
317 585 305 51 75 95 
270 590 194 84 115 145 
404 174 342 95 82 74 
251 266 161 89 107 127 
335 646 384 137 100 71 
183 608 252 112 112 122 
306 156 258 90 37 38 
339 233 307 147 97 97 
251 731 201 149 119 81 
254 493 338 143 147 158 
289 338 160 151 141 136 
161 485 208 129 133 143 
259 730 202 167 134 98 
248 584 350 79 115 145 
406 204 323 117 115 119 
221 889 261 79 64 47 
304 556 202 127 141 160 
118 698 154 130 136 147 
265 266 301 99 126 158 
169 380 227 60 103 138 
267 234 129 107 92 96 
253 831 376 194 20 59 
169 287 220 145 114 91 
258 266 158 158 154 157 
183 954 286 108 83 60 
184 960 288 101 81 61 
187 893 312 149 113 87 
286 165 250 87 70 73 
159 741 219 78 63 46 
349 220 318 131 77 93 
278 720 227 99 122 145 
232 216 170 126 39 55 
282 444 165 134 119 114 
205 665 314 79 86 102 
232 218 169 128 39 56 
177 710 233 86 94 104 
408 322 305 151 147 149 
232 641 341 97 122 148 
255 125 292 74 60 44 
177 780 327 75 59 53 
377 163 348 114 55 47 
167 746 158 146 122 98 
200 751 354 165 162 168 
221 449 295 108 120 137 
355 511 240 172 176 190 
207 644 135 84 77 73 
286 392 171 210 167 116 
354 169 314 106 43 66 
247 497 338 140 151 166 
369 350 358 186 163 143 
245 224 172 107 22 30 
140 783 205 156 143 136 
169 370 219 99 122 150 
226 48 313 77 67 57 
195 661 239 126 125 129 
325 480 346 84 117 151 
337 741 404 113 130 185 
343 546 303 81 110 156 
200 856 254 148 113 79 
236 208 178 78 63 74 
296 347 217 86 97 110 
277 457 178 99 91 115 
236 209 179 76 63 70 
174 732 198 136 34 51 
335 332 323 158 142 130 
240 523 343 184 179 182 
274 329 285 82 42 56 
326 650 377 127 90 71 
174 609 257 64 98 125 
170 731 191 123 130 138 
251 335 170 164 34 72 
257 349 204 98 95 96 
345 208 308 61 89 113 
309 690 445 125 97 74 
304 288 292 133 137 146 
296 790 329 160 128 99 
256 682 170 185 46 63 
280 159 93 181 149 126 
164 483 182 108 124 145 
416 243 336 78 115 145 
223 107 297 70 54 38 
381 293 285 86 117 145 
302 652 365 77 125 163 
247 216 207 63 70 82 
160 460 162 119 136 159 
394 305 292 80 110 138 
166 722 181 76 86 98 
184 543 293 145 155 171 
338 265 313 99 34 51 
236 775 380 100 122 168 
172 527 274 156 152 153 
373 233 356 107 62 81 
218 408 184 113 121 131 
255 68 307 91 72 51 
250 33 294 95 76 57 
119 719 159 136 35 46 
211 483 313 99 111 127 
312 785 373 134 141 193 
205 786 216 186 137 97 
292 637 230 114 88 75 
329 381 331 174 157 142 
334 564 238 206 200 204 
324 219 295 101 50 71 
235 974 264 76 48 20 
216 442 279 89 105 128 
268 636 351 71 97 132 
265 634 352 57 86 129 
202 656 130 66 89 128 
292 599 342 110 94 83 
238 213 178 87 25 43 
256 162 129 117 92 80 
168 488 239 152 149 152 
359 531 302 77 105 184 
271 155 304 151 61 7 
211 117 263 81 67 53 
188 717 328 117 125 139 
272 689 190 207 114 31 
187 609 228 99 127 157 
313 147 259 127 48 27 
415 290 323 87 128 160 
274 151 104 128 115 106 
248 254 222 85 76 69 
178 387 189 62 94 122 
238 213 180 82 35 51 
263 881 329 147 103 81 
187 396 185 58 84 106 
236 501 338 116 131 156 
286 367 199 77 77 86 
239 213 182 81 52 63 
303 692 382 27 56 141 
359 207 335 143 68 74 
249 398 173 105 125 151 
196 692 227 79 91 104 
254 380 298 94 108 126 
162 627 128 95 117 139 
236 932 248 63 51 45 
147 653 106 100 88 77 
167 209 260 74 33 28 
168 489 188 94 115 150 
244 742 371 131 128 132 
412 181 355 125 94 94 
299 248 98 159 97 88 
239 888 271 112 85 56 
261 739 209 185 145 92 
296 492 182 79 100 131 
388 344 280 112 122 134 
234 846 350 206 184 168 
310 646 412 116 96 75 
243 192 166 82 42 36 
243 192 167 82 40 35 
243 193 166 83 46 43 
118 710 158 131 51 63 
242 194 167 82 41 49 
270 192 116 72 38 35 
273 146 304 155 70 7 
159 728 243 80 48 44 
403 233 317 113 55 62 
252 296 172 121 128 140 
120 703 160 125 136 150 
306 636 258 158 153 156 
301 618 375 84 78 73 
263 759 388 76 101 124 
236 308 172 104 45 49 
167 828 247 220 160 122 
247 193 161 72 44 41 
340 720 374 72 78 110 
180 185 275 105 58 28 
324 476 344 94 121 152 
246 193 163 77 30 37 
262 648 354 49 78 101 
188 978 272 131 102 71 
280 326 286 73 110 140 
204 373 271 101 116 148 
309 454 163 113 129 150 
179 985 295 139 108 84 
240 827 293 156 99 83 
398 136 367 121 108 96 
395 372 346 120 141 166 
260 614 187 80 80 83 
310 409 151 156 135 121 
310 470 160 105 140 180 
297 813 359 66 77 143 
169 661 148 47 64 116 
416 228 337 144 84 95 
172 560 264 109 122 158 
232 757 214 172 122 86 
192 61 339 139 125 117 
300 495 163 181 188 218 
196 238 197 72 92 112 
297 638 362 57 109 146 
178 737 331 106 134 162 
227 451 176 101 116 137 
321 246 299 125 9 58 
246 195 164 78 45 48 
302 770 321 124 26 70 
162 383 202 74 105 140 
169 705 270 133 143 159 
242 323 171 148 143 145 
397 182 316 142 59 71 
281 782 409 136 159 212 
169 827 299 186 147 118 
226 632 335 157 157 164 
259 800 285 129 132 142 
165 504 245 74 100 126 
316 293 262 96 99 105 
301 292 109 182 181 190 
321 537 231 76 107 172 
168 767 304 140 119 98 
257 801 393 165 187 216 
267 756 241 129 121 123 
319 529 231 103 125 176 
217 699 176 143 98 81 
259 54 314 97 77 52 
213 417 183 72 98 121 
378 126 327 104 86 73 
181 567 277 152 164 181 
212 646 312 99 37 59 
242 845 325 84 63 44 
189 653 259 53 79 115 
308 394 148 138 69 16 
156 769 165 177 80 60 
240 192 169 77 41 27 
252 131 310 102 86 71 
134 760 201 122 106 95 
310 451 150 63 102 181 
188 662 258 81 106 136 
233 675 163 66 153 211 
257 223 144 106 59 90 
203 1000 300 156 132 111 
212 668 140 158 189 222 
382 333 278 113 123 138 
233 496 169 106 119 135 
261 381 201 83 80 89 
175 773 323 115 99 93 
366 252 289 83 102 125 
259 438 172 151 136 127 
187 172 276 69 60 53 
272 342 172 216 175 127 
290 678 217 142 89 38 
214 51 323 96 86 79 
274 887 285 146 120 92 
278 300 161 74 97 120 
232 799 246 198 142 113 
218 304 279 140 154 172 
222 122 296 77 69 61 
387 318 284 147 141 140 
353 302 276 152 150 154 
305 761 421 137 149 209 
240 199 170 59 49 66 
285 549 192 139 150 188 
158 515 227 143 145 153 
297 512 210 97 107 122 
285 320 162 114 111 112 
281 660 348 85 103 133 
317 719 288 127 152 179 
189 339 196 83 117 146 
263 274 221 96 95 97 
243 197 168 66 44 45 
278 210 248 53 60 70 
241 997 300 160 127 94 
206 968 328 100 83 70 
200 255 193 126 117 115 
203 59 268 79 66 52 
218 817 366 165 26 53 
172 630 131 95 104 116 
300 465 213 118 123 133 
232 849 305 75 55 44 
194 615 148 31 79 130 
256 614 183 78 77 78 
171 628 268 90 124 160 
186 716 214 85 93 105 
229 847 307 71 53 40 
234 1001 298 162 131 101 
245 203 166 37 46 66 
171 305 265 168 172 185 
193 604 270 105 126 149 
317 514 231 170 170 184 
165 340 229 89 123 154 
292 217 296 45 38 47 
203 641 172 90 110 143 
225 862 341 152 118 89 
175 294 271 83 128 171 
169 727 225 38 43 67 
151 734 255 109 93 78 
312 731 441 87 129 210 
289 595 340 63 64 74 
196 571 169 122 144 177 
299 215 92 122 106 114 
233 473 327 96 118 139 
382 352 274 138 136 139 
248 170 317 140 28 18 
316 705 313 109 135 163 
271 380 199 86 85 94 
315 352 315 173 151 130 
383 197 353 119 35 59 
335 701 432 171 118 90 
145 646 119 62 61 64 
268 360 172 199 155 98 
240 13 261 104 92 83 
211 88 262 99 80 58 
274 346 293 131 132 138 
270 449 177 131 115 103 
299 705 398 128 141 156 
359 143 335 119 104 93 
311 692 307 95 113 149 
323 662 347 31 59 113 
393 330 355 162 47 89 
274 638 194 146 103 87 
140 735 200 86 81 80 
206 706 344 39 63 86 
231 685 211 98 94 97 
197 584 174 106 127 152 
200 714 187 56 61 68 
180 746 167 165 137 107 
253 806 390 156 171 204 
202 126 266 77 66 55 
381 253 293 131 129 132 
240 982 317 108 79 61 
298 306 226 87 85 86 
336 173 297 75 78 94 
302 639 369 94 120 161 
158 479 218 124 132 146 
272 612 337 36 41 49 
179 488 153 105 125 161 
336 706 422 153 107 81 
271 444 327 97 115 136 
337 339 327 123 96 113 
265 143 311 116 103 93 
242 203 170 47 50 67 
218 304 180 141 135 135 
215 348 275 159 80 112 
322 321 311 119 134 152 
341 492 236 142 152 172 
237 627 155 123 99 71 
240 110 322 123 93 70 
273 235 121 64 105 136 
279 211 248 71 66 67 
261 549 181 100 120 144 
242 205 170 62 50 66 
200 698 333 153 150 154 
164 760 161 207 181 161 
222 301 279 161 159 164 
229 847 308 70 53 42 
272 749 384 36 73 123 
158 751 285 55 66 104 
291 494 201 50 79 113 
203 726 350 74 91 112 
385 493 289 100 131 176 
225 432 292 140 141 149 
240 205 172 69 47 61 
170 439 164 97 117 140 
242 848 318 104 80 53 
304 689 383 106 135 174 
256 665 362 85 102 125 
196 451 263 62 90 132 
334 507 351 132 144 175 
292 531 180 108 129 184 
289 383 201 71 79 90 
178 728 321 122 139 160 
210 763 208 173 124 87 
239 857 271 149 117 86 
414 275 346 146 148 156 
206 703 179 36 78 117 
286 901 292 126 94 68 
254 241 309 136 11 60 
315 516 351 94 117 148 
163 670 107 113 136 183 
244 206 169 55 50 62 
363 509 333 190 187 193 
301 700 396 58 95 149 
302 644 303 121 125 134 
252 227 154 48 44 77 
164 276 228 146 44 47 
224 692 188 64 92 115 
403 387 295 95 114 139 
237 794 379 28 37 92 
284 572 199 58 96 142 
165 769 166 151 153 166 
315 563 229 177 178 192 
218 918 243 48 43 40 
307 689 290 97 126 153 
320 568 229 104 123 180 
239 826 292 159 102 83 
403 356 339 189 161 132 
292 396 206 68 80 94 
138 693 159 85 96 109 
171 575 225 73 116 150 
256 637 360 51 44 83 
249 197 162 60 40 54 
308 358 233 128 123 124 
166 831 285 203 156 130 
319 451 338 65 106 150 
187 732 336 132 136 146 
216 660 179 120 132 162 
227 672 181 103 120 145 
222 40 322 83 74 67 
179 885 283 94 71 54 
274 624 187 126 101 78 
300 789 335 110 50 56 
191 728 339 123 134 150 
358 518 292 219 217 225 
242 620 162 110 98 87 
298 772 309 179 150 116 
298 450 328 162 164 173 
165 542 261 45 73 129 
304 389 315 153 144 140 
175 850 275 198 149 121 
310 632 332 96 109 159 
299 810 378 153 176 203 
261 277 296 183 172 171 
176 337 265 153 43 81 
238 221 310 89 47 50 
270 12 300 116 97 79 
405 373 300 163 148 138 
213 482 317 108 118 133 
161 522 213 124 134 151 
156 391 178 96 117 140 
339 734 383 177 178 187 
245 412 309 83 102 121 
339 448 348 148 132 128 
260 612 350 63 72 83 
212 450 274 81 103 126 
175 632 134 70 66 66 
269 334 169 205 164 116 
324 668 347 52 68 107 
390 352 281 98 112 131 
306 122 249 131 113 96 
285 898 298 132 101 73 
280 280 134 115 91 91 
166 181 260 116 90 56 
188 603 258 110 119 132 
289 313 124 152 151 157 
266 453 176 129 34 71 
155 738 205 77 71 66 
181 793 190 184 142 105 
358 337 349 178 152 125 
306 526 183 157 173 194 
181 763 333 138 35 42 
212 236 293 136 30 74 
249 205 163 39 47 64 
261 31 296 119 100 83 
300 294 241 110 106 105 
299 691 362 38 76 142 
173 704 281 131 141 155 
226 80 336 134 109 87 
169 234 273 143 24 70 
250 204 161 43 49 62 
176 654 288 88 108 130 
311 782 397 154 164 199 
247 270 209 95 99 105 
193 676 126 160 177 200 
286 648 215 59 54 51 
171 845 281 190 145 116 
333 128 269 152 75 7 
272 744 376 51 80 132 
266 384 304 97 114 135 
354 426 356 140 125 112 
255 599 352 76 120 155 
242 645 354 88 110 140 
174 712 149 179 122 118 
205 954 255 140 104 73 
248 204 164 43 52 69 
188 250 282 87 129 161 
181 878 277 144 106 78 
258 322 198 106 100 100 
315 418 330 150 140 137 
255 284 168 138 141 151 
186 703 156 179 84 75 
270 938 290 123 106 93 
272 746 242 125 80 51 
298 323 294 97 103 114 
255 23 258 141 125 120 
340 665 407 137 99 65 
309 492 217 97 108 123 
162 542 230 114 135 161 
290 359 135 146 119 84 
380 140 351 119 105 90 
166 679 146 49 61 86 
302 663 288 79 105 142 
234 681 201 61 65 83 
312 353 134 130 137 149 
327 737 360 159 171 191 
188 653 160 58 84 147 
390 158 355 115 119 126 
364 184 345 58 75 96 
307 532 222 94 110 130 
209 620 155 61 78 94 
304 336 226 138 115 89 
241 195 184 106 45 26 
361 125 294 135 73 18 
156 347 210 53 97 156 
235 65 301 84 68 50 
294 304 117 135 139 148 
186 710 170 80 101 124 
257 603 347 55 100 133 
319 585 325 98 93 92 
272 696 194 192 80 27 
203 466 270 78 103 136 
214 616 170 33 71 113 
300 175 103 140 70 5 
158 461 210 105 117 133 
185 638 268 137 138 147 
248 280 292 110 139 166 
337 736 379 144 156 183 
177 924 306 73 56 48 
225 467 175 69 88 108 
263 403 196 86 84 95 
188 648 161 89 116 153 
258 188 119 31 64 101 
168 411 238 136 144 157 
225 291 282 82 115 154 
241 198 184 104 44 35 
115 664 129 53 84 113 
197 582 297 127 141 163 
241 199 185 105 45 36 
266 151 237 71 93 113 
330 703 443 179 120 98 
199 314 276 160 70 88 
299 487 178 135 142 154 
289 761 422 95 129 196 
303 525 192 91 110 130 
262 12 311 110 94 80 
187 700 162 140 130 129 
127 691 157 91 106 122 
283 294 149 136 135 138 
412 232 326 102 70 75 
295 454 207 68 85 104 
355 324 342 143 26 66 
161 647 119 95 84 74 
207 456 271 124 133 148 
195 527 317 100 113 139 
296 201 103 97 72 81 
198 667 300 110 81 88 
180 707 166 119 120 127 
290 720 372 59 119 160 
186 627 140 69 74 81 
180 696 288 70 118 155 
320 131 283 103 90 80 
246 215 228 108 70 69 
320 390 326 161 83 6 
215 249 292 132 98 104 
290 697 237 136 93 83 
316 544 230 93 119 177 
246 193 189 106 45 53 
215 620 317 88 123 152 
194 77 339 137 99 65 
203 854 253 143 107 70 
183 718 158 163 151 144 
179 559 201 144 137 138 
186 903 309 141 110 88 
228 632 151 153 114 81 
246 199 199 100 79 66 
221 619 161 108 98 90 
176 362 259 118 116 141 
246 194 190 110 60 57 
168 556 212 118 117 126 
163 569 229 101 111 129 
300 628 311 94 92 140 
306 362 137 116 118 125 
274 249 239 86 89 95 
244 196 186 109 61 46 
274 911 309 146 116 88 
389 165 310 69 49 75 
278 803 319 73 72 74 
139 774 184 206 189 179 
224 961 342 122 99 82 
354 141 304 109 100 93 
237 315 172 153 148 149 
168 257 269 161 156 157 
184 705 230 78 90 104 
191 703 168 105 109 124 
382 157 350 118 124 132 
305 578 339 55 81 114 
305 193 264 86 46 56 
242 225 162 64 42 64 
251 622 168 147 117 90 
278 158 245 89 85 88 
210 889 343 166 124 99 
206 72 268 81 67 54 
347 532 285 101 116 180 
332 566 236 172 179 194 
278 266 131 113 123 138 
320 585 313 54 68 82 
396 445 300 98 119 157 
272 776 410 115 122 185 
168 476 186 63 93 143 
217 136 271 106 76 51 
254 60 327 114 92 72 
179 356 204 92 69 62 
261 833 330 140 111 85 
217 343 181 118 129 144 
230 579 339 88 98 118 
198 984 259 151 118 84 
244 722 195 114 103 94 
311 435 227 98 107 119 
176 184 269 108 61 22 
270 254 139 102 126 144 
295 160 100 133 117 104 
307 324 300 103 123 145 
337 686 428 148 105 78 
340 384 340 184 160 138 
406 369 325 138 152 168 
202 541 323 106 129 163 
208 629 188 103 59 62 
157 309 226 99 84 80 
246 111 314 111 88 61 
243 492 172 64 91 127 
307 779 354 160 174 193 
275 398 309 92 112 140 
318 655 421 126 102 77 
297 394 214 90 102 116 
206 894 252 78 62 46 
191 311 276 127 18 43 
355 251 288 118 129 144 
208 884 259 87 66 52 
360 189 336 112 67 86 
243 237 174 87 30 52 
361 343 352 167 144 120 
208 483 302 96 109 126 
293 464 207 112 119 131 
177 342 213 76 68 71 
145 761 264 120 117 118 
211 942 249 90 66 40 
212 269 183 136 72 81 
249 117 298 97 79 61 
180 509 270 140 141 147 
241 207 185 76 64 65 
224 875 347 156 117 90 
332 700 354 128 148 177 
239 883 348 149 108 81 
361 372 261 81 107 133 
338 694 382 151 154 165 
283 570 351 35 58 85 
289 418 197 44 64 85 
310 647 414 118 97 75 
327 172 291 58 87 112 
391 272 361 100 59 80 
261 281 216 98 98 102 
357 379 357 150 87 52 
368 284 283 86 117 145 
171 417 174 92 117 140 
244 201 186 107 57 45 
233 977 263 110 76 51 
184 672 276 92 119 148 
171 837 299 197 154 126 
245 201 187 109 61 39 
158 679 144 33 57 112 
279 251 110 83 101 125 
263 967 293 102 83 68 
309 409 135 190 103 39 
314 742 296 193 96 84 
251 405 172 179 151 120 
246 201 187 111 62 39 
175 211 281 149 109 103 
212 982 253 122 95 60 
245 631 167 180 127 110 
251 165 315 132 36 28 
160 450 177 108 129 158 
219 661 210 75 67 93 
297 433 153 161 13 76 
210 59 348 138 125 116 
246 202 188 115 73 48 
172 207 279 131 100 93 
268 235 145 107 22 23 
320 643 367 86 73 82 
265 191 111 61 101 134 
320 680 440 123 98 72 
179 438 251 99 120 147 
179 689 279 95 57 76 
361 375 360 155 35 80 
304 714 259 175 68 70 
210 820 360 57 55 67 
302 694 402 90 110 155 
289 718 403 113 119 129 
245 206 187 85 69 68 
252 44 297 92 72 46 
204 299 186 142 138 139 
268 332 285 130 128 131 
267 315 165 141 119 137 
246 204 188 98 69 55 
263 846 359 126 104 106 
296 678 416 100 118 150 
300 648 247 70 81 94 
249 55 337 124 99 85 
393 262 299 112 116 124 
314 622 286 174 120 112 
141 677 101 152 166 203 
197 658 292 76 110 137 
231 425 300 42 79 128 
184 339 203 79 91 104 
331 698 442 175 121 96 
211 955 341 107 88 74 
302 214 264 59 47 69 
239 681 168 200 83 81 
248 200 190 112 73 50 
195 634 164 80 107 135 
161 511 211 100 116 136 
291 520 174 137 150 197 
289 308 139 128 137 150 
273 742 410 56 85 143 
164 631 140 128 133 145 
284 746 428 93 108 170 
275 441 325 92 114 143 
263 604 343 81 99 120 
237 754 375 126 130 139 
176 701 242 81 97 112 
310 324 302 103 124 146 
174 438 166 84 111 138 
189 870 310 159 122 91 
253 723 196 146 117 89 
249 205 191 101 81 75 
310 648 415 120 98 77 
290 371 173 106 105 110 
161 546 217 110 123 143 
286 313 286 80 120 152 
182 767 336 104 38 53 
305 698 251 145 133 125 
275 707 206 172 118 72 
272 846 346 150 123 105 
202 58 329 104 90 78 
230 674 193 72 70 73 
264 410 201 86 83 95 
289 453 327 118 132 152 
156 819 267 197 147 117 
247 872 345 124 68 65 
265 433 199 89 88 97 
371 313 277 157 151 152 
251 203 314 119 49 47 
244 874 275 151 122 93 
162 275 262 78 109 134 
192 561 171 116 130 165 
189 896 257 102 81 62 
291 710 433 80 107 145 
233 57 303 78 66 55 
232 982 314 124 100 76 
215 635 320 155 156 163 
230 789 234 197 142 111 
231 69 338 136 105 93 
265 816 317 157 124 85 
227 411 285 93 112 135 
247 214 165 58 34 34 
235 615 176 95 87 83 
352 538 302 117 134 179 
296 239 259 74 92 109 
246 215 167 85 36 40 
186 968 278 94 72 50 
264 870 320 149 116 87 
297 130 244 126 72 6 
242 208 171 76 35 50 
234 347 174 181 153 124 
158 817 238 223 166 130 
275 30 323 109 79 76 
230 784 376 153 163 179 
243 209 171 77 34 45 
299 703 251 204 115 31 
174 530 185 89 118 172 
302 437 161 61 89 123 
243 211 170 71 27 31 
198 965 263 99 78 54 
240 208 173 72 40 48 
246 958 343 115 87 75 
394 269 299 116 114 114 
287 601 341 102 89 81 
284 669 348 106 123 145 
214 653 188 129 89 110 
317 397 325 160 74 7 
311 441 226 81 97 115 
182 760 339 64 65 127 
164 716 142 178 130 118 
360 483 346 131 146 172 
248 278 294 97 121 150 
240 211 175 76 26 37 
258 782 262 130 113 103 
225 571 166 148 150 169 
244 788 248 201 147 116 
331 677 357 162 169 183 
304 702 448 90 120 164 
269 231 139 123 35 29 
299 742 434 181 186 216 
259 335 206 110 106 106 
404 356 337 192 163 134 
351 185 290 52 58 76 
282 705 224 80 61 73 
180 889 276 90 64 50 
303 218 105 127 53 66 
303 387 146 127 112 104 
183 962 298 141 108 77 
189 566 180 113 131 153 
240 215 175 77 37 39 
376 370 360 153 32 75 
257 467 174 110 130 174 
227 89 334 128 103 80 
298 466 212 112 119 132 
380 225 298 130 38 72 
330 662 421 125 98 67 
196 266 195 120 107 101 
357 354 262 140 143 152 
273 436 178 115 100 86 
187 684 144 174 61 53 
291 252 111 46 60 98 
282 310 149 99 123 150 
393 396 342 114 102 88 
318 676 341 82 106 137 
249 222 195 41 59 75 
200 477 158 148 151 161 
248 271 163 88 117 144 
244 209 169 68 35 43 
309 208 101 145 98 77 
196 139 312 108 93 81 
339 551 236 120 143 178 
279 250 301 125 127 134 
252 779 249 210 156 124 
224 39 337 96 83 71 
397 408 286 93 117 143 
193 968 318 109 88 72 
244 210 170 76 35 42 
368 447 354 69 100 166 
321 322 311 118 134 152 
349 200 316 99 102 110 
295 448 206 68 81 95 
227 440 301 114 129 147 
163 473 159 62 104 146 
270 876 305 134 107 80 
244 212 170 74 28 30 
263 962 333 96 78 67 
172 571 246 101 106 139 
289 131 286 105 91 81 
200 830 255 194 137 102 
222 267 177 120 42 65 
284 685 348 81 102 128 
183 271 204 69 99 125 
177 188 286 123 53 75 
187 784 194 161 126 89 
230 677 166 67 161 218 
185 604 228 102 125 152 
271 257 150 125 125 129 
222 833 267 158 119 88 
233 832 295 144 94 77 
193 815 346 142 126 118 
246 634 359 110 122 143 
393 427 279 155 158 168 
184 884 269 115 91 71 
311 175 100 151 76 10 
295 412 206 54 72 89 
321 572 271 154 104 111 
369 245 349 135 43 71 
218 358 180 82 102 123 
184 368 197 102 87 81 
304 620 329 141 96 91 
294 630 230 137 127 122 
277 268 298 136 121 107 
328 125 262 137 93 53 
200 1009 294 159 135 111 
308 715 270 78 110 137 
161 548 220 103 119 141 
224 976 257 134 111 88 
265 403 193 84 82 92 
192 649 256 99 111 134 
251 734 368 48 77 108 
330 649 410 122 97 67 
320 711 345 94 100 132 
261 131 301 72 59 46 
286 130 283 104 90 80 
145 791 206 175 122 91 
339 709 415 75 102 154 
228 982 255 92 70 43 
397 413 285 79 106 140 
248 307 168 152 153 161 
288 336 120 179 156 134 
243 69 334 134 98 84 
243 223 160 62 42 62 
191 435 167 30 68 98 
259 197 309 33 47 68 
300 137 248 122 75 50 
247 216 166 86 30 35 
376 332 358 189 166 146 
313 302 256 90 28 38 
227 908 352 172 133 110 
126 685 103 108 138 212 
194 689 156 207 99 101 
161 695 155 56 71 90 
303 333 116 178 186 205 
240 783 382 82 91 117 
180 184 274 110 62 30 
222 25 256 115 105 100 
204 844 257 150 110 72 
281 739 263 127 109 116 
300 208 263 28 42 69 
288 728 384 123 135 151 
298 707 395 78 99 148 
301 739 436 115 130 200 
279 205 109 57 49 78 
263 892 341 158 119 96 
242 219 174 90 27 39 
171 361 247 134 141 153 
198 703 169 121 116 131 
386 435 338 99 117 156 
314 278 267 118 116 118 
224 79 339 142 116 98 
340 546 302 97 122 150 
332 276 277 101 121 141 
168 692 115 178 197 219 
309 354 234 89 104 117 
335 499 233 73 105 147 
