ply
format ascii 1.0
comment Created by CloudCompare v2.11.1 (Anoia)
comment Created 2/28/22 9:40 PM
obj_info Generated by CloudCompare!
element vertex 2011
property float x
property float y
property float z
property uchar red
property uchar green
property uchar blue
end_header
176 937 306 75 59 51 
321 765 397 173 172 200 
243 122 279 79 64 48 
177 444 247 146 150 161 
209 614 302 88 118 152 
310 125 268 109 95 84 
285 705 231 84 99 116 
179 570 266 128 146 168 
313 660 311 116 135 163 
161 222 235 50 48 63 
256 857 313 141 113 84 
282 169 248 109 65 55 
279 236 238 99 93 90 
210 365 270 147 108 135 
303 217 88 168 84 83 
210 617 157 29 47 79 
263 806 390 167 184 213 
222 617 326 82 129 165 
392 375 270 86 107 127 
160 220 236 37 48 69 
160 220 237 38 45 68 
411 262 350 83 126 160 
221 377 269 118 130 146 
150 789 276 132 127 126 
205 653 133 66 93 124 
169 687 129 130 154 179 
289 345 129 113 97 94 
197 415 265 78 101 142 
271 190 124 85 42 35 
195 658 160 93 115 145 
224 691 211 89 92 99 
160 223 236 70 36 53 
407 372 310 124 108 94 
372 306 342 128 112 120 
328 191 277 75 60 87 
303 418 312 80 108 136 
407 339 334 162 31 77 
123 699 165 110 41 48 
398 330 281 146 141 141 
199 56 343 127 123 122 
363 147 291 100 47 38 
387 249 291 127 97 62 
225 671 191 48 67 88 
179 696 311 75 100 124 
315 542 229 105 127 173 
161 209 242 52 59 86 
291 363 144 134 107 104 
263 290 170 107 120 137 
228 681 212 97 98 104 
190 568 172 88 113 139 
268 139 238 87 87 90 
295 532 205 108 117 129 
311 229 271 104 26 58 
251 958 261 123 100 78 
256 967 278 93 73 61 
333 268 303 156 154 158 
321 743 424 153 153 209 
161 209 244 71 54 68 
317 715 320 146 162 183 
161 208 246 79 45 45 
214 604 317 165 162 167 
220 695 189 41 56 69 
225 725 189 226 198 171 
259 148 235 85 85 88 
299 649 271 144 142 146 
185 555 175 110 130 155 
186 788 199 173 134 99 
298 489 163 110 133 211 
343 679 405 144 105 71 
391 129 335 104 90 79 
358 518 331 144 162 189 
162 208 247 83 44 41 
177 441 162 73 97 122 
276 193 245 59 45 56 
298 630 238 87 68 69 
229 894 256 91 75 58 
192 675 134 107 140 172 
315 605 370 113 97 82 
275 919 302 119 95 68 
270 931 337 186 140 115 
268 613 346 52 71 88 
274 210 133 62 49 85 
160 215 240 42 51 73 
289 292 120 117 121 129 
161 214 240 34 44 70 
374 134 309 114 65 19 
220 268 174 126 35 63 
250 536 342 82 109 145 
308 181 263 90 45 36 
244 293 183 75 88 102 
166 217 274 66 96 119 
255 776 389 119 136 160 
418 161 361 137 103 114 
177 828 314 79 90 101 
164 387 221 39 78 128 
172 490 148 100 126 162 
167 562 236 171 163 162 
223 168 310 100 48 54 
228 792 371 158 167 183 
197 921 246 69 53 41 
295 509 204 46 74 115 
342 182 283 134 53 36 
214 639 314 150 150 157 
277 739 383 60 92 124 
161 214 244 34 48 69 
263 946 277 97 79 68 
180 600 233 106 125 149 
160 215 246 38 40 69 
278 218 116 108 37 42 
314 550 229 125 154 192 
243 228 193 82 55 55 
238 898 263 97 77 56 
278 605 200 74 104 143 
161 210 248 70 32 41 
316 711 314 82 117 165 
229 28 322 85 76 69 
230 605 181 74 72 71 
395 406 271 69 97 137 
320 578 322 66 98 156 
230 636 156 174 120 95 
410 152 361 167 77 12 
403 259 298 122 127 137 
179 684 297 64 94 122 
278 436 169 86 51 38 
297 285 232 106 104 106 
267 715 358 71 89 119 
229 359 272 175 128 73 
342 548 268 144 165 191 
304 682 242 224 187 145 
162 210 251 73 33 25 
237 505 335 150 154 165 
118 654 128 82 99 117 
284 271 226 78 82 88 
194 225 196 105 104 110 
162 209 253 74 36 30 
148 719 187 79 30 31 
206 364 181 124 133 149 
163 209 253 77 42 33 
299 450 150 107 144 198 
285 742 424 122 124 173 
145 799 230 193 137 105 
289 211 91 94 109 130 
176 941 291 76 59 47 
242 469 325 81 110 145 
221 63 263 100 82 65 
162 394 225 96 114 143 
298 768 413 118 143 213 
163 210 254 76 42 35 
175 191 278 85 49 28 
260 499 334 182 175 175 
252 256 214 87 84 87 
182 940 270 110 77 54 
234 348 172 174 148 121 
204 666 145 124 168 208 
204 472 271 145 145 151 
164 403 206 77 105 134 
227 535 345 156 164 180 
287 614 210 103 82 75 
162 818 289 187 143 115 
161 214 249 60 50 68 
158 774 290 141 125 112 
299 481 205 123 127 136 
211 48 258 77 68 61 
161 214 251 80 52 62 
366 244 284 103 114 130 
390 487 279 89 124 176 
245 213 307 103 61 88 
272 668 354 56 80 106 
282 811 325 95 67 63 
283 370 291 121 110 98 
172 308 211 131 109 92 
162 212 253 77 30 35 
221 967 261 113 87 65 
164 542 202 117 120 129 
175 595 243 86 99 115 
287 380 189 66 68 74 
360 174 291 93 59 81 
383 362 267 160 153 153 
212 119 309 79 68 59 
266 904 328 113 113 115 
279 318 161 173 123 103 
125 654 137 84 107 128 
289 522 176 90 114 195 
311 758 330 139 170 202 
202 137 293 111 79 63 
244 75 298 94 72 44 
288 478 328 106 120 142 
256 857 319 151 116 90 
243 697 181 145 113 93 
216 735 361 88 107 151 
253 326 183 103 70 73 
202 553 314 138 155 178 
295 478 202 77 88 105 
236 183 311 141 29 45 
207 884 254 79 63 48 
187 792 205 185 141 107 
216 67 313 85 71 58 
252 261 157 100 99 106 
290 411 181 64 82 102 
191 692 154 156 31 98 
160 218 240 46 53 77 
217 447 279 143 146 154 
207 566 316 134 147 166 
246 202 309 75 44 81 
275 740 252 138 124 112 
310 217 268 68 57 66 
348 721 394 155 165 181 
263 750 373 43 56 103 
346 405 341 175 83 11 
340 263 306 102 42 54 
215 899 244 62 51 41 
150 808 241 207 151 119 
294 312 285 87 120 150 
227 708 358 85 106 135 
302 797 345 115 115 121 
265 908 279 147 113 88 
319 686 443 119 95 71 
160 218 245 60 47 71 
183 443 160 56 88 117 
394 365 273 164 158 159 
160 218 246 68 45 68 
252 786 387 128 139 167 
152 786 281 135 129 129 
160 219 247 85 45 67 
304 250 258 71 67 70 
302 327 127 70 110 143 
308 663 233 76 79 155 
125 714 178 122 22 32 
220 109 325 140 109 81 
243 575 173 171 172 181 
223 70 261 109 88 72 
241 739 370 120 121 128 
186 419 260 84 109 146 
245 217 213 78 75 80 
211 582 170 165 159 160 
227 804 250 197 137 110 
195 448 168 74 106 134 
366 509 245 149 156 173 
274 883 282 151 122 90 
199 887 325 159 123 94 
263 394 190 96 90 96 
413 256 305 99 112 127 
336 142 275 128 89 73 
248 209 227 111 91 69 
352 484 239 168 167 176 
264 773 263 156 109 88 
293 280 106 127 79 88 
207 303 277 128 142 161 
310 585 265 111 120 137 
155 446 207 132 139 150 
235 729 366 95 100 119 
292 455 174 86 108 133 
308 610 265 147 113 107 
270 148 126 112 94 79 
160 223 246 91 54 75 
164 262 223 97 79 87 
142 640 134 85 100 116 
160 217 248 81 57 72 
156 737 224 64 46 46 
242 835 316 94 96 102 
152 345 209 102 137 170 
257 469 173 155 158 174 
168 529 186 80 109 160 
305 636 392 133 109 87 
198 792 218 198 147 104 
200 955 256 153 118 88 
196 482 153 136 143 158 
322 665 425 126 101 74 
160 219 248 87 51 70 
316 202 272 91 48 60 
293 714 398 123 126 135 
279 630 193 196 135 124 
272 132 298 90 77 67 
173 257 213 118 87 61 
181 708 306 130 139 153 
267 660 362 86 103 124 
175 950 303 118 92 68 
349 417 247 109 118 137 
161 217 253 102 50 59 
161 217 254 104 48 57 
257 684 171 218 99 90 
208 638 300 92 59 84 
189 67 272 101 79 50 
189 656 275 83 104 126 
236 256 190 70 75 83 
218 55 336 104 91 83 
159 509 235 77 96 126 
252 165 310 139 39 18 
265 556 185 155 156 166 
320 680 437 121 97 73 
411 175 320 99 51 64 
374 182 329 48 74 93 
281 469 164 63 111 164 
256 780 392 125 138 165 
203 470 268 96 113 133 
258 379 171 150 25 61 
160 221 249 88 30 64 
222 999 305 156 124 95 
234 464 171 118 125 135 
233 436 302 123 134 149 
306 653 375 123 142 169 
161 221 250 89 36 68 
274 550 342 177 177 184 
340 535 231 74 100 161 
221 112 299 79 64 49 
247 945 348 203 150 126 
338 690 372 150 151 160 
320 741 352 114 137 177 
415 180 325 103 43 61 
230 832 363 160 141 133 
293 622 226 129 95 80 
152 808 269 186 136 110 
192 807 346 167 137 107 
400 439 308 155 167 183 
250 686 172 210 117 106 
180 307 198 107 116 128 
200 582 298 172 174 183 
276 138 301 108 97 88 
331 140 271 122 116 112 
323 354 242 103 108 118 
161 221 254 82 45 65 
312 712 308 95 114 132 
304 623 313 159 112 105 
204 499 315 91 111 137 
292 760 277 185 185 190 
170 237 274 148 81 105 
231 43 340 131 120 113 
274 842 341 149 102 103 
270 867 299 143 121 101 
239 694 179 209 156 124 
286 353 180 97 82 73 
240 114 288 88 71 53 
243 298 178 92 96 104 
190 596 265 144 149 160 
357 227 286 129 85 83 
346 349 257 146 76 90 
281 734 379 90 102 133 
331 489 232 97 118 148 
269 201 125 100 46 65 
322 597 359 121 101 81 
174 459 238 78 103 142 
200 761 354 142 158 178 
241 524 341 88 115 151 
194 696 160 177 64 42 
249 784 253 203 151 122 
163 258 226 81 61 82 
167 229 222 74 46 61 
167 229 223 76 41 56 
256 360 170 205 166 119 
166 231 223 117 56 68 
248 573 348 139 113 117 
286 755 270 188 153 133 
157 306 241 147 156 172 
188 792 347 142 124 104 
308 203 92 93 107 125 
231 844 348 182 155 133 
286 299 122 141 140 145 
212 422 180 78 101 127 
135 721 129 209 69 71 
250 244 168 74 54 59 
228 431 173 131 114 101 
284 486 166 146 161 196 
322 237 275 80 80 90 
167 234 223 116 54 61 
392 215 302 110 54 40 
206 770 360 140 136 140 
373 411 255 118 131 152 
405 137 359 121 106 96 
178 570 205 108 125 146 
397 456 300 118 136 161 
360 263 318 74 114 147 
266 716 200 100 84 69 
216 962 333 105 86 74 
290 212 251 43 68 88 
311 476 210 71 92 126 
202 747 353 100 112 129 
240 959 256 110 80 56 
314 251 293 144 147 155 
310 604 260 124 98 88 
220 752 207 119 82 55 
270 480 331 178 172 175 
310 717 442 80 105 188 
312 577 330 87 101 123 
314 487 336 74 109 160 
216 652 140 36 71 103 
200 753 186 98 103 111 
235 622 156 102 91 82 
297 418 146 149 115 84 
174 226 214 70 57 79 
336 302 310 120 136 155 
170 204 272 94 49 39 
234 604 179 76 74 74 
271 273 159 138 137 142 
215 281 177 90 120 143 
180 834 252 228 167 129 
238 44 332 75 61 50 
261 255 298 158 152 154 
246 842 331 115 97 78 
316 547 229 133 159 189 
314 614 304 162 97 93 
265 668 168 177 194 216 
287 660 202 177 150 123 
194 685 157 94 90 118 
320 200 273 88 48 61 
182 322 196 130 126 127 
175 652 154 35 56 87 
162 329 234 109 133 159 
243 268 171 63 79 95 
341 719 372 151 159 185 
218 639 325 151 152 160 
314 175 266 47 62 80 
238 756 217 198 148 109 
230 767 375 168 167 173 
314 611 324 168 120 108 
404 183 313 135 55 62 
418 291 312 93 132 164 
264 881 326 164 125 97 
170 224 219 60 47 64 
284 326 283 83 120 150 
340 679 422 140 103 71 
294 521 198 85 105 129 
194 514 151 86 115 158 
334 340 252 140 51 83 
276 775 278 200 170 144 
154 309 227 98 63 67 
211 420 180 52 82 110 
320 176 290 93 92 106 
323 294 300 85 119 149 
391 311 353 184 169 158 
171 227 218 61 49 73 
211 427 267 50 79 118 
171 839 299 194 151 124 
249 975 278 88 62 47 
182 929 260 81 62 47 
300 635 300 78 76 140 
263 299 174 110 113 126 
212 504 161 145 147 157 
247 544 342 117 135 160 
248 739 369 95 105 118 
297 300 285 101 70 86 
308 188 288 141 58 53 
284 430 161 129 113 99 
317 616 384 117 98 80 
110 675 114 96 100 158 
300 150 253 96 48 45 
290 332 155 110 114 126 
294 530 204 102 112 126 
272 648 358 45 75 108 
192 573 172 87 117 146 
170 228 219 61 50 68 
223 879 347 154 113 88 
324 496 343 144 155 171 
178 382 191 55 78 100 
329 421 237 65 97 128 
272 209 137 43 53 82 
342 560 242 140 155 184 
249 170 312 143 35 21 
186 632 133 97 87 78 
244 852 293 114 90 62 
283 273 223 77 81 88 
340 264 306 106 54 60 
170 578 237 98 108 121 
262 250 161 71 85 104 
247 848 312 89 68 46 
297 364 140 110 113 122 
337 322 256 143 88 100 
275 920 299 94 78 62 
220 661 209 101 51 64 
166 755 164 141 118 98 
168 230 221 86 44 60 
303 550 348 71 97 143 
174 729 160 74 44 42 
168 805 198 241 162 122 
162 810 294 87 121 150 
261 579 184 144 158 180 
299 452 167 55 81 124 
372 514 268 87 97 171 
293 496 191 67 90 119 
193 738 345 161 156 158 
329 316 308 126 138 155 
174 304 206 126 94 52 
363 142 291 120 52 47 
359 511 332 88 116 173 
160 523 193 76 101 143 
162 480 217 126 134 147 
272 274 215 83 77 80 
168 211 264 129 34 29 
294 715 396 126 127 133 
350 255 280 146 141 142 
384 495 313 178 181 191 
172 230 216 68 48 66 
188 667 290 66 104 136 
182 710 224 99 107 118 
287 318 146 135 63 85 
173 232 215 96 46 57 
316 175 289 98 88 101 
375 187 332 105 39 67 
298 286 233 92 97 103 
283 12 297 106 88 70 
288 183 250 95 40 49 
274 758 267 141 121 105 
174 233 214 114 50 59 
270 776 406 134 145 189 
260 196 305 54 49 72 
262 46 320 102 83 62 
343 519 338 133 148 179 
276 438 178 105 90 76 
185 589 203 73 115 147 
186 848 314 192 145 116 
260 863 310 138 109 80 
129 732 141 211 160 105 
197 641 217 118 124 135 
320 257 268 77 97 117 
281 311 200 75 86 98 
408 179 357 113 105 101 
203 517 322 84 103 132 
410 338 298 105 122 142 
120 722 146 178 11 35 
311 609 269 147 97 92 
174 236 215 127 46 60 
174 237 214 126 47 61 
217 755 207 145 105 72 
168 336 253 182 132 77 
282 266 132 104 111 124 
316 225 274 98 48 56 
179 922 309 85 66 55 
177 723 160 146 121 109 
203 72 340 115 83 40 
291 196 92 156 117 75 
217 725 185 180 157 137 
239 966 257 152 126 99 
170 667 114 128 137 172 
342 474 237 114 130 160 
204 482 284 139 140 148 
403 411 297 92 119 151 
291 391 173 112 114 122 
237 439 309 96 117 141 
411 234 358 102 81 80 
322 606 339 157 113 94 
313 727 314 87 120 149 
303 672 288 53 64 126 
171 233 218 109 51 58 
171 234 217 120 51 59 
294 161 95 142 125 112 
334 559 286 180 178 185 
365 374 258 77 106 133 
166 261 268 115 128 146 
142 672 102 123 146 190 
214 634 311 156 153 157 
262 715 194 111 88 109 
239 997 279 163 133 105 
201 709 340 93 117 141 
393 222 354 34 51 90 
188 552 163 62 95 144 
224 692 189 54 70 85 
175 356 205 96 54 58 
287 550 345 106 125 145 
264 189 240 84 55 64 
253 931 256 87 70 57 
294 344 120 147 154 167 
280 712 359 82 109 137 
311 413 217 87 98 111 
341 406 337 168 75 9 
398 449 299 152 162 176 
239 835 364 95 74 91 
292 352 122 168 135 135 
193 695 159 176 18 53 
293 337 205 102 97 94 
228 347 273 192 146 92 
188 900 253 93 75 57 
325 423 327 140 24 75 
302 270 289 132 142 158 
271 581 191 159 164 181 
189 586 184 115 123 137 
286 649 350 64 90 127 
190 689 156 98 95 115 
149 691 159 41 59 74 
234 704 187 118 106 96 
338 682 427 140 102 79 
200 762 202 166 120 83 
195 882 254 115 84 57 
185 906 322 144 82 64 
267 614 197 71 75 81 
235 710 189 147 125 101 
253 822 310 151 129 110 
244 305 190 82 86 93 
322 468 228 145 145 152 
232 604 333 81 124 159 
229 242 167 55 83 109 
305 391 303 150 142 141 
179 622 152 68 111 146 
249 974 276 98 75 62 
225 693 208 93 95 100 
302 627 263 160 152 152 
281 196 295 85 47 59 
148 666 144 76 91 115 
402 379 283 79 102 136 
208 60 324 84 64 43 
212 445 269 148 147 151 
239 19 333 93 79 64 
173 236 216 130 50 64 
403 143 323 109 114 122 
172 238 216 129 46 59 
319 581 231 141 166 196 
314 495 337 65 93 140 
325 346 245 100 109 122 
278 716 224 141 104 59 
300 269 246 106 107 111 
384 473 261 170 170 179 
300 328 128 72 107 136 
398 176 356 88 89 93 
215 449 274 131 138 150 
163 407 170 59 99 136 
254 750 371 84 96 111 
247 448 319 84 104 126 
252 323 194 100 97 99 
174 708 166 55 79 104 
230 650 150 78 95 115 
202 631 207 146 148 156 
167 243 222 127 60 61 
165 245 223 121 50 40 
412 138 345 131 96 67 
211 94 260 89 71 52 
235 658 346 149 149 155 
270 883 300 118 91 67 
264 756 378 59 53 98 
166 244 223 124 59 54 
283 590 200 40 65 130 
300 224 260 89 34 46 
214 242 291 147 54 94 
181 582 207 85 121 151 
221 74 343 141 116 88 
286 157 99 159 138 121 
300 352 121 232 195 153 
314 614 289 156 110 94 
233 829 271 163 117 85 
310 332 125 173 171 175 
167 699 141 169 100 79 
324 508 347 105 129 162 
327 596 342 153 114 98 
261 222 142 104 66 84 
211 998 263 185 148 111 
278 264 148 101 108 119 
260 969 308 101 82 71 
339 692 376 140 145 157 
166 248 221 122 48 29 
269 388 179 158 124 84 
388 495 287 85 113 165 
389 130 343 111 97 86 
229 307 172 117 55 52 
258 809 298 181 160 143 
161 507 175 110 130 152 
166 249 222 129 60 41 
241 668 349 65 104 134 
310 368 140 178 152 127 
186 947 270 129 98 69 
290 682 220 187 91 20 
276 571 344 111 122 143 
177 535 281 125 132 148 
222 462 307 86 104 126 
185 579 195 109 50 58 
146 772 267 175 136 86 
410 350 317 185 159 135 
177 841 262 205 154 122 
164 342 209 74 105 135 
291 433 193 50 67 87 
222 451 174 109 121 137 
201 620 165 91 111 152 
294 717 382 106 125 156 
204 920 241 67 54 43 
176 564 265 154 156 167 
165 254 223 100 62 69 
332 346 315 143 28 70 
325 233 295 113 87 77 
167 714 237 87 94 102 
204 604 293 103 121 142 
196 464 260 49 82 124 
281 798 397 133 153 206 
162 517 181 132 149 175 
308 526 345 83 113 154 
295 394 136 175 143 103 
397 384 274 62 100 131 
253 225 164 66 37 43 
254 501 334 97 113 150 
257 635 179 175 126 105 
304 620 376 108 93 81 
258 939 263 100 80 64 
222 620 327 77 127 164 
317 253 267 76 102 125 
200 671 158 129 144 164 
350 178 286 45 53 80 
346 336 325 136 45 81 
290 223 105 100 25 42 
283 268 132 120 88 73 
384 139 302 133 120 108 
423 170 350 119 111 108 
273 146 301 152 68 7 
342 707 409 61 88 141 
289 359 290 106 95 88 
241 304 175 110 114 121 
292 622 220 65 58 52 
261 432 197 99 98 103 
226 705 357 84 102 132 
174 240 214 127 43 57 
303 643 271 170 121 111 
235 122 283 80 68 55 
242 281 180 100 101 107 
272 832 372 192 60 65 
254 205 308 92 52 40 
175 243 213 134 60 74 
215 851 265 133 102 72 
171 539 192 89 108 134 
307 300 291 80 122 155 
368 404 255 106 119 137 
221 595 325 140 143 153 
172 592 235 103 127 152 
150 783 278 172 155 143 
272 215 127 153 64 69 
319 559 337 79 81 138 
330 387 244 85 107 130 
195 917 335 87 67 54 
199 1007 291 161 136 113 
376 475 335 102 118 171 
228 97 293 88 69 45 
175 947 315 120 98 79 
354 513 336 127 145 183 
329 143 269 109 100 100 
118 696 159 134 139 149 
189 361 270 146 157 174 
299 646 240 119 101 82 
165 495 195 69 91 115 
386 172 303 114 42 36 
185 265 199 66 96 122 
174 247 213 120 54 45 
304 673 280 107 111 117 
249 786 256 201 150 120 
240 929 354 191 151 127 
403 406 291 101 120 148 
168 467 227 132 136 148 
178 425 170 105 119 136 
339 558 316 170 179 206 
245 240 195 105 101 102 
330 568 304 136 146 183 
226 339 274 183 139 86 
381 510 302 128 141 178 
221 735 190 145 133 125 
171 240 218 120 37 44 
292 602 341 119 97 82 
197 782 355 159 19 49 
406 378 311 145 127 109 
217 1003 271 125 101 75 
319 516 228 113 129 168 
171 243 217 120 42 52 
234 166 316 94 48 63 
348 499 235 92 117 165 
231 1000 284 133 103 75 
348 436 244 106 122 147 
340 557 302 116 131 152 
148 647 113 96 86 78 
218 838 263 165 124 91 
193 630 239 111 125 143 
178 936 281 93 71 54 
185 629 137 96 86 79 
213 848 264 128 98 68 
190 605 206 133 121 120 
270 881 284 145 113 79 
316 716 323 142 160 179 
383 455 337 166 172 186 
175 471 240 150 148 154 
316 247 293 147 31 79 
282 131 286 104 92 83 
243 588 340 92 138 180 
190 554 161 130 145 199 
201 574 303 144 149 161 
227 675 346 130 130 137 
209 668 153 154 164 200 
244 213 306 107 53 81 
190 63 269 91 74 53 
190 955 328 130 109 91 
249 247 215 101 72 62 
351 357 334 132 19 59 
302 132 248 122 69 1 
171 244 217 122 46 55 
296 211 256 39 56 80 
334 364 322 176 154 134 
170 244 218 122 47 55 
314 647 412 121 99 77 
176 775 325 99 81 77 
198 527 316 92 103 132 
206 833 256 175 124 91 
291 228 92 112 96 106 
186 717 208 104 107 115 
262 759 381 45 57 95 
329 402 241 83 105 131 
160 415 166 60 95 128 
167 708 243 78 38 37 
252 972 324 104 82 69 
249 663 161 65 92 114 
226 735 193 196 186 184 
189 512 155 131 131 143 
200 885 325 160 122 94 
342 375 252 133 137 147 
302 798 349 159 177 199 
303 695 247 163 121 81 
290 224 293 39 66 121 
331 334 312 70 108 144 
213 53 261 78 66 54 
287 153 102 148 130 116 
327 385 241 63 91 116 
367 351 344 183 161 142 
307 667 329 80 106 138 
236 70 337 135 104 93 
276 308 199 72 85 99 
391 264 288 121 124 131 
324 308 249 110 43 57 
390 457 266 119 135 158 
322 587 308 126 96 84 
307 384 302 135 110 77 
307 508 180 118 127 165 
222 763 214 175 129 92 
219 308 177 142 142 146 
213 269 283 89 134 169 
242 830 304 146 127 114 
271 359 284 104 118 134 
292 255 99 160 74 83 
359 222 287 120 76 87 
290 774 296 156 122 98 
380 490 262 82 109 160 
201 610 165 72 100 144 
292 627 355 37 69 120 
181 693 146 129 13 38 
183 581 267 131 140 156 
200 660 160 68 89 139 
290 354 134 115 115 119 
180 754 332 149 18 39 
278 730 244 158 143 132 
207 102 330 148 97 94 
365 519 323 188 190 200 
186 830 326 138 129 124 
218 877 267 107 83 56 
181 298 273 174 175 184 
329 581 245 157 176 201 
408 279 297 145 141 143 
292 369 201 68 75 85 
191 999 283 157 132 111 
293 634 231 116 87 74 
296 553 206 57 80 115 
324 601 335 150 107 90 
268 390 178 162 130 94 
396 129 325 116 92 74 
254 594 186 84 109 133 
185 599 216 136 133 137 
354 534 262 116 133 188 
173 252 213 128 82 48 
374 263 337 85 122 151 
234 170 315 86 36 32 
157 719 262 123 62 61 
244 929 354 185 142 116 
211 117 319 126 96 71 
400 432 283 98 119 151 
255 684 170 191 45 33 
325 658 359 77 107 156 
336 677 393 132 94 68 
298 616 235 179 173 177 
271 844 357 160 140 130 
177 557 272 131 151 175 
271 938 330 203 152 133 
303 788 351 157 175 198 
163 468 189 43 74 115 
278 249 296 135 141 153 
329 122 268 139 96 63 
285 707 240 33 41 49 
292 328 116 123 151 179 
240 849 278 163 124 94 
232 363 273 147 126 107 
201 612 194 112 121 135 
242 249 161 108 64 83 
177 203 284 166 101 85 
209 613 301 76 111 147 
205 357 181 150 147 152 
306 695 249 189 145 100 
242 606 180 85 82 81 
219 111 302 83 68 51 
263 9 227 117 103 92 
274 626 351 48 82 110 
389 249 292 137 73 32 
204 148 278 91 69 57 
250 646 178 64 72 82 
334 341 252 142 61 90 
313 742 428 92 109 199 
235 551 164 129 138 159 
191 146 293 104 69 55 
241 797 256 209 155 127 
170 564 248 200 186 180 
234 12 260 90 77 66 
176 278 206 103 45 62 
236 559 165 112 130 162 
332 140 271 122 117 113 
116 654 124 75 93 112 
280 465 327 113 128 148 
380 295 277 85 117 146 
151 733 254 108 94 80 
197 980 260 139 105 74 
237 639 342 101 127 154 
218 617 170 79 95 112 
168 254 219 124 70 56 
242 664 349 60 90 117 
243 927 250 70 56 43 
186 498 156 90 103 140 
179 907 283 68 55 47 
259 223 305 155 34 29 
299 187 288 125 63 75 
360 467 348 90 118 169 
225 776 221 181 132 95 
217 181 304 107 46 77 
170 254 216 125 75 54 
316 728 301 142 167 195 
280 247 131 108 31 45 
196 328 275 156 26 80 
193 497 282 116 121 130 
314 515 224 118 124 141 
235 262 185 86 87 91 
288 201 250 47 53 70 
266 759 247 159 138 127 
193 978 301 104 82 61 
332 734 363 148 152 180 
253 313 176 98 101 112 
174 690 154 130 125 127 
183 226 207 99 57 69 
304 241 261 73 93 112 
297 410 141 179 90 35 
141 774 249 140 111 82 
237 660 152 72 114 179 
167 383 236 55 99 136 
366 213 292 133 36 14 
275 522 182 88 121 184 
406 294 292 91 124 152 
294 710 411 97 111 132 
283 162 111 145 68 3 
244 253 170 70 81 95 
213 776 216 178 129 92 
357 445 246 163 162 168 
191 125 262 93 73 50 
269 920 280 96 72 61 
165 445 177 107 120 146 
415 228 309 112 74 81 
256 314 199 104 103 105 
195 530 313 143 142 147 
287 159 97 156 134 117 
293 757 422 29 49 162 
253 341 277 109 127 148 
166 365 220 90 108 143 
251 262 206 95 96 101 
207 104 328 146 99 89 
190 584 280 178 166 160 
344 127 279 160 80 23 
227 158 315 117 132 147 
306 397 134 181 104 40 
402 420 312 76 105 148 
277 789 300 160 128 106 
361 401 253 113 120 139 
181 677 121 127 145 164 
242 360 279 115 127 143 
291 369 166 97 98 104 
249 846 322 60 56 54 
187 359 199 99 114 130 
309 325 225 142 109 68 
182 234 206 116 58 67 
200 708 338 123 129 141 
348 450 344 110 130 152 
235 259 291 134 59 65 
238 35 339 125 115 110 
175 397 252 92 119 147 
401 376 341 194 166 135 
271 713 205 112 89 64 
273 30 329 141 126 117 
176 945 310 114 93 74 
216 456 173 88 104 121 
239 951 252 85 56 30 
370 480 338 169 174 189 
400 269 293 114 119 126 
318 632 400 116 96 77 
249 123 281 76 62 46 
155 478 200 157 157 164 
194 445 165 55 91 126 
328 381 320 176 155 135 
294 305 112 182 183 192 
307 590 345 99 89 83 
225 924 351 174 138 111 
161 473 156 105 120 138 
371 523 308 207 205 212 
248 768 232 197 142 110 
195 271 280 149 151 161 
390 477 273 191 186 189 
269 889 314 171 128 97 
253 957 264 107 88 75 
261 171 237 98 82 71 
190 227 199 99 80 82 
165 514 161 173 175 185 
191 226 199 98 90 93 
239 971 260 139 107 74 
189 556 294 143 149 166 
237 386 171 165 138 110 
304 682 407 116 129 154 
229 977 320 106 89 77 
206 614 159 38 66 93 
292 524 338 68 94 144 
420 262 339 125 50 69 
256 732 202 161 118 84 
190 230 198 108 78 64 
178 802 200 219 159 126 
298 808 344 135 141 156 
338 306 260 124 115 109 
402 374 338 152 155 162 
290 347 154 84 48 38 
217 917 348 180 140 114 
200 608 281 148 144 148 
163 486 222 127 131 141 
262 238 230 88 81 82 
314 451 328 110 134 161 
143 790 208 175 121 89 
270 794 398 105 141 202 
343 504 234 111 132 169 
305 798 377 204 210 226 
179 707 296 128 143 162 
249 849 312 86 67 47 
203 170 302 44 83 137 
230 671 203 54 91 119 
258 352 189 126 112 102 
297 185 288 92 66 92 
261 436 172 128 113 101 
280 560 194 88 102 134 
217 849 267 153 115 83 
280 242 110 95 95 121 
278 507 178 75 112 175 
204 881 251 95 70 53 
356 480 346 98 124 174 
285 396 172 196 156 107 
184 227 206 105 60 71 
186 224 204 91 85 89 
288 357 160 224 187 144 
245 716 193 145 137 142 
325 396 238 62 91 116 
323 245 274 76 106 131 
315 434 324 102 125 154 
174 666 116 109 128 146 
413 318 310 165 164 171 
186 228 203 108 63 74 
284 482 165 83 112 187 
247 916 353 100 73 58 
211 647 310 87 124 152 
275 177 103 105 68 84 
186 230 202 109 54 64 
203 648 131 180 182 193 
303 648 251 81 121 154 
228 540 160 162 165 177 
212 962 333 105 86 75 
420 281 323 114 139 165 
259 753 371 73 90 111 
300 585 212 93 120 155 
176 532 167 93 121 162 
165 431 160 73 105 136 
114 702 153 136 66 77 
404 236 305 123 127 135 
340 127 275 158 81 28 
370 446 250 158 159 167 
332 693 441 170 115 91 
199 643 170 102 121 160 
272 566 343 120 135 158 
354 217 309 106 109 122 
177 700 312 99 132 165 
189 635 260 89 102 126 
173 721 221 89 93 103 
242 242 192 89 88 89 
193 698 323 111 117 128 
276 345 173 217 178 132 
360 254 316 85 114 137 
316 679 313 135 149 174 
205 599 174 69 103 132 
183 588 256 137 144 158 
331 548 330 103 118 148 
247 231 222 89 59 66 
224 919 242 51 44 40 
207 537 324 213 197 187 
289 303 282 85 121 152 
190 226 200 90 81 84 
331 232 280 74 101 123 
401 237 303 119 109 103 
226 708 358 82 104 135 
382 145 301 78 70 100 
413 329 314 91 116 140 
316 745 339 166 179 199 
214 808 363 158 92 50 
212 118 310 75 61 47 
418 176 332 92 89 91 
302 497 205 76 98 124 
303 662 416 132 109 87 
178 319 270 86 120 151 
402 212 306 85 80 94 
243 449 316 69 94 121 
307 664 380 85 98 155 
189 232 199 116 83 69 
296 180 101 123 103 102 
388 473 268 186 183 188 
160 541 214 64 84 120 
307 675 296 65 65 67 
189 235 199 114 85 68 
309 288 291 163 160 165 
303 454 206 67 85 112 
278 309 199 73 85 97 
230 891 350 193 148 124 
202 623 202 123 129 141 
191 232 198 111 80 62 
197 711 182 43 61 87 
170 810 211 243 164 123 
246 502 169 93 114 159 
200 625 278 148 146 152 
338 742 392 135 153 184 
192 629 248 131 133 140 
328 661 350 81 104 155 
161 312 245 155 159 169 
278 636 349 44 76 115 
408 361 302 155 138 121 
310 569 338 65 100 143 
318 134 257 133 70 3 
253 227 230 80 61 62 
181 524 287 106 118 136 
310 235 293 103 83 100 
151 772 279 130 109 87 
189 239 199 125 82 67 
151 779 278 156 132 109 
216 56 262 83 71 59 
161 336 223 117 142 170 
147 706 122 214 140 126 
371 293 338 127 52 83 
266 22 234 106 73 58 
290 136 247 115 76 54 
299 456 168 121 130 143 
206 103 323 127 95 76 
363 278 276 90 121 149 
362 369 258 110 119 135 
246 959 339 104 84 71 
389 146 306 88 70 88 
234 225 182 106 45 36 
190 238 198 115 77 55 
296 763 287 99 40 67 
302 384 146 127 118 115 
227 89 298 79 65 49 
332 364 320 171 149 128 
309 595 276 144 135 133 
247 232 168 90 31 29 
150 741 238 79 77 76 
271 897 281 142 119 100 
324 705 344 138 153 183 
187 233 201 111 67 67 
266 935 278 75 61 51 
131 754 197 57 55 61 
163 540 201 140 142 150 
256 705 360 78 98 119 
297 378 145 99 111 126 
372 484 335 174 174 184 
206 427 176 78 97 116 
147 800 216 198 137 106 
297 600 343 118 98 79 
380 404 259 103 118 140 
252 429 312 85 105 136 
186 375 194 90 98 107 
297 279 114 128 126 131 
174 709 292 125 141 161 
304 305 222 85 91 100 
223 664 152 110 161 205 
228 110 292 76 60 43 
375 509 317 122 131 179 
307 318 221 138 108 72 
208 630 188 105 43 68 
239 726 366 124 127 136 
304 382 129 211 177 137 
194 617 161 88 117 151 
182 355 204 61 64 68 
250 260 201 98 99 105 
207 296 278 148 148 154 
250 101 304 100 80 58 
151 784 279 171 155 144 
388 254 290 125 119 118 
358 510 238 166 171 186 
320 598 362 115 98 81 
244 417 304 56 89 124 
329 746 366 153 167 194 
325 597 357 131 108 85 
187 865 308 161 120 87 
269 947 324 166 123 103 
184 236 204 115 54 61 
390 140 307 127 119 114 
211 278 180 125 32 62 
219 183 303 109 45 75 
271 380 297 108 123 141 
160 785 179 225 157 116 
325 451 335 61 97 150 
170 769 309 101 99 100 
302 650 324 45 73 113 
419 183 335 90 91 95 
408 319 337 121 136 156 
137 777 235 98 85 74 
184 775 188 157 121 86 
132 638 120 132 135 145 
264 674 361 80 98 121 
340 129 277 150 72 12 
178 225 211 66 55 75 
163 500 174 125 137 152 
198 664 127 151 164 206 
211 865 333 146 114 85 
178 226 210 75 47 68 
275 150 112 127 111 100 
361 164 308 100 99 105 
352 488 238 150 156 172 
320 374 312 173 151 129 
305 674 279 149 146 151 
293 371 162 124 121 123 
325 497 343 169 172 183 
282 233 241 108 104 104 
275 315 279 80 127 163 
257 863 327 148 110 89 
413 203 314 124 95 68 
297 240 256 69 84 100 
305 796 386 153 172 201 
209 756 204 141 103 69 
166 383 193 43 91 131 
180 552 190 138 135 140 
220 690 180 129 129 137 
188 909 254 93 71 53 
168 828 294 180 140 111 
281 280 284 142 134 131 
349 282 313 141 143 151 
261 275 206 93 95 100 
325 462 336 51 89 152 
178 229 210 104 56 62 
160 625 135 113 126 142 
182 771 182 156 120 84 
355 181 288 51 74 110 
215 653 191 111 95 112 
291 218 292 47 57 88 
346 289 269 128 134 146 
397 253 355 94 133 166 
206 877 335 163 127 98 
225 49 339 125 113 105 
211 369 179 111 111 117 
384 292 278 82 116 145 
268 390 301 97 114 141 
307 184 263 86 47 38 
227 480 169 66 90 111 
246 592 342 112 105 143 
311 599 238 141 158 181 
336 173 296 51 79 105 
157 811 284 166 136 111 
392 455 324 149 154 167 
329 650 412 123 98 70 
311 506 217 124 131 144 
324 185 292 143 89 71 
357 436 346 136 119 103 
309 755 324 118 71 80 
304 574 219 138 143 154 
379 498 264 136 137 176 
415 192 319 115 71 60 
181 577 266 130 137 152 
229 245 294 105 108 132 
190 663 245 134 135 142 
161 717 146 103 89 124 
303 226 99 131 49 69 
311 644 409 117 97 76 
174 729 204 119 59 52 
280 198 246 59 63 75 
418 294 320 140 111 112 
314 308 296 87 125 156 
206 381 268 87 108 146 
201 472 266 105 121 141 
408 252 302 119 127 139 
198 852 257 142 109 81 
128 658 96 170 177 193 
234 776 229 193 143 107 
327 280 302 116 133 153 
368 310 338 172 150 124 
162 227 266 89 42 55 
183 557 181 119 135 155 
262 939 272 74 57 48 
361 326 332 149 117 92 
381 486 323 136 145 168 
244 130 314 109 88 64 
186 51 257 82 74 66 
257 586 346 80 116 148 
288 636 216 118 79 90 
225 847 339 142 107 75 
153 296 239 80 128 165 
291 649 349 118 126 140 
203 154 273 84 74 67 
231 517 342 103 125 149 
251 32 295 98 84 73 
217 532 336 139 151 168 
334 530 230 148 162 190 
249 67 331 125 92 79 
166 370 199 61 95 135 
129 672 143 99 108 120 
176 235 213 125 55 66 
345 706 392 99 120 150 
198 674 152 131 63 61 
192 1000 294 155 127 103 
312 500 216 74 99 138 
138 766 234 128 111 97 
293 795 396 172 178 206 
258 823 379 204 40 66 
366 531 298 138 158 205 
336 433 337 127 115 108 
153 330 218 160 165 178 
237 826 370 190 94 105 
277 780 283 195 161 123 
292 691 354 60 91 137 
254 746 212 141 133 128 
285 267 114 117 121 131 
341 335 256 149 100 108 
305 696 442 90 115 149 
320 773 383 126 136 194 
223 182 306 105 34 65 
210 121 262 76 64 51 
191 821 246 210 152 113 
318 579 301 69 118 154 
358 281 320 96 36 51 
372 365 351 139 16 58 
291 293 119 125 120 119 
215 431 178 70 97 127 
207 428 176 64 88 110 
180 232 208 108 53 56 
180 752 330 152 17 42 
276 807 391 182 190 214 
203 699 171 59 75 129 
251 44 298 93 72 45 
293 822 357 180 41 56 
361 472 242 164 167 178 
169 629 132 75 85 97 
273 434 318 155 152 156 
270 198 135 58 44 51 
132 747 196 151 115 74 
182 496 257 54 76 102 
268 927 341 181 138 113 
245 977 277 111 89 66 
157 763 162 35 38 108 
208 429 176 59 82 104 
108 683 125 125 129 163 
373 178 324 61 86 107 
277 328 166 215 176 133 
254 61 329 120 93 75 
326 545 336 123 126 135 
293 356 122 176 38 69 
273 430 179 114 62 23 
181 243 206 129 63 64 
266 636 358 75 104 135 
172 249 275 161 158 161 
184 896 305 142 107 82 
280 734 418 161 157 161 
375 253 283 89 111 132 
198 866 312 139 106 80 
339 651 402 129 98 65 
179 715 219 90 100 113 
303 627 254 145 140 142 
260 822 321 190 145 110 
159 426 200 90 109 133 
248 200 228 91 89 94 
352 151 286 151 42 10 
179 816 235 211 152 118 
250 573 346 125 132 146 
169 441 230 86 103 138 
269 883 313 161 123 92 
239 785 240 197 145 112 
204 770 359 165 161 164 
208 879 258 89 67 49 
418 268 341 151 149 153 
251 31 295 106 92 82 
282 546 342 43 60 118 
287 601 206 80 114 165 
332 123 268 144 94 57 
165 341 237 106 125 145 
288 364 157 206 169 125 
297 124 255 133 101 71 
383 480 324 184 180 185 
175 526 156 146 165 191 
349 223 306 104 101 111 
383 132 325 95 64 20 
281 221 101 104 102 119 
203 612 286 155 152 156 
166 260 269 111 122 138 
398 366 346 162 151 144 
356 339 332 167 143 117 
130 671 99 196 195 208 
316 134 290 108 93 82 
334 251 277 131 119 112 
193 505 151 121 140 175 
277 230 111 126 125 132 
179 249 207 123 80 55 
235 282 283 126 149 175 
283 330 164 193 158 121 
172 580 225 124 93 90 
354 468 348 88 119 166 
223 519 159 95 111 143 
300 278 242 90 95 103 
231 903 350 174 138 113 
287 168 94 167 73 9 
317 592 258 96 116 147 
160 491 158 169 166 171 
236 552 347 141 157 179 
116 678 104 134 154 216 
210 258 180 137 92 80 
200 579 299 112 122 148 
291 691 233 139 68 67 
140 718 188 110 95 78 
118 717 166 127 58 66 
278 534 340 134 148 166 
169 643 153 39 91 130 
260 360 198 97 93 96 
195 702 328 158 155 159 
231 585 169 125 147 177 
180 249 207 124 81 56 
264 441 322 106 126 150 
325 218 278 73 44 36 
329 672 371 107 117 155 
165 493 151 127 143 171 
169 427 236 162 157 160 
402 315 286 89 113 134 
227 980 310 116 81 48 
229 679 211 98 98 102 
305 686 373 70 89 152 
171 230 275 144 13 55 
192 521 306 71 94 124 
287 327 165 117 111 109 
182 251 204 126 92 66 
259 638 183 119 86 73 
352 289 272 130 138 150 
192 718 197 98 104 114 
294 140 295 135 118 99 
304 270 107 136 87 99 
419 240 313 140 134 134 
363 170 309 126 54 77 
253 649 174 88 93 101 
243 595 180 126 125 129 
257 189 307 105 46 46 
162 827 274 200 150 122 
292 300 283 159 156 160 
262 186 304 108 36 37 
209 652 206 64 118 156 
181 252 205 118 88 54 
183 957 324 119 97 79 
259 939 346 197 143 121 
333 375 322 136 142 152 
211 70 342 113 86 50 
245 224 305 155 47 42 
243 271 161 80 124 160 
183 677 280 146 145 152 
171 720 156 94 87 82 
180 254 206 126 95 67 
180 255 206 124 94 69 
169 494 241 120 126 137 
159 261 243 100 36 46 
155 805 284 120 124 132 
296 773 312 118 55 78 
247 204 225 105 96 90 
259 376 192 107 95 91 
266 963 320 85 68 55 
304 760 307 133 24 43 
287 441 160 129 92 114 
293 179 290 98 67 85 
144 785 265 134 126 122 
231 513 339 118 130 147 
172 524 270 141 142 148 
330 715 433 188 130 107 
188 243 198 117 73 66 
197 710 168 57 55 133 
321 603 327 161 111 94 
304 456 207 81 95 113 
253 294 171 99 110 125 
287 279 124 139 72 10 
331 545 229 110 127 178 
394 456 273 122 145 172 
245 603 339 156 156 164 
237 452 313 51 84 124 
234 948 249 115 90 63 
250 29 337 76 62 51 
219 46 322 96 85 75 
398 453 302 102 125 152 
299 494 166 181 186 214 
194 301 276 128 145 165 
229 62 338 114 94 72 
202 648 224 149 151 160 
182 912 308 118 94 77 
305 309 119 71 76 94 
330 329 251 120 86 98 
302 487 206 118 124 135 
412 194 316 120 72 58 
189 599 202 81 118 149 
390 403 266 64 94 126 
330 672 368 148 157 173 
242 218 305 75 57 87 
268 21 243 151 118 96 
298 241 93 116 98 122 
231 426 293 61 93 127 
404 398 302 111 132 157 
230 25 322 86 73 61 
187 429 168 44 76 101 
284 619 200 90 79 66 
178 695 146 137 68 96 
190 245 196 99 92 99 
141 692 161 75 93 110 
223 600 179 86 84 84 
201 612 196 120 128 141 
289 341 130 123 11 53 
392 351 274 115 121 133 
260 423 198 97 90 97 
257 356 282 101 114 132 
323 457 230 79 104 132 
184 240 203 127 64 66 
313 722 309 141 158 180 
226 342 273 185 147 97 
294 383 202 75 83 93 
188 457 255 47 79 133 
197 356 272 131 150 171 
202 764 204 176 126 88 
278 881 285 163 136 110 
354 473 240 149 155 171 
324 697 342 67 126 167 
223 389 268 50 88 119 
280 620 347 74 100 134 
222 736 192 134 124 119 
346 293 268 145 147 155 
196 688 226 81 92 104 
313 170 88 152 83 24 
265 329 277 151 150 156 
184 781 190 162 125 90 
403 233 358 93 67 85 
328 597 352 128 105 84 
278 891 286 122 95 63 
329 675 381 96 108 129 
261 383 297 55 89 127 
273 128 274 78 67 58 
304 694 383 30 50 129 
299 366 211 77 89 103 
211 830 353 155 134 126 
185 245 202 122 73 57 
163 737 288 129 26 40 
327 679 343 86 134 172 
185 703 166 113 118 129 
353 444 244 127 137 161 
184 679 251 75 96 114 
184 247 203 124 73 61 
168 322 219 116 122 131 
315 469 215 143 140 144 
317 143 259 114 106 101 
313 314 232 98 89 87 
182 805 336 65 54 55 
222 433 177 54 66 78 
279 727 245 122 107 93 
250 412 170 169 133 91 
376 162 299 89 55 78 
182 356 268 158 22 80 
154 805 209 217 148 120 
299 276 103 157 135 145 
224 979 310 94 68 45 
240 255 172 69 83 99 
320 605 315 160 114 100 
312 726 311 148 162 181 
248 504 335 123 132 155 
274 293 204 81 85 92 
395 468 294 125 132 161 
297 707 399 83 103 126 
200 286 187 92 118 141 
204 926 341 94 76 61 
226 670 158 137 117 166 
278 416 309 40 81 124 
326 557 329 56 61 79 
151 664 144 65 89 117 
260 127 250 119 84 57 
317 720 333 59 72 114 
415 204 317 108 104 107 
187 994 277 164 132 101 
333 564 316 117 129 170 
317 721 286 99 144 180 
274 414 181 141 92 41 
298 218 88 135 97 104 
203 383 267 73 100 145 
274 727 222 160 135 112 
224 692 191 36 43 51 
342 549 274 197 194 201 
175 416 180 69 94 126 
199 471 162 46 91 135 
184 759 343 152 167 188 
390 228 299 120 45 55 
160 513 189 85 111 140 
208 1001 301 164 142 126 
270 951 301 119 93 77 
166 376 220 47 91 134 
233 42 337 112 99 89 
235 259 189 73 75 84 
320 181 291 99 87 96 
188 996 284 149 114 95 
267 357 189 118 107 101 
265 847 350 165 156 155 
212 633 305 148 147 153 
259 786 271 176 160 153 
219 174 306 49 57 90 
353 192 288 115 47 41 
294 195 102 97 54 57 
313 262 292 100 123 146 
192 586 282 120 128 148 
215 956 338 127 105 91 
302 732 435 108 132 202 
161 825 255 214 154 123 
311 187 266 92 43 39 
281 213 245 83 66 57 
136 774 197 168 141 121 
219 551 331 148 163 182 
260 18 221 136 123 115 
331 427 238 75 102 129 
403 405 290 93 115 150 
247 955 254 87 61 42 
178 719 216 110 117 126 
281 323 174 82 86 93 
199 119 262 77 63 47 
279 248 124 126 32 55 
314 685 271 121 134 150 
222 619 155 105 95 88 
119 672 141 37 75 109 
342 326 320 175 151 128 
321 579 316 56 107 147 
173 328 212 95 111 129 
188 254 198 107 109 115 
278 439 171 86 67 55 
203 558 315 205 194 192 
154 676 143 43 39 91 
181 709 307 103 122 145 
303 235 93 128 81 99 
250 751 372 82 97 115 
201 200 195 115 65 60 
279 799 396 82 102 194 
253 742 207 177 153 140 
129 650 106 74 71 72 
221 495 160 161 157 159 
252 80 315 113 84 65 
406 263 354 83 132 168 
116 690 153 136 141 151 
252 957 262 100 83 66 
251 560 343 124 143 168 
184 251 202 127 94 81 
186 248 200 109 76 74 
283 265 120 152 125 94 
230 464 171 67 95 123 
386 204 346 101 26 48 
230 992 263 131 97 64 
203 248 286 84 127 162 
247 476 172 171 166 170 
285 22 306 132 101 81 
173 463 236 66 92 138 
289 229 95 102 115 134 
270 613 340 45 50 58 
253 816 302 162 115 120 
365 426 250 91 116 149 
269 917 280 110 88 75 
288 154 249 87 70 68 
289 531 339 112 127 150 
240 508 168 115 129 156 
187 266 279 186 180 183 
211 276 179 110 88 98 
177 935 310 74 61 49 
164 643 121 96 86 77 
370 233 288 153 146 146 
286 204 93 122 110 110 
221 886 259 80 65 48 
420 168 342 112 91 68 
244 240 194 104 100 101 
329 266 300 158 158 164 
293 516 199 59 84 114 
182 929 261 89 71 55 
377 201 297 100 28 37 
292 405 173 68 90 113 
192 414 264 87 113 149 
364 429 250 76 103 136 
232 939 245 82 66 56 
235 27 336 100 86 73 
215 683 338 154 151 154 
186 950 275 130 98 75 
228 262 289 115 54 74 
238 230 173 93 26 42 
341 510 343 116 133 173 
261 142 309 117 106 97 
325 544 228 117 142 183 
241 544 166 24 59 117 
206 712 173 121 102 96 
274 527 183 106 134 169 
173 375 201 44 82 127 
273 743 408 50 84 146 
178 325 202 135 134 138 
143 704 118 120 126 144 
214 589 318 165 162 167 
140 730 139 136 131 140 
408 253 355 138 128 124 
183 867 268 128 90 58 
169 429 162 83 111 140 
258 680 168 183 34 85 
218 244 291 169 163 161 
202 868 316 141 102 75 
382 201 342 146 37 63 
318 651 336 95 118 145 
301 608 359 112 95 82 
216 87 340 152 112 99 
352 541 320 137 157 197 
295 678 232 102 37 24 
178 245 209 135 61 68 
211 699 172 103 110 136 
179 245 208 137 73 71 
256 351 191 120 106 96 
359 436 347 142 127 113 
210 379 180 181 153 125 
257 64 318 108 84 64 
363 259 322 91 129 158 
161 826 255 215 156 125 
256 53 334 119 92 76 
259 938 264 99 81 67 
280 356 286 111 124 140 
176 249 210 128 89 59 
296 743 266 164 76 91 
308 327 126 87 124 153 
187 617 257 82 104 127 
109 693 132 150 161 176 
310 415 215 71 86 103 
258 420 311 69 98 134 
275 668 350 56 76 100 
304 407 152 110 92 75 
227 801 245 200 141 113 
178 248 209 118 58 29 
296 238 255 73 89 105 
194 759 187 98 70 49 
268 20 289 124 104 85 
184 555 178 112 131 155 
354 483 347 98 129 173 
180 76 261 142 106 87 
255 768 382 54 69 117 
304 264 101 128 54 76 
181 499 259 94 107 124 
300 784 400 103 121 200 
159 459 192 85 112 148 
402 329 285 152 147 148 
159 263 233 103 44 53 
233 795 375 157 170 190 
242 741 370 126 126 133 
233 800 250 202 145 118 
340 712 413 111 127 161 
296 583 339 113 134 161 
330 611 353 154 111 91 
326 416 326 130 115 101 
165 707 261 101 99 103 
358 358 339 145 37 63 
250 961 261 140 112 83 
365 196 318 116 79 81 
179 538 165 103 128 164 
208 411 266 29 71 120 
172 567 247 117 130 156 
178 534 164 84 110 170 
214 991 307 114 80 55 
280 164 296 143 51 38 
264 129 292 68 55 42 
221 462 305 88 103 126 
247 16 340 91 77 61 
398 344 278 156 149 148 
250 124 272 75 61 46 
275 465 173 55 88 149 
290 283 120 141 74 20 
403 320 346 190 165 141 
363 489 242 126 139 159 
314 612 246 118 92 114 
220 704 180 127 102 70 
177 729 322 141 149 163 
163 625 127 115 129 145 
207 769 360 151 158 171 
284 214 246 76 57 33 
307 664 422 123 99 74 
221 95 301 84 68 49 
305 675 294 66 69 80 
321 672 339 66 78 107 
229 907 250 63 54 45 
176 690 155 133 126 126 
161 229 231 79 20 38 
198 402 183 55 83 106 
243 37 299 80 67 54 
268 476 177 134 143 158 
236 385 278 73 100 134 
159 526 196 75 95 143 
156 510 209 102 118 141 
167 325 222 96 78 57 
331 614 364 137 105 79 
388 416 345 143 122 98 
205 67 339 103 78 51 
302 345 215 128 98 61 
196 550 158 115 147 189 
183 167 284 77 71 65 
161 415 195 62 90 141 
275 934 308 137 108 83 
196 750 181 120 118 122 
207 123 264 76 63 49 
250 382 170 125 109 118 
309 608 238 103 141 179 
315 123 261 124 105 91 
292 408 168 91 100 112 
304 636 390 133 109 88 
373 190 330 118 52 76 
213 943 248 101 72 53 
245 986 280 134 101 68 
274 755 265 177 144 110 
302 691 439 100 117 134 
165 226 224 56 49 58 
339 362 252 89 108 132 
256 219 234 94 63 62 
202 146 311 167 71 10 
311 189 266 89 40 30 
271 804 309 178 153 131 
244 771 380 53 73 132 
246 233 168 90 23 37 
333 746 403 178 184 202 
295 538 206 95 108 123 
328 629 362 141 101 80 
325 687 443 126 92 69 
341 141 280 139 113 95 
308 284 290 154 157 165 
220 133 320 106 89 72 
293 324 131 79 115 146 
355 173 305 125 46 73 
269 244 230 80 77 79 
169 735 297 131 134 142 
278 340 170 212 172 125 
405 369 333 194 163 131 
256 295 172 121 119 123 
274 231 237 86 70 64 
184 953 325 125 104 86 
355 372 256 96 113 135 
169 686 149 87 92 120 
234 536 162 122 138 165 
247 690 358 113 121 144 
198 665 298 113 85 92 
287 134 249 116 76 50 
176 720 317 105 125 148 
174 481 148 112 122 135 
164 231 227 103 53 58 
304 601 231 181 177 182 
156 515 218 107 120 141 
246 507 169 124 142 166 
166 231 224 116 58 68 
303 646 253 81 130 167 
329 543 335 106 122 166 
161 225 232 60 41 41 
225 72 303 80 67 53 
422 228 349 154 96 87 
237 628 154 128 101 70 
251 277 161 164 161 166 
254 62 302 100 78 52 
299 626 313 69 91 151 
298 166 90 152 102 66 
155 636 126 41 53 65 
387 198 350 117 39 64 
177 299 203 113 123 137 
228 859 340 159 121 96 
294 655 211 120 92 61 
246 846 315 107 75 54 
185 677 124 170 195 224 
188 628 254 117 125 137 
348 514 337 99 124 175 
219 65 338 108 86 61 
292 349 121 160 134 147 
267 618 187 62 65 69 
373 511 267 152 169 189 
269 200 300 37 59 103 
326 136 265 141 72 2 
160 224 239 99 45 56 
296 762 285 120 107 101 
384 470 260 179 175 180 
175 948 309 119 95 71 
214 398 267 27 69 107 
214 926 346 160 125 100 
256 843 360 73 30 86 
214 371 269 136 141 152 
174 558 266 105 131 165 
198 590 172 112 132 155 
286 330 197 101 95 92 
248 90 313 114 90 67 
258 368 171 170 124 86 
269 618 189 45 52 61 
271 198 113 128 96 124 
404 404 323 132 113 99 
175 693 267 101 119 138 
275 669 350 57 77 101 
158 302 228 77 104 129 
176 395 187 43 82 116 
164 409 228 123 132 146 
264 160 122 148 62 24 
228 448 302 126 134 148 
222 331 176 94 113 133 
229 878 348 161 122 94 
298 449 167 48 86 122 
160 708 171 72 80 90 
158 799 192 209 140 106 
200 178 298 55 42 57 
164 806 299 153 148 149 
234 81 331 134 107 83 
303 663 257 89 93 103 
160 443 173 93 110 147 
276 228 129 102 55 78 
311 626 328 138 136 139 
224 887 349 170 127 103 
160 228 239 84 21 34 
276 413 180 148 117 79 
194 437 170 103 118 136 
256 865 286 116 94 69 
371 444 348 119 143 173 
232 442 306 121 129 142 
191 997 274 159 126 96 
207 940 342 99 81 69 
180 928 314 70 54 46 
230 67 257 112 88 72 
220 695 349 54 81 129 
233 677 199 49 86 113 
237 754 374 142 143 150 
160 433 194 83 106 134 
182 904 317 117 74 53 
251 197 232 83 89 98 
210 724 354 108 123 151 
290 359 128 130 71 85 
189 364 270 95 117 159 
368 190 320 102 90 100 
283 312 161 68 93 114 
345 239 281 126 92 82 
178 829 314 93 96 102 
265 750 231 183 160 141 
261 284 168 137 140 148 
368 262 326 77 120 153 
309 715 443 158 169 204 
275 667 183 76 63 59 
286 250 294 147 95 41 
163 234 228 96 46 51 
406 371 294 161 126 122 
142 791 262 133 123 119 
205 490 309 130 132 140 
305 608 236 131 153 185 
223 449 295 105 119 136 
340 712 368 32 51 122 
192 871 310 136 107 77 
161 237 229 88 27 38 
216 922 347 182 142 116 
160 237 231 95 39 44 
263 883 327 168 125 101 
318 774 387 185 186 204 
226 810 369 151 42 54 
139 784 251 113 92 76 
162 334 229 87 121 157 
184 872 269 131 96 70 
229 687 192 52 49 49 
338 692 370 133 139 151 
218 51 321 84 69 59 
161 238 231 98 46 47 
219 763 368 93 113 150 
395 466 296 116 131 165 
344 124 279 151 83 40 
236 272 287 171 169 176 
355 484 346 95 125 175 
161 554 215 141 143 149 
184 241 282 80 130 165 
334 128 271 152 78 18 
280 793 310 112 114 122 
223 445 292 130 135 147 
243 966 335 102 86 73 
199 330 184 81 111 138 
177 440 248 88 110 147 
210 521 329 98 121 146 
164 510 250 127 130 139 
180 317 199 121 125 134 
159 416 207 128 133 145 
384 171 303 107 38 33 
245 255 171 65 77 92 
421 166 359 116 102 122 
257 557 177 140 154 183 
366 145 293 104 51 67 
339 382 330 171 149 129 
159 534 231 80 97 151 
341 252 279 151 144 144 
277 206 113 61 45 80 
358 246 283 157 150 150 
351 238 283 148 144 145 
166 233 224 103 42 46 
351 308 265 114 122 134 
329 395 324 163 73 5 
193 635 164 69 103 138 
315 596 291 52 51 52 
306 759 320 163 48 57 
141 742 149 155 136 128 
268 914 278 113 86 70 
221 703 180 101 115 135 
334 675 428 130 99 63 
164 237 226 96 26 49 
221 819 259 204 142 113 
262 351 198 98 94 98 
193 357 271 77 99 154 
402 385 283 76 101 136 
203 552 316 116 141 169 
230 976 323 102 85 73 
370 393 350 196 169 145 
260 911 346 153 118 90 
183 428 256 89 110 144 
196 654 238 85 105 127 
378 481 330 137 147 165 
226 953 344 142 112 94 
