ply
format ascii 1.0
comment Created by CloudCompare v2.11.1 (Anoia)
comment Created 2/28/22 9:40 PM
obj_info Generated by CloudCompare!
element vertex 2008
property float x
property float y
property float z
property uchar red
property uchar green
property uchar blue
end_header
213 620 302 159 157 162 
185 482 144 147 154 177 
107 697 150 160 24 50 
170 818 301 167 139 112 
273 757 400 95 113 182 
253 136 289 127 112 98 
398 198 251 91 49 34 
240 49 242 103 84 64 
184 582 171 95 119 143 
184 959 271 101 79 56 
171 573 194 70 102 130 
168 692 273 123 137 154 
240 50 241 104 85 65 
183 910 248 88 67 49 
189 685 306 141 141 146 
194 943 250 159 125 91 
287 25 301 121 97 86 
403 198 255 100 46 19 
166 796 199 233 161 124 
300 430 161 126 110 94 
242 877 264 85 55 28 
140 788 258 158 136 119 
210 702 174 109 113 122 
329 676 335 84 118 167 
307 646 358 77 95 157 
223 288 153 82 107 134 
268 596 188 114 120 143 
184 902 313 122 72 52 
221 892 238 71 60 51 
172 668 275 106 115 132 
432 377 232 137 118 91 
446 140 265 142 114 98 
379 163 263 112 125 140 
215 104 305 147 97 79 
199 622 163 67 102 137 
287 799 377 102 113 202 
136 657 137 30 59 110 
232 867 337 157 118 90 
251 19 290 100 88 78 
185 620 136 97 88 80 
354 352 253 140 10 59 
215 493 149 148 150 159 
198 478 279 69 93 118 
203 638 131 116 113 113 
145 780 183 198 136 104 
318 623 324 105 122 150 
170 653 111 147 167 208 
183 628 125 96 86 76 
300 225 167 126 108 96 
279 807 317 115 99 95 
194 79 223 109 93 78 
314 768 361 144 161 189 
325 496 309 106 128 154 
414 315 270 189 168 151 
197 72 223 115 98 81 
432 211 260 142 92 55 
197 73 223 113 96 80 
190 910 240 94 74 53 
195 659 287 87 104 126 
406 217 274 45 72 104 
197 75 222 107 92 77 
193 718 337 104 116 140 
215 678 337 145 143 148 
238 701 185 101 110 133 
256 130 172 111 102 95 
157 294 250 162 155 155 
157 384 222 73 108 138 
227 671 202 81 55 55 
100 659 112 105 119 157 
179 651 151 59 78 126 
214 676 167 174 100 104 
194 852 304 154 109 82 
327 585 338 128 106 84 
332 729 390 127 145 185 
302 637 244 76 116 151 
316 205 203 66 55 57 
236 609 172 48 55 63 
320 195 254 131 43 67 
243 503 159 64 77 124 
163 546 160 175 175 185 
299 565 325 47 84 151 
437 359 234 122 115 114 
366 175 246 137 36 10 
192 897 235 100 73 54 
142 665 101 117 143 210 
182 651 251 79 101 129 
175 564 157 122 136 174 
444 317 260 120 145 173 
292 533 326 163 161 167 
133 773 242 106 98 93 
299 222 260 45 69 106 
137 745 247 145 128 114 
348 433 279 114 105 100 
325 319 172 113 106 104 
402 337 218 119 128 140 
429 380 229 94 91 108 
218 987 298 192 159 127 
419 242 281 148 86 108 
257 130 236 92 77 65 
196 939 246 131 100 71 
285 209 163 124 67 48 
189 540 150 80 103 156 
207 537 153 27 49 97 
303 271 159 86 101 119 
259 469 311 129 137 151 
202 586 164 46 62 79 
264 878 311 174 128 106 
158 570 195 67 113 149 
195 804 343 141 132 130 
203 67 219 113 96 78 
200 65 221 114 96 76 
300 244 257 151 14 74 
301 479 163 76 103 182 
332 718 351 194 191 198 
248 34 288 90 78 69 
229 657 338 142 141 146 
345 225 249 140 103 92 
192 819 333 170 148 129 
188 646 238 70 99 131 
236 781 244 203 150 121 
193 954 258 95 77 58 
382 161 266 124 116 127 
202 64 220 111 94 78 
185 171 281 51 63 88 
259 675 345 69 88 112 
208 643 190 53 100 133 
285 173 266 132 34 53 
106 684 148 131 141 155 
180 907 254 73 58 47 
166 709 172 103 110 120 
197 964 248 119 91 59 
203 68 218 114 96 79 
174 811 312 100 92 88 
203 69 218 115 97 79 
305 775 347 152 166 186 
409 433 221 168 168 175 
171 337 257 163 91 65 
180 751 333 86 81 131 
227 705 353 97 118 144 
312 595 236 179 180 190 
419 343 224 144 138 136 
173 726 306 128 141 158 
388 306 215 119 130 146 
201 68 220 116 98 80 
214 533 318 144 151 165 
258 11 288 75 66 59 
334 457 182 167 172 184 
179 714 323 100 119 141 
393 193 249 83 41 28 
213 770 215 184 132 98 
242 770 237 203 150 115 
311 735 337 102 123 147 
202 68 220 115 97 79 
241 534 157 111 133 165 
186 887 305 160 119 96 
306 640 295 118 121 129 
200 384 165 159 137 115 
183 189 279 152 33 72 
290 323 240 155 152 154 
184 471 144 166 168 181 
204 66 218 112 95 76 
301 774 388 219 214 222 
331 313 177 153 116 74 
279 565 186 66 95 140 
205 67 218 112 95 77 
229 850 257 133 102 69 
159 816 274 201 155 125 
310 298 244 80 123 156 
372 529 246 157 172 199 
216 575 155 92 110 163 
328 485 303 165 166 173 
306 604 319 119 81 74 
360 482 189 134 149 173 
327 747 371 56 103 182 
201 660 129 114 129 155 
213 674 167 136 118 129 
206 66 218 110 94 79 
266 508 323 132 141 156 
258 908 259 82 67 54 
337 557 255 215 213 222 
265 298 235 76 121 157 
140 649 98 145 155 181 
249 858 274 110 88 62 
250 936 243 135 108 81 
267 868 278 159 126 95 
312 774 369 163 180 208 
403 215 272 53 80 111 
205 71 218 110 93 75 
206 68 217 111 94 77 
204 638 291 66 110 146 
154 331 234 132 146 165 
303 591 340 123 101 85 
274 931 303 138 102 80 
236 548 331 167 169 179 
227 787 239 197 140 110 
177 177 256 96 85 76 
262 732 357 34 67 119 
236 894 247 79 65 50 
194 192 278 143 74 72 
224 661 335 149 146 150 
297 799 359 179 193 213 
277 42 311 113 95 78 
263 479 157 154 165 192 
363 540 274 163 178 218 
302 613 275 146 130 129 
397 479 234 78 101 154 
283 530 175 192 190 207 
154 334 227 83 120 154 
167 741 162 194 177 166 
177 944 289 137 108 78 
218 506 148 127 133 151 
176 773 325 52 38 74 
315 596 266 172 119 112 
397 185 256 76 41 39 
304 776 384 155 165 210 
189 597 181 72 105 133 
248 620 163 135 108 81 
172 433 160 98 119 147 
327 321 252 90 116 142 
236 150 284 174 66 8 
172 569 248 148 150 162 
295 219 165 106 103 103 
190 776 206 194 144 100 
201 663 141 151 113 129 
220 954 250 89 66 45 
247 864 332 162 121 98 
242 669 164 32 68 123 
334 677 360 155 156 163 
208 750 353 95 117 154 
304 784 354 179 188 204 
147 454 201 102 116 139 
167 609 224 79 93 129 
345 526 193 155 172 209 
370 168 254 139 51 78 
296 692 421 75 101 150 
332 382 260 179 151 122 
258 652 163 96 120 142 
309 233 169 121 85 53 
280 641 198 64 52 59 
301 758 313 71 46 87 
180 709 198 114 115 121 
175 675 290 103 119 137 
152 530 199 89 103 137 
184 652 269 65 105 137 
218 404 267 110 125 146 
140 623 115 92 106 122 
223 337 150 97 110 126 
283 472 163 63 111 166 
407 241 241 138 137 139 
136 679 155 62 83 101 
386 473 206 127 142 164 
205 74 217 103 89 73 
152 726 211 58 42 38 
148 621 118 99 115 133 
264 422 289 151 149 154 
350 224 248 148 110 93 
163 607 225 162 164 173 
371 458 293 157 165 180 
367 140 266 128 94 67 
352 550 281 113 136 189 
189 684 219 77 89 103 
244 503 160 130 146 173 
302 199 260 115 33 56 
210 904 334 188 143 118 
247 504 160 93 123 184 
126 731 197 127 104 79 
208 914 333 128 103 83 
164 383 186 68 95 132 
204 78 217 103 91 78 
208 269 159 118 34 64 
400 248 259 81 114 142 
169 255 265 160 162 172 
166 531 149 85 111 161 
166 460 229 67 90 134 
243 775 246 201 147 117 
415 233 279 127 36 69 
371 489 198 161 168 182 
367 218 243 111 110 122 
149 719 238 94 74 43 
206 77 217 101 88 76 
207 76 216 98 86 74 
299 250 162 93 99 108 
134 781 243 121 148 175 
159 430 223 132 137 148 
246 961 314 128 105 89 
207 79 216 101 90 78 
328 691 429 192 129 109 
232 392 149 148 139 135 
162 697 262 125 137 153 
198 736 345 109 130 154 
163 505 153 100 115 135 
300 659 385 77 98 146 
317 423 276 140 35 77 
146 688 113 160 185 214 
193 693 170 65 86 127 
307 285 244 171 167 171 
364 265 245 93 134 169 
240 820 297 80 95 110 
269 117 266 100 83 64 
402 451 273 107 126 155 
244 25 313 81 68 54 
223 668 185 81 77 86 
263 18 313 52 49 46 
236 116 267 105 91 78 
206 616 285 143 142 148 
259 496 320 127 139 157 
255 852 290 116 92 67 
248 672 344 70 90 116 
400 478 248 138 158 182 
167 458 179 83 91 106 
446 173 281 147 105 82 
209 940 330 106 87 72 
281 721 373 103 117 136 
309 660 295 111 125 153 
176 347 186 78 109 134 
287 650 334 73 86 101 
409 267 267 81 119 151 
286 672 212 164 76 27 
321 173 237 83 40 42 
280 37 310 151 131 126 
430 234 253 80 70 85 
163 701 147 94 50 55 
335 724 362 144 149 181 
218 790 236 197 139 109 
299 159 260 131 114 115 
199 673 150 91 60 96 
261 725 355 33 68 114 
140 643 140 50 81 125 
286 137 248 101 89 80 
359 387 196 104 119 138 
247 472 154 155 161 191 
350 538 203 164 177 198 
160 760 165 120 103 103 
413 204 254 130 44 32 
194 605 155 13 50 114 
311 258 168 82 108 132 
254 940 329 163 130 113 
406 267 264 92 125 152 
245 298 155 120 119 123 
268 887 305 156 118 99 
300 639 375 79 107 148 
282 137 275 141 127 114 
285 808 371 172 190 215 
308 669 269 111 133 156 
222 757 363 179 171 171 
265 19 316 53 49 47 
291 742 262 129 128 137 
180 555 149 189 188 196 
176 387 170 48 82 116 
413 445 251 75 99 140 
251 31 330 91 78 65 
324 234 256 128 97 85 
294 748 272 156 136 119 
434 137 271 122 105 91 
305 302 242 79 124 159 
284 285 159 154 154 161 
315 679 265 156 166 184 
259 325 236 157 153 156 
447 171 279 149 92 81 
198 615 168 80 103 132 
305 618 287 172 118 113 
169 636 245 129 133 145 
199 83 218 108 92 75 
244 940 241 137 107 78 
268 653 170 100 92 88 
317 765 371 129 144 196 
333 563 291 218 217 226 
314 698 307 79 112 169 
301 619 263 109 127 162 
308 449 288 100 119 141 
243 843 276 137 109 78 
299 794 351 171 176 185 
346 321 250 189 163 139 
196 84 218 118 99 79 
273 835 346 196 163 143 
330 377 179 81 101 122 
213 706 177 172 156 146 
385 158 262 141 33 20 
144 732 222 67 62 61 
140 770 177 202 144 105 
197 87 217 118 98 76 
150 256 229 102 41 48 
430 295 273 119 148 178 
289 627 220 82 80 87 
314 769 376 138 138 189 
382 145 270 150 131 113 
291 714 251 149 67 67 
178 646 250 51 68 101 
307 575 324 100 89 82 
173 278 193 113 33 49 
365 506 200 117 137 182 
309 668 320 94 117 141 
239 287 151 151 149 153 
305 157 179 122 71 31 
196 575 286 114 134 164 
310 731 279 95 146 181 
289 591 202 82 107 163 
305 358 255 172 147 123 
262 787 283 195 162 123 
274 728 389 68 99 129 
194 90 218 129 103 73 
102 643 96 77 109 151 
164 566 219 135 143 157 
326 152 251 175 68 4 
203 886 327 163 121 96 
363 493 193 198 192 196 
204 972 294 110 85 61 
187 666 285 70 102 128 
173 448 163 91 113 136 
165 309 255 141 155 175 
411 416 216 60 93 139 
214 799 240 195 138 104 
221 405 271 86 111 139 
192 89 222 116 92 66 
357 436 192 86 111 139 
231 72 319 132 116 103 
216 815 355 112 84 76 
228 14 257 87 71 54 
268 181 276 109 33 37 
193 91 220 126 99 70 
192 90 222 117 93 66 
172 287 261 137 156 178 
193 92 219 128 101 70 
189 439 144 67 94 118 
286 583 324 81 85 98 
184 645 158 89 102 146 
263 543 170 105 122 181 
262 190 275 81 45 42 
314 712 308 73 116 167 
240 833 349 89 98 108 
190 359 170 149 146 150 
161 258 262 136 146 163 
198 663 155 130 126 134 
358 513 197 116 142 182 
266 36 331 154 141 135 
277 406 161 173 142 107 
388 285 252 128 146 167 
431 270 248 120 122 129 
313 725 331 74 109 150 
229 406 268 92 112 135 
192 92 222 120 96 70 
252 426 149 161 66 0 
195 376 170 82 103 123 
193 94 220 127 100 71 
242 748 216 199 143 108 
427 388 228 129 134 147 
308 655 233 79 57 113 
439 292 251 134 132 135 
354 207 231 100 51 39 
177 678 139 181 98 96 
286 655 346 68 84 107 
212 687 169 122 95 119 
361 499 299 180 179 186 
278 604 332 86 101 119 
298 765 312 120 87 107 
391 384 275 187 160 129 
156 474 215 93 108 133 
229 21 258 117 107 103 
312 760 349 105 132 169 
284 522 172 187 190 208 
200 133 265 99 75 57 
258 928 334 197 144 122 
326 397 175 95 98 108 
386 236 254 91 49 81 
283 329 163 184 157 129 
143 619 122 109 125 143 
111 706 163 170 145 113 
202 726 178 163 158 160 
191 602 258 87 114 142 
262 911 333 180 138 112 
308 528 324 57 74 105 
343 420 275 105 92 82 
423 181 287 113 112 122 
186 145 280 123 99 84 
197 95 217 138 107 76 
196 94 218 137 106 75 
200 610 152 33 72 107 
208 640 191 56 107 141 
303 627 359 57 87 150 
182 363 258 187 180 179 
199 93 216 118 96 70 
274 914 294 125 101 73 
216 589 162 104 124 149 
315 715 334 63 100 141 
181 916 313 120 54 50 
204 748 351 125 143 172 
281 688 231 108 84 55 
203 241 256 99 37 60 
162 561 234 101 116 157 
280 703 349 72 97 134 
243 611 168 110 100 94 
343 295 250 128 138 153 
179 750 174 111 75 53 
263 894 321 75 56 43 
309 739 287 98 78 119 
305 497 307 97 121 152 
164 712 287 66 55 91 
234 409 268 99 116 135 
314 701 431 134 151 190 
176 167 271 60 63 67 
357 155 256 134 105 71 
287 486 164 68 110 164 
247 705 187 87 67 55 
270 65 286 99 81 63 
301 687 427 66 100 142 
259 361 153 182 152 121 
204 454 256 149 148 154 
189 805 233 208 151 117 
403 464 232 115 133 178 
293 595 206 93 126 168 
290 668 219 139 85 67 
400 466 270 125 142 170 
369 169 250 129 33 12 
238 410 148 185 158 130 
262 499 158 106 132 190 
281 689 227 108 104 109 
277 365 167 140 19 55 
369 366 201 147 144 148 
207 84 214 113 100 88 
296 601 220 112 137 169 
267 11 238 139 122 112 
303 148 235 151 81 55 
204 445 254 134 137 145 
161 561 219 124 135 151 
309 589 259 73 65 67 
274 706 216 158 124 82 
184 633 253 142 146 156 
301 655 266 122 121 127 
200 81 218 107 92 76 
229 75 321 138 121 108 
168 345 193 69 70 73 
345 167 249 153 83 93 
177 812 317 191 169 153 
201 83 216 107 92 77 
149 315 214 182 178 182 
273 594 189 73 110 158 
263 178 155 42 40 55 
229 298 237 103 124 148 
214 416 265 85 108 143 
249 962 268 91 63 51 
211 857 330 157 121 93 
282 780 304 164 140 132 
388 388 276 161 85 17 
212 748 204 163 119 83 
210 514 149 172 167 169 
200 84 217 108 92 76 
166 343 250 183 147 104 
283 542 329 158 155 158 
422 320 267 132 148 169 
301 784 346 140 154 172 
297 795 346 165 57 74 
263 538 169 152 163 191 
193 488 280 164 154 149 
302 661 383 109 111 148 
196 628 201 140 138 144 
263 681 346 60 85 114 
208 620 140 100 89 78 
343 696 377 85 110 141 
347 556 265 198 206 224 
235 190 268 41 70 124 
223 990 289 115 80 61 
269 9 304 37 36 36 
274 132 273 98 84 71 
313 512 318 172 174 183 
281 168 167 98 80 66 
177 284 263 120 150 180 
328 665 333 74 57 120 
185 869 300 145 110 81 
234 763 370 111 128 171 
153 539 209 85 104 145 
437 280 276 174 171 176 
172 438 173 98 111 127 
221 920 234 62 48 38 
202 89 215 100 87 74 
217 884 241 71 58 46 
369 497 200 178 181 193 
139 784 258 136 123 116 
312 623 318 101 114 157 
312 358 157 188 155 119 
297 206 167 85 84 100 
186 977 270 131 102 82 
253 831 323 171 150 137 
201 92 215 108 90 72 
230 651 148 22 56 93 
193 599 176 101 132 162 
236 557 326 161 140 138 
201 718 175 199 153 96 
267 743 251 134 106 77 
400 147 268 159 67 25 
308 332 156 127 110 112 
315 603 325 148 102 89 
301 635 292 106 115 129 
271 263 252 136 116 97 
213 842 322 100 76 63 
314 687 324 56 73 115 
227 69 316 125 111 101 
298 695 426 86 116 158 
305 684 278 126 146 168 
391 193 248 76 49 38 
198 892 323 163 123 96 
178 161 276 88 79 74 
289 784 387 173 179 208 
160 793 292 129 99 75 
183 705 317 104 121 141 
214 836 256 158 119 85 
274 710 226 56 65 80 
173 319 260 181 131 68 
251 752 367 39 57 84 
167 476 170 52 63 123 
322 421 170 75 91 113 
345 256 250 84 123 155 
158 501 239 111 121 135 
240 507 329 119 134 153 
186 491 264 133 133 138 
418 431 249 57 84 150 
271 501 321 104 122 147 
104 660 100 180 180 189 
126 627 120 128 130 139 
260 753 371 46 78 111 
236 434 281 78 104 131 
393 165 261 94 54 73 
271 659 181 93 113 135 
256 824 362 160 48 60 
115 685 158 112 116 122 
239 441 288 70 96 121 
205 94 214 107 91 74 
383 354 263 137 65 62 
285 553 184 129 152 191 
213 716 180 166 118 69 
445 228 267 57 92 118 
299 695 244 221 182 134 
179 918 252 79 61 46 
170 813 235 222 161 122 
259 270 242 162 158 162 
215 419 264 68 89 132 
169 746 307 137 26 47 
242 439 288 63 90 119 
194 737 343 171 167 171 
210 454 162 88 96 105 
244 759 371 33 63 115 
175 598 225 68 112 147 
258 633 177 126 98 81 
246 61 311 89 75 62 
369 439 289 63 103 148 
359 511 197 163 176 196 
151 705 139 121 95 98 
393 385 276 164 89 11 
144 288 233 81 130 168 
151 793 277 147 142 144 
417 271 239 126 119 116 
153 799 210 241 166 128 
347 501 305 121 141 170 
186 616 204 135 141 152 
277 161 167 70 71 84 
315 668 325 81 94 140 
268 153 280 169 67 8 
371 462 194 90 114 143 
196 487 141 125 149 185 
210 839 255 141 103 74 
213 70 215 103 89 75 
294 339 246 114 125 140 
172 680 244 66 99 126 
176 787 324 158 118 77 
215 68 215 98 86 74 
299 643 276 48 49 56 
337 511 188 186 190 207 
257 418 285 64 95 124 
426 282 243 117 122 130 
327 692 430 192 128 109 
324 739 353 148 154 191 
366 314 249 146 46 71 
208 65 216 103 90 77 
371 483 195 126 146 176 
209 64 216 100 88 77 
348 180 239 109 49 15 
155 752 284 110 92 80 
296 368 166 180 148 110 
187 666 149 106 107 130 
428 322 234 91 118 143 
181 455 244 47 79 132 
122 660 94 215 210 221 
309 566 252 124 145 168 
263 909 264 87 69 60 
289 698 353 69 76 117 
163 201 268 99 51 41 
187 368 177 134 134 140 
250 880 335 188 142 124 
208 68 216 107 91 75 
162 445 228 44 70 124 
316 645 321 99 124 156 
211 321 154 146 143 146 
309 665 366 86 110 167 
243 563 164 106 118 150 
157 293 212 142 73 0 
394 418 277 121 63 87 
255 702 351 97 107 120 
295 322 160 141 1 52 
354 267 247 86 127 161 
312 159 193 99 59 21 
231 479 311 103 121 142 
271 123 272 110 88 65 
259 836 348 139 117 135 
311 305 158 83 107 129 
303 675 287 57 85 117 
212 65 216 101 88 75 
215 615 153 108 97 88 
220 390 262 64 102 137 
248 622 329 103 123 149 
270 658 174 130 111 95 
296 593 211 137 144 174 
309 751 332 163 176 196 
170 594 212 88 116 162 
274 902 303 149 119 87 
207 594 168 65 77 90 
207 739 195 116 80 56 
420 422 253 103 110 152 
356 341 193 120 80 92 
193 744 189 88 66 44 
423 333 265 150 68 55 
218 613 166 44 64 80 
153 500 227 72 98 125 
155 812 243 220 160 128 
306 666 317 86 107 138 
254 344 154 182 148 112 
249 783 378 122 134 167 
209 612 163 33 67 99 
173 279 262 84 116 145 
338 692 358 115 136 165 
207 709 174 245 227 226 
185 889 303 160 122 97 
208 76 215 101 88 76 
213 911 231 48 42 39 
328 558 307 46 59 74 
179 521 145 113 137 173 
312 189 193 106 80 74 
242 369 252 113 124 140 
339 410 270 147 80 19 
331 596 340 154 111 91 
152 496 220 69 94 129 
447 252 272 161 158 162 
201 902 328 123 91 74 
220 529 149 151 158 173 
187 983 279 146 119 93 
238 885 255 94 71 41 
437 325 239 131 123 120 
198 268 168 127 56 70 
373 470 294 140 154 174 
323 463 179 157 161 176 
376 252 246 97 81 100 
186 574 272 165 164 170 
218 222 253 157 45 30 
210 701 174 113 107 111 
163 824 280 189 145 118 
175 320 261 174 121 55 
290 593 202 97 97 144 
185 615 244 87 123 153 
275 551 178 61 69 103 
214 72 215 103 89 73 
171 590 218 68 105 135 
171 674 131 132 115 151 
153 479 193 124 128 139 
379 144 269 103 91 84 
244 800 277 186 138 105 
270 798 381 143 175 211 
178 942 307 129 108 89 
200 592 281 164 159 161 
152 406 209 60 90 137 
212 76 215 104 89 73 
240 612 165 105 92 82 
322 595 357 117 98 79 
313 204 189 87 56 51 
103 682 142 75 90 129 
394 203 258 134 41 62 
241 278 237 82 124 157 
282 570 190 52 117 163 
269 671 189 186 91 23 
188 618 208 131 136 147 
183 577 160 86 115 154 
155 535 245 42 71 121 
210 672 160 157 73 111 
240 414 272 69 95 124 
249 506 327 141 148 160 
153 452 193 119 127 149 
265 233 154 86 71 98 
289 223 263 41 68 119 
438 261 255 99 119 139 
174 860 268 124 84 60 
176 300 185 89 105 122 
189 316 169 106 118 134 
403 474 250 140 147 174 
210 277 157 126 81 84 
306 643 355 60 90 152 
336 644 370 142 104 74 
217 342 245 156 130 104 
218 510 148 151 156 169 
221 405 151 189 160 130 
446 217 279 136 110 104 
210 74 216 108 92 77 
175 453 142 159 160 168 
208 77 216 101 89 78 
275 707 232 118 103 94 
255 862 281 130 104 77 
191 617 198 124 129 140 
255 495 319 102 120 145 
425 409 239 126 143 168 
154 387 198 47 77 113 
335 694 419 177 124 98 
245 701 352 70 93 119 
163 213 271 64 117 155 
241 959 249 157 124 94 
273 901 283 74 58 41 
207 458 286 104 120 138 
311 147 240 150 82 52 
134 780 233 177 142 112 
129 690 112 154 173 199 
121 627 107 114 127 143 
312 337 157 105 99 115 
181 941 315 113 92 76 
240 416 148 162 61 0 
183 146 278 105 117 129 
236 802 368 177 185 201 
158 423 226 137 140 151 
177 553 270 198 189 188 
182 567 271 151 157 171 
200 991 264 127 105 85 
240 773 372 73 77 96 
218 69 215 100 87 75 
219 68 215 99 87 74 
221 613 319 77 122 159 
163 440 229 171 165 165 
269 424 291 150 150 156 
391 345 264 179 158 137 
316 234 191 62 55 48 
168 452 233 112 118 143 
194 447 146 71 108 140 
211 628 298 144 146 154 
222 80 325 149 131 118 
159 471 220 154 152 156 
293 796 328 134 39 50 
319 152 253 177 74 8 
342 219 250 104 107 117 
260 337 238 149 147 152 
190 964 300 108 87 66 
272 432 295 111 124 141 
281 36 312 130 110 106 
185 669 123 191 207 229 
209 268 158 115 45 65 
253 961 310 106 84 69 
223 66 215 98 87 76 
304 734 270 160 43 61 
220 68 215 99 87 75 
363 519 296 177 183 196 
275 386 162 157 126 90 
221 69 215 96 85 74 
323 627 347 93 79 76 
178 792 327 91 72 73 
220 71 215 98 86 76 
303 244 256 150 14 78 
281 615 194 111 86 67 
248 604 182 74 74 76 
265 44 285 99 81 60 
293 198 262 119 65 57 
271 667 188 178 93 17 
187 180 281 73 42 67 
215 962 243 122 97 67 
222 71 215 96 85 74 
223 70 215 97 86 75 
235 407 267 105 117 133 
154 253 257 118 138 162 
313 628 390 117 97 78 
266 454 305 97 114 145 
320 179 252 91 88 105 
238 421 148 163 64 3 
236 791 256 198 133 108 
356 155 255 136 107 73 
323 661 415 126 99 71 
340 178 238 47 44 47 
169 327 192 96 110 125 
228 816 271 136 82 69 
218 696 176 145 116 102 
199 847 246 143 102 65 
287 407 279 101 119 139 
259 194 148 105 31 44 
290 137 259 114 102 94 
409 252 269 86 125 157 
429 189 263 75 55 66 
253 395 270 69 91 118 
366 521 291 110 133 167 
335 704 408 171 119 94 
255 753 234 102 139 170 
319 733 413 178 190 226 
231 496 320 135 141 152 
173 445 162 81 102 128 
383 478 286 137 148 164 
193 611 260 92 113 145 
233 779 368 54 42 45 
361 470 190 168 166 173 
316 563 309 32 71 116 
103 651 98 126 149 178 
368 290 206 122 134 150 
305 664 378 106 131 160 
327 438 176 104 118 138 
424 332 264 180 153 120 
250 720 357 25 66 103 
190 700 172 73 96 119 
195 539 146 28 64 141 
356 547 262 148 166 211 
168 380 245 67 107 148 
275 630 191 129 92 75 
258 949 323 100 84 72 
268 535 170 159 168 183 
125 765 210 181 167 159 
227 650 334 148 148 153 
307 608 254 126 97 87 
310 589 229 177 180 192 
397 289 256 99 123 148 
160 710 175 83 87 93 
260 780 273 192 175 165 
205 692 337 85 89 100 
300 433 161 120 72 85 
156 621 139 98 114 133 
176 877 265 100 70 51 
228 581 161 151 164 186 
187 782 341 178 142 107 
317 625 389 121 101 80 
318 538 318 47 72 131 
182 817 241 207 151 114 
150 721 230 78 34 36 
425 318 267 108 140 171 
289 641 209 86 75 70 
346 550 211 216 216 224 
247 836 346 60 56 71 
196 642 276 69 108 143 
394 490 265 129 142 170 
312 171 225 90 52 58 
231 404 148 153 151 155 
244 363 248 128 131 143 
160 521 180 66 91 130 
216 98 297 100 73 56 
206 716 176 136 114 94 
266 739 240 185 142 82 
315 465 291 63 97 136 
223 79 215 97 81 64 
229 80 287 80 68 56 
199 866 320 165 128 99 
178 909 303 120 95 78 
209 80 214 102 91 80 
283 166 270 146 37 36 
338 289 252 154 155 163 
296 680 346 34 73 136 
183 636 162 99 114 143 
238 670 345 120 128 140 
436 313 241 95 129 159 
219 82 333 108 95 82 
295 656 215 176 76 55 
194 280 171 108 36 58 
382 200 240 66 47 31 
339 688 405 162 114 89 
222 126 282 119 114 113 
303 689 379 56 87 144 
181 891 253 81 62 52 
255 957 270 108 87 72 
204 914 331 101 82 67 
293 699 361 54 108 150 
407 461 240 117 134 177 
171 826 299 194 147 122 
409 408 271 151 129 105 
193 489 281 167 156 150 
238 575 323 79 132 171 
314 212 191 65 52 49 
328 369 178 102 105 114 
171 752 169 154 129 104 
422 208 252 128 76 66 
211 85 214 100 87 74 
184 605 243 133 110 105 
146 490 206 91 109 139 
289 344 165 202 167 126 
291 567 327 70 95 139 
238 18 260 102 92 86 
321 323 167 132 134 142 
402 261 230 85 107 128 
118 725 149 125 104 103 
220 322 241 147 106 60 
220 77 319 144 127 114 
194 665 128 149 170 194 
186 768 197 172 131 93 
183 407 161 74 107 135 
190 649 233 120 123 129 
322 390 161 156 74 12 
189 456 140 159 158 164 
268 181 157 47 46 56 
309 467 163 128 144 175 
218 285 153 78 114 144 
187 693 213 68 81 96 
153 525 241 67 95 138 
253 760 242 166 145 132 
227 416 272 98 116 140 
409 265 234 106 111 120 
170 692 280 131 141 156 
438 159 285 137 106 94 
202 696 335 73 93 114 
318 270 173 119 120 124 
213 889 336 182 136 111 
179 863 293 173 133 101 
245 54 290 91 78 67 
302 300 154 150 150 155 
209 475 151 102 118 138 
275 20 280 109 77 61 
294 635 225 77 59 49 
346 290 250 160 158 163 
291 768 303 79 94 112 
426 395 259 144 129 118 
414 198 256 110 61 35 
139 791 241 187 135 106 
415 385 216 142 145 155 
298 584 208 169 173 202 
209 90 214 99 85 71 
216 658 139 101 149 214 
337 661 378 135 96 69 
344 430 278 92 79 68 
291 196 263 114 47 43 
282 228 161 70 100 129 
210 90 214 98 84 70 
240 948 329 101 82 67 
412 366 217 158 151 150 
411 444 262 129 153 179 
232 33 258 93 81 70 
226 735 360 147 150 159 
294 546 186 80 106 147 
206 684 175 60 74 117 
440 204 286 79 107 131 
150 529 207 79 105 141 
278 145 170 156 74 37 
332 354 256 174 149 121 
185 635 120 88 78 67 
251 793 276 109 105 105 
386 435 285 103 129 159 
303 184 256 101 66 85 
211 93 214 98 83 67 
233 261 241 159 157 163 
292 601 342 52 69 100 
191 718 335 124 134 150 
136 771 246 122 119 121 
161 299 204 143 63 1 
412 310 270 181 159 139 
289 584 324 66 67 72 
267 356 155 170 142 110 
192 358 167 148 145 150 
188 139 271 101 62 34 
212 90 214 97 83 69 
313 427 279 101 102 127 
238 38 315 107 89 70 
215 354 151 163 148 137 
161 509 175 135 139 149 
217 623 313 114 134 158 
215 88 214 95 82 68 
287 551 183 184 188 202 
351 248 210 85 110 135 
204 988 255 104 76 51 
355 182 247 165 117 97 
215 90 214 99 86 72 
211 688 183 59 78 95 
277 367 166 142 19 59 
215 91 215 100 87 74 
266 517 164 150 164 191 
231 254 242 166 160 161 
276 888 283 114 94 76 
427 254 248 147 77 9 
205 977 296 115 92 78 
168 619 130 93 102 115 
401 350 216 111 123 139 
263 221 265 161 39 32 
210 994 288 134 107 79 
202 839 321 129 138 151 
315 467 166 83 118 166 
192 983 291 150 122 99 
165 819 291 183 142 116 
313 718 278 90 141 180 
207 668 161 97 103 132 
214 94 215 99 84 69 
184 339 173 93 123 150 
448 150 264 157 70 11 
338 556 231 148 163 210 
186 820 323 169 156 148 
182 771 337 141 31 44 
284 817 328 96 119 140 
202 393 255 89 114 144 
330 485 303 166 167 174 
234 381 260 69 107 139 
128 632 109 61 71 82 
409 190 258 96 38 38 
218 80 214 100 85 70 
197 282 255 130 129 133 
348 172 241 95 55 34 
285 804 322 91 107 125 
287 370 260 136 125 119 
159 483 227 139 140 147 
268 934 284 106 85 70 
188 752 193 153 111 76 
199 881 323 166 127 99 
325 273 184 78 85 93 
174 861 270 123 83 54 
175 904 265 77 61 49 
217 84 214 100 85 68 
441 303 247 89 118 145 
229 513 326 133 143 158 
247 67 311 84 68 50 
411 412 216 90 116 144 
251 519 164 128 139 178 
220 318 241 143 116 84 
333 393 181 100 113 129 
200 885 324 164 122 96 
247 911 245 59 47 43 
167 545 152 177 174 180 
311 712 326 49 68 140 
219 84 215 97 83 67 
153 717 268 117 25 35 
293 641 215 56 35 48 
156 778 176 216 151 112 
251 473 312 110 124 146 
328 389 177 91 100 128 
211 83 332 147 141 138 
192 806 235 211 150 118 
123 761 207 159 157 162 
187 706 177 37 47 66 
142 797 244 199 143 112 
198 819 339 183 165 151 
372 316 204 128 117 110 
161 818 277 201 156 128 
292 272 247 127 140 159 
266 355 154 175 147 115 
241 373 148 133 13 42 
189 686 308 141 141 146 
184 722 329 120 128 140 
407 187 259 102 35 36 
269 835 331 124 89 97 
267 749 257 147 116 91 
217 622 313 109 132 157 
260 894 327 105 84 60 
183 302 177 124 125 129 
124 761 212 117 115 118 
318 259 180 62 47 42 
313 708 330 73 76 105 
222 83 216 97 81 64 
306 586 250 67 119 158 
210 487 306 80 101 127 
220 85 216 97 82 67 
358 383 195 60 91 125 
276 706 225 66 66 68 
217 540 149 101 124 166 
184 271 264 172 172 180 
257 811 372 211 23 67 
380 234 247 47 83 116 
245 366 149 170 141 113 
334 205 252 119 76 72 
206 457 269 91 112 133 
267 734 238 126 108 92 
207 834 254 130 93 62 
280 473 167 39 77 136 
323 568 266 88 161 211 
197 137 262 87 68 53 
259 289 236 84 130 165 
217 972 298 122 94 62 
223 86 217 95 79 62 
135 769 190 142 109 90 
222 742 361 97 111 146 
250 356 151 184 152 115 
216 88 215 95 82 69 
222 436 155 158 143 141 
307 640 299 118 133 155 
149 667 138 34 56 105 
277 792 384 140 160 209 
216 91 215 100 88 75 
208 988 299 167 144 124 
208 780 220 196 141 108 
270 68 305 127 100 83 
152 694 163 58 70 82 
256 233 257 86 28 45 
233 834 299 51 39 36 
186 502 279 125 131 141 
258 36 283 90 71 48 
371 433 199 141 148 161 
180 545 278 144 148 163 
204 985 294 160 134 109 
260 447 302 142 145 153 
189 667 125 168 200 235 
176 635 251 138 143 154 
329 566 288 163 168 184 
245 518 159 47 85 130 
377 373 266 176 155 134 
198 635 167 84 101 131 
230 983 253 134 103 76 
132 765 233 134 112 90 
172 414 244 101 118 153 
259 9 231 139 116 100 
254 744 363 64 82 100 
160 618 139 118 127 140 
275 245 261 149 87 112 
307 500 175 111 117 167 
307 656 245 85 69 61 
200 935 328 101 83 69 
254 712 191 169 138 105 
326 460 288 94 125 159 
185 521 148 94 107 139 
158 794 290 150 138 133 
191 962 303 111 85 67 
220 88 216 96 82 67 
311 740 325 160 173 192 
212 471 154 84 102 120 
280 391 273 47 87 120 
321 330 168 122 128 140 
140 633 115 89 81 75 
245 836 315 106 88 70 
180 437 248 101 119 143 
191 898 316 155 100 81 
224 910 341 180 141 114 
174 472 238 151 147 149 
162 818 285 180 140 111 
186 672 138 53 87 115 
193 280 258 156 148 148 
172 574 242 112 120 151 
326 638 358 126 91 74 
366 333 252 171 144 115 
177 772 186 165 129 91 
197 276 255 153 148 150 
223 90 219 91 79 67 
317 585 240 127 153 185 
203 139 259 86 67 50 
246 847 325 139 94 75 
181 500 267 81 102 123 
272 723 241 120 114 114 
298 159 194 114 72 57 
383 518 254 214 211 216 
240 789 372 131 155 181 
207 395 253 43 77 112 
248 250 246 165 160 163 
179 903 282 66 53 45 
258 959 293 113 90 73 
233 383 148 108 126 146 
437 360 235 131 102 87 
195 703 185 65 74 85 
304 688 377 95 112 157 
222 93 219 91 80 68 
295 700 380 120 133 152 
322 689 331 105 143 178 
267 141 204 157 94 70 
269 79 277 94 79 63 
303 428 162 127 95 90 
318 398 158 139 76 12 
399 423 209 114 134 160 
276 232 265 89 55 95 
241 57 315 122 111 104 
228 836 338 182 154 134 
235 965 310 100 77 55 
99 664 123 108 121 148 
195 67 226 110 93 76 
342 554 228 116 153 197 
322 382 165 105 114 125 
209 841 321 116 83 61 
207 571 302 146 156 174 
308 707 292 121 141 163 
309 542 196 51 81 193 
277 566 331 94 138 173 
306 643 367 98 118 158 
242 310 153 83 110 135 
365 414 277 123 116 112 
406 246 268 80 108 131 
149 523 203 83 95 118 
178 758 181 148 113 80 
317 171 250 67 105 135 
191 983 290 165 137 111 
322 413 168 117 101 87 
312 421 160 116 101 85 
325 558 248 181 182 194 
266 797 304 155 135 116 
167 535 149 95 118 165 
386 293 252 123 134 148 
135 761 167 174 168 171 
218 965 308 139 109 77 
425 301 237 105 121 139 
150 499 197 83 103 127 
444 200 266 143 85 78 
305 139 255 126 111 98 
333 529 191 143 150 200 
106 695 148 167 32 46 
406 428 272 87 119 158 
361 370 263 132 20 57 
195 71 225 109 92 75 
326 741 392 131 139 191 
267 397 150 177 147 120 
302 705 252 98 68 56 
336 722 390 141 157 185 
302 738 271 133 13 33 
224 326 151 135 135 139 
223 440 281 85 108 132 
193 68 228 105 90 76 
193 68 229 106 91 77 
322 737 406 144 148 200 
193 69 229 107 92 77 
239 392 148 179 153 128 
203 474 291 96 109 127 
281 487 313 163 158 159 
329 724 350 156 156 177 
346 207 248 61 93 120 
173 856 268 151 103 75 
284 627 201 132 93 68 
326 544 194 136 154 200 
333 242 254 122 27 64 
194 68 228 104 89 75 
214 384 153 181 152 123 
428 139 271 115 102 91 
361 346 197 141 64 78 
176 578 246 113 130 152 
405 402 271 153 135 116 
300 719 256 158 43 51 
196 65 226 114 96 79 
172 845 265 186 139 109 
217 403 265 85 108 137 
236 541 155 90 121 165 
373 410 281 121 108 95 
169 845 273 197 154 126 
265 701 201 220 188 207 
380 493 210 206 200 203 
262 729 356 33 69 118 
196 66 226 112 95 77 
309 637 318 74 96 124 
366 373 200 109 120 140 
148 526 212 118 133 154 
278 776 291 108 97 89 
174 718 322 152 160 176 
379 349 207 169 133 89 
307 160 196 103 69 50 
424 303 271 164 167 177 
402 327 267 141 29 72 
178 660 275 92 92 101 
307 609 288 132 82 79 
369 246 220 84 113 138 
196 70 224 117 99 81 
145 743 151 213 169 125 
196 71 224 114 96 78 
155 301 213 100 61 24 
301 650 222 162 114 35 
254 20 259 119 103 96 
235 218 150 57 42 42 
107 662 98 172 181 209 
179 884 290 112 84 63 
170 825 298 194 148 121 
224 967 241 103 78 47 
195 73 225 108 93 78 
297 429 285 119 133 151 
205 283 160 80 110 135 
405 355 268 139 147 160 
242 850 269 134 105 75 
401 456 272 125 141 162 
220 766 217 184 132 97 
421 382 221 118 122 134 
424 243 283 137 70 101 
301 625 361 57 83 147 
394 485 233 197 198 206 
236 768 229 194 145 108 
248 651 164 66 84 100 
441 284 274 130 151 175 
168 420 183 105 126 150 
206 840 252 131 89 56 
306 327 244 148 147 152 
157 517 188 94 105 122 
195 483 279 142 139 141 
318 550 196 145 174 214 
325 642 333 92 94 99 
193 74 228 105 89 73 
195 606 161 65 93 144 
298 305 240 88 128 160 
238 774 238 198 146 113 
268 921 325 194 144 122 
282 472 164 49 94 156 
287 361 167 139 13 49 
385 219 231 36 58 74 
272 902 286 82 64 45 
400 270 227 137 137 142 
192 79 226 104 88 72 
331 598 339 167 120 101 
193 78 226 102 87 72 
160 258 207 86 82 88 
358 512 300 114 138 173 
245 249 245 163 161 166 
158 420 225 141 140 145 
322 637 329 176 176 184 
286 202 265 112 49 46 
195 77 224 102 88 73 
170 282 195 104 31 52 
365 491 298 163 164 173 
101 669 117 131 143 167 
358 259 245 89 134 169 
218 273 153 156 151 150 
200 825 254 154 112 84 
191 924 243 91 71 50 
412 166 268 41 59 85 
263 109 292 119 91 71 
296 634 232 39 48 55 
165 725 155 169 137 114 
255 726 356 88 100 114 
312 547 197 54 92 196 
220 670 180 52 61 80 
223 965 308 130 94 66 
240 95 315 159 130 105 
351 360 190 79 104 134 
207 300 248 163 131 93 
345 482 185 84 116 152 
185 661 279 70 103 132 
154 535 239 120 135 157 
279 614 334 46 69 95 
162 500 168 100 118 142 
254 743 220 110 89 70 
156 762 286 130 125 123 
174 820 242 225 165 126 
197 652 126 23 74 125 
343 294 251 149 152 162 
295 772 314 146 61 77 
153 782 181 217 149 110 
202 130 270 111 92 79 
171 638 111 110 114 121 
179 307 262 111 134 160 
279 448 162 168 150 145 
278 556 332 109 119 140 
201 78 255 76 62 48 
382 505 277 190 189 195 
369 525 285 114 138 185 
287 758 403 228 220 224 
286 319 161 147 29 65 
362 408 273 163 79 12 
163 754 296 169 148 129 
203 77 254 85 70 56 
173 451 161 137 143 155 
215 516 318 52 93 144 
247 633 333 126 131 142 
154 483 192 101 113 135 
340 220 251 102 95 110 
242 805 282 180 133 93 
238 60 314 123 109 100 
204 73 254 89 74 59 
172 469 144 146 152 166 
226 761 218 184 135 97 
193 184 280 118 42 63 
180 919 252 81 64 51 
225 665 198 55 84 107 
165 818 293 182 142 114 
173 464 237 130 136 148 
296 374 166 171 143 111 
207 309 158 130 130 135 
274 19 237 144 108 80 
255 752 367 41 53 96 
253 847 303 142 113 84 
222 612 319 83 131 168 
333 390 262 174 136 84 
195 987 284 145 111 81 
269 397 151 183 155 125 
169 577 200 73 108 137 
237 461 153 174 174 188 
313 237 171 98 73 63 
194 881 314 144 108 80 
162 507 154 93 112 134 
263 531 167 182 182 200 
151 522 238 169 162 163 
269 615 187 37 41 55 
264 134 166 111 100 94 
221 731 358 173 165 166 
383 460 288 107 128 161 
328 573 231 139 167 198 
168 191 266 100 59 35 
205 331 254 134 36 77 
185 610 206 74 99 126 
205 77 252 91 75 59 
148 473 197 125 135 153 
236 680 173 200 132 47 
220 491 314 91 110 133 
417 434 244 101 127 163 
368 245 220 84 109 134 
304 670 236 222 189 154 
191 677 299 67 90 111 
374 521 238 179 195 218 
207 649 178 132 139 153 
177 714 306 138 149 166 
378 513 233 187 198 220 
399 241 260 120 66 101 
190 361 171 148 145 149 
290 602 342 47 64 98 
231 56 311 93 86 80 
127 763 202 151 138 131 
296 699 376 121 137 159 
309 757 399 204 203 218 
127 717 133 223 85 99 
343 500 308 128 145 168 
337 197 229 86 46 26 
192 80 227 104 87 69 
442 310 263 145 157 176 
192 82 224 112 93 72 
192 82 225 111 92 72 
277 45 320 126 101 75 
301 475 300 158 154 157 
306 638 298 108 121 137 
187 696 316 130 134 143 
205 278 249 146 143 147 
192 84 224 115 94 72 
217 860 257 128 100 70 
396 154 271 171 70 9 
164 596 219 69 99 126 
250 886 333 168 120 101 
392 444 281 146 152 165 
175 580 242 104 120 144 
385 238 252 120 17 55 
293 602 217 169 173 185 
413 180 279 136 93 69 
275 667 348 69 93 128 
195 86 255 68 55 40 
331 245 254 115 95 108 
143 753 265 113 103 97 
221 374 149 130 17 44 
189 591 176 120 133 149 
303 491 304 173 168 171 
238 988 282 127 94 67 
305 639 296 117 121 131 
300 668 347 77 105 133 
353 143 265 105 86 70 
385 207 238 100 48 19 
311 514 318 134 149 169 
240 88 275 89 75 60 
436 280 251 140 144 153 
295 790 325 176 130 98 
271 515 324 168 167 172 
327 618 379 117 95 72 
170 694 282 132 143 159 
355 437 190 103 121 143 
371 499 202 164 174 195 
428 178 265 49 75 102 
228 990 266 154 122 91 
352 268 248 80 125 161 
164 713 152 72 83 106 
293 704 383 120 130 144 
132 693 113 122 138 157 
350 386 189 115 128 146 
393 474 219 86 109 159 
407 311 267 168 150 136 
323 342 172 149 128 109 
173 859 272 154 115 85 
214 879 243 74 63 52 
105 645 92 149 165 197 
258 156 283 174 63 20 
261 870 331 155 118 93 
292 553 185 92 111 151 
222 80 332 111 96 82 
306 685 278 131 150 171 
261 614 342 43 65 96 
201 703 339 36 68 93 
163 703 274 130 142 157 
132 746 213 53 49 54 
247 317 236 157 155 160 
364 273 245 81 125 161 
278 135 272 123 110 98 
228 95 316 131 94 38 
305 531 188 187 191 214 
287 651 202 188 143 88 
228 824 291 122 90 74 
391 209 255 132 53 55 
315 514 189 137 142 193 
223 534 324 128 141 158 
194 89 253 68 54 37 
388 489 276 117 127 166 
233 516 329 169 168 174 
244 98 267 99 82 64 
266 835 328 139 122 105 
306 640 297 127 132 141 
213 669 165 98 99 129 
210 368 253 155 151 155 
194 877 310 151 112 87 
288 313 238 106 130 154 
183 551 279 144 149 165 
282 248 160 135 124 115 
159 720 214 62 29 27 
290 433 290 158 150 149 
176 662 115 166 185 223 
340 667 405 141 102 70 
192 92 253 82 65 47 
179 707 172 70 88 110 
407 286 263 156 156 163 
254 868 336 143 110 88 
152 510 195 81 101 123 
271 136 178 128 101 88 
325 306 171 75 80 87 
394 218 241 139 29 10 
211 611 296 98 123 150 
99 662 125 73 100 129 
268 667 176 124 118 120 
117 698 120 171 178 199 
221 337 243 164 125 79 
194 93 252 69 55 40 
187 404 253 62 94 151 
387 252 222 141 140 144 
330 447 180 137 142 169 
181 841 253 179 137 103 
244 734 362 103 109 119 
416 332 267 132 141 155 
305 616 239 164 161 166 
290 137 268 127 114 104 
441 353 251 194 168 144 
216 207 260 49 45 51 
271 123 270 105 86 67 
193 529 145 147 159 183 
347 358 254 133 59 84 
300 694 381 119 135 154 
195 924 242 89 64 37 
166 270 201 41 71 100 
236 227 149 56 50 67 
381 507 231 126 135 186 
281 302 237 112 131 153 
248 57 285 94 78 60 
324 160 240 151 59 9 
198 91 250 66 53 36 
292 294 156 169 166 171 
203 917 233 67 51 46 
317 466 168 96 121 157 
157 710 228 96 34 38 
228 470 157 57 92 124 
312 398 161 162 74 0 
186 890 242 102 77 51 
303 635 365 88 105 147 
158 514 185 121 127 137 
196 91 252 70 57 42 
168 400 182 59 85 130 
255 655 158 89 111 133 
301 634 316 77 93 120 
196 93 251 70 56 41 
331 413 178 86 108 141 
280 775 293 120 90 63 
332 309 179 109 106 105 
388 314 256 139 40 83 
280 148 169 151 65 5 
209 602 293 92 121 151 
320 291 170 92 110 128 
143 782 190 187 123 97 
260 659 160 109 153 191 
415 294 271 160 162 171 
224 790 361 153 166 185 
313 216 182 81 63 58 
159 515 159 79 105 135 
306 320 154 182 154 127 
364 439 288 125 146 169 
318 574 279 61 72 91 
295 395 271 136 123 112 
276 769 397 142 164 201 
198 94 249 67 52 34 
262 132 284 115 92 66 
234 837 262 152 120 90 
196 668 215 59 94 120 
321 281 174 112 115 121 
199 448 153 59 86 110 
188 825 321 184 172 169 
303 681 397 124 130 144 
151 419 199 69 94 123 
194 502 299 171 163 162 
195 819 248 175 126 91 
245 747 216 194 153 120 
413 318 269 174 151 129 
235 598 171 105 103 104 
213 684 169 158 113 121 
222 391 266 48 85 128 
158 767 291 151 134 122 
400 320 220 145 140 140 
280 638 350 54 85 124 
206 377 254 83 108 140 
197 875 246 94 71 50 
195 820 334 159 131 109 
271 776 392 92 126 202 
178 810 318 186 159 134 
203 81 253 77 62 47 
157 544 242 86 107 142 
271 657 177 69 72 81 
268 914 328 179 134 110 
225 991 267 132 96 70 
203 82 252 75 60 43 
189 348 261 99 126 158 
111 693 159 62 78 109 
266 538 170 174 181 199 
182 569 154 158 171 201 
376 229 246 62 108 142 
200 86 251 69 55 40 
311 712 266 73 132 173 
439 301 268 156 164 179 
168 472 168 95 114 139 
293 746 411 161 173 212 
141 795 244 195 140 108 
214 355 151 131 137 149 
400 231 240 112 17 43 
263 457 153 167 82 109 
256 938 329 166 129 114 
311 223 258 53 76 107 
401 338 218 116 128 144 
239 904 244 70 59 48 
201 508 148 95 121 162 
282 816 326 90 99 114 
395 143 271 115 100 82 
308 755 401 216 213 226 
237 580 166 120 130 148 
311 754 345 111 133 174 
156 478 219 101 116 137 
183 511 282 117 128 145 
406 384 270 177 86 10 
299 771 391 197 194 215 
207 990 270 161 127 88 
172 745 315 107 44 57 
216 503 315 100 121 150 
300 631 298 75 83 96 
213 963 309 105 82 64 
119 729 150 179 153 127 
187 876 251 119 89 61 
436 318 240 110 126 144 
231 388 148 170 148 127 
203 84 252 76 62 47 
258 457 151 103 101 141 
280 692 228 79 61 36 
377 202 237 97 52 42 
425 160 281 67 78 92 
259 925 259 80 64 52 
159 259 260 111 128 152 
341 189 234 43 53 69 
277 521 172 73 83 166 
348 210 228 102 49 46 
172 545 267 146 160 179 
214 675 170 97 89 120 
221 750 208 178 129 93 
153 704 173 74 79 85 
328 347 179 151 84 69 
317 673 325 20 54 127 
148 727 224 84 77 73 
237 507 329 126 137 153 
241 669 345 100 113 131 
245 96 310 148 113 100 
146 780 182 200 136 104 
275 769 273 202 179 161 
411 209 252 90 65 83 
250 664 342 81 97 120 
190 625 210 134 140 152 
228 611 176 52 61 70 
176 547 271 94 115 154 
286 587 194 100 148 186 
204 85 250 77 61 44 
240 631 161 171 121 101 
220 660 203 89 29 46 
216 274 154 152 144 139 
242 419 275 60 91 123 
371 474 194 153 157 170 
254 164 282 167 37 20 
173 783 319 130 115 105 
319 468 177 99 120 152 
143 793 262 173 142 119 
287 153 170 128 70 29 
194 652 125 40 77 116 
370 479 296 181 179 187 
285 711 401 56 73 105 
366 399 199 100 119 142 
205 450 157 102 112 125 
334 277 253 164 161 165 
159 379 231 64 109 144 
187 753 191 149 109 74 
196 645 215 154 155 163 
331 478 298 110 132 155 
240 741 208 187 153 115 
194 724 340 84 112 139 
213 905 232 50 42 37 
427 192 262 124 61 70 
362 215 232 120 46 9 
349 210 228 103 45 40 
324 396 266 169 76 4 
278 811 371 185 194 210 
201 548 150 105 135 171 
165 737 296 137 26 43 
193 135 283 143 64 9 
404 360 215 135 135 148 
247 900 339 125 101 76 
180 704 158 164 117 93 
209 834 331 185 159 135 
167 280 261 72 116 153 
235 819 289 141 92 75 
245 980 273 113 86 64 
349 349 252 136 113 129 
180 914 314 197 137 103 
442 270 276 161 158 162 
178 462 140 90 118 192 
229 819 265 165 119 93 
255 854 309 142 104 84 
170 820 243 226 165 127 
303 157 196 111 74 56 
363 180 249 163 98 97 
199 723 344 90 102 119 
307 738 308 114 147 178 
218 774 360 159 170 187 
263 883 313 158 121 100 
168 675 123 131 128 139 
337 636 384 128 101 70 
160 511 180 106 115 129 
376 388 204 73 106 136 
205 92 247 87 69 48 
154 319 206 145 147 155 
162 614 135 124 135 150 
205 650 172 115 132 158 
205 94 246 88 71 54 
293 760 291 175 189 210 
268 180 158 45 54 70 
349 356 254 142 18 59 
207 92 246 81 65 45 
343 516 191 129 145 201 
312 696 315 72 100 158 
175 383 174 48 80 107 
374 434 287 166 169 178 
289 313 160 143 69 56 
156 414 219 98 118 140 
149 524 232 96 110 149 
200 89 248 69 54 36 
165 515 147 85 109 146 
274 918 294 121 93 68 
175 578 194 65 95 121 
276 159 275 118 132 147 
412 430 267 95 117 160 
158 527 250 88 107 130 
200 90 248 69 54 37 
334 141 252 133 99 76 
174 429 148 118 136 158 
299 633 371 80 110 152 
260 722 203 107 59 55 
309 731 418 157 175 211 
203 88 248 83 65 46 
218 734 191 109 127 147 
341 663 399 140 102 69 
268 211 155 133 75 61 
346 301 189 112 32 40 
322 688 433 190 135 113 
253 776 381 113 132 169 
239 424 148 164 77 0 
201 94 248 78 62 43 
326 281 182 91 107 124 
235 723 192 114 118 124 
296 618 295 63 90 136 
181 916 312 90 46 40 
188 813 241 199 148 111 
290 665 212 204 135 126 
208 69 255 82 69 57 
250 589 175 130 147 179 
109 672 144 110 117 129 
175 675 256 87 27 51 
251 443 296 69 97 125 
383 351 262 177 158 139 
363 496 194 169 177 195 
245 32 323 101 85 68 
401 205 271 66 49 73 
340 654 380 141 102 72 
210 69 255 86 73 62 
211 68 255 87 74 63 
299 729 420 153 161 210 
272 399 154 179 149 118 
344 696 383 104 129 161 
227 948 329 123 99 83 
239 536 156 89 106 151 
191 264 176 119 91 81 
301 566 324 43 87 137 
232 495 320 97 115 137 
295 531 179 92 108 147 
190 289 173 82 67 65 
270 345 160 162 131 99 
269 475 312 115 126 144 
296 800 367 146 171 199 
311 728 312 156 172 193 
191 626 159 89 108 129 
200 739 185 114 81 38 
279 585 191 39 70 123 
214 67 255 80 68 56 
414 390 269 128 119 114 
175 384 173 34 76 107 
128 671 99 165 179 210 
320 148 243 152 77 42 
373 377 267 180 159 142 
182 611 139 37 80 117 
177 695 224 77 90 104 
170 545 149 146 154 177 
187 270 179 118 111 108 
287 694 243 183 84 16 
254 86 310 147 110 100 
379 145 261 143 67 8 
404 324 221 144 139 139 
209 990 260 124 88 54 
237 904 242 67 57 47 
309 583 208 158 177 203 
223 353 248 145 106 57 
248 558 165 108 129 167 
327 458 180 95 122 164 
215 68 254 80 68 55 
374 440 199 117 132 156 
182 588 184 63 106 143 
298 261 251 151 100 52 
164 797 201 242 164 124 
215 71 252 78 65 52 
207 671 325 108 56 70 
368 280 208 94 114 134 
271 559 179 111 134 166 
281 349 166 203 168 130 
261 214 149 100 79 97 
205 975 295 113 90 72 
284 29 318 140 126 118 
154 803 225 233 168 132 
215 474 155 80 104 126 
184 523 288 104 122 144 
385 302 213 120 131 147 
227 745 363 115 127 153 
200 130 285 117 106 96 
336 142 253 137 115 98 
272 424 154 150 73 2 
148 261 247 142 142 146 
299 625 232 154 146 145 
250 969 282 97 74 60 
307 540 193 81 120 194 
230 787 242 203 147 119 
184 469 245 104 118 139 
211 74 253 86 72 59 
370 335 254 170 147 124 
280 742 259 143 123 113 
345 205 228 82 49 58 
225 272 153 86 98 117 
299 769 318 96 39 44 
291 390 270 148 132 116 
229 458 157 139 150 172 
371 190 251 104 91 118 
353 480 301 106 135 166 
301 466 161 112 136 169 
166 279 201 104 67 67 
182 155 259 80 64 46 
211 77 250 84 68 53 
243 571 327 78 132 173 
268 221 155 102 95 99 
308 297 158 111 122 136 
345 448 185 90 115 141 
255 10 291 66 59 53 
179 479 143 130 148 184 
293 699 365 89 115 158 
275 656 187 184 123 73 
132 764 186 175 156 145 
230 776 367 91 119 165 
309 611 258 171 127 117 
265 727 217 203 153 96 
398 329 218 157 154 157 
258 831 325 165 144 126 
243 641 336 72 85 107 
268 100 275 105 86 67 
213 433 277 149 152 160 
386 204 240 78 40 30 
214 75 251 76 63 50 
321 735 410 137 153 209 
215 74 251 74 61 48 
215 75 250 74 60 45 
160 632 116 100 88 78 
167 402 177 65 92 136 
170 683 249 99 115 132 
152 391 201 40 79 122 
414 362 219 114 119 130 
192 908 235 76 58 40 
269 427 293 98 115 134 
189 882 248 90 67 47 
286 619 209 58 46 43 
212 75 252 84 70 57 
259 770 388 173 183 199 
218 846 258 139 108 77 
361 289 201 111 121 135 
198 275 167 117 41 61 
297 692 409 43 85 135 
309 665 246 92 90 91 
188 975 290 162 132 103 
280 163 272 147 31 29 
230 316 151 138 140 147 
446 304 254 99 130 158 
206 132 285 132 118 108 
115 725 158 78 50 99 
322 704 336 145 158 189 
189 574 278 199 190 189 
420 196 286 131 79 82 
303 193 171 94 101 111 
408 348 267 153 52 93 
282 591 325 67 61 65 
154 425 194 92 112 136 
234 395 262 73 99 129 
214 76 249 73 58 43 
364 533 243 218 225 237 
157 219 264 79 67 75 
284 140 176 147 93 70 
217 972 239 122 99 74 
157 269 256 112 61 83 
152 460 194 127 134 150 
145 735 148 189 165 144 
395 357 213 128 136 148 
294 705 247 169 51 57 
428 178 289 111 107 109 
187 567 152 163 177 208 
332 280 253 168 164 169 
219 440 281 118 129 144 
290 21 306 144 115 102 
268 114 266 102 85 66 
234 565 322 133 107 116 
316 245 180 71 48 44 
392 457 209 183 181 187 
254 586 177 128 149 180 
217 67 253 80 68 57 
309 675 271 141 154 171 
