ply
format ascii 1.0
comment Created by CloudCompare v2.11.1 (Anoia)
comment Created 2/28/22 9:40 PM
obj_info Generated by CloudCompare!
element vertex 2006
property float x
property float y
property float z
property uchar red
property uchar green
property uchar blue
end_header
309 221 258 43 69 106 
158 477 221 92 108 136 
246 820 363 93 82 147 
337 660 384 141 102 70 
306 673 272 105 112 124 
138 689 111 120 137 156 
242 729 361 93 102 116 
329 731 395 104 122 184 
160 520 179 54 83 128 
297 754 405 129 150 215 
207 634 187 53 106 145 
190 866 246 141 102 73 
292 759 289 99 43 66 
326 655 354 174 171 175 
255 870 277 146 110 73 
404 216 240 85 42 38 
175 635 249 139 144 155 
190 665 151 100 111 131 
254 814 311 140 106 89 
238 763 227 193 139 104 
118 743 185 166 148 135 
218 28 217 119 96 73 
302 294 239 79 122 156 
308 654 233 81 63 115 
226 432 153 163 147 140 
194 780 213 190 138 97 
270 279 239 140 141 147 
304 483 165 166 169 183 
258 713 352 85 99 116 
327 381 259 180 153 125 
322 629 338 47 47 51 
202 686 170 109 102 128 
239 251 238 150 148 153 
183 925 248 91 69 51 
322 396 164 147 89 43 
168 616 144 43 90 134 
280 486 171 68 93 148 
359 146 254 124 107 93 
267 756 260 123 100 73 
286 201 161 118 55 44 
312 721 294 163 182 205 
215 651 323 86 123 152 
278 404 158 156 125 90 
371 168 241 131 35 12 
366 522 218 134 149 201 
149 313 222 172 171 180 
250 730 359 48 76 107 
200 647 203 136 130 133 
333 558 233 125 159 204 
208 602 294 89 120 152 
182 77 260 145 106 91 
220 31 218 108 90 71 
158 627 123 95 86 77 
226 78 320 144 126 113 
358 508 194 132 145 177 
206 790 353 159 53 59 
137 748 155 231 198 162 
202 145 282 167 66 13 
347 530 306 100 130 169 
399 316 256 132 33 68 
196 633 271 108 21 45 
223 30 218 111 92 72 
247 801 374 171 186 207 
156 291 213 132 69 8 
360 190 242 112 102 120 
197 946 252 159 126 94 
201 458 256 42 83 125 
201 820 340 134 129 132 
236 978 293 120 88 58 
262 746 243 181 169 163 
319 230 255 127 92 90 
334 625 371 126 98 66 
278 397 161 154 127 96 
209 956 317 101 84 70 
223 512 323 149 157 170 
168 796 305 183 158 137 
200 953 250 102 77 48 
260 161 281 121 123 134 
201 632 131 133 101 60 
211 500 313 113 130 150 
244 62 309 85 74 64 
199 619 192 120 125 136 
187 671 289 64 67 85 
325 397 168 123 105 85 
166 389 172 95 119 151 
295 743 267 150 50 115 
410 391 207 97 127 155 
156 525 171 83 108 145 
151 248 257 95 120 145 
159 440 223 101 121 147 
218 686 187 40 43 48 
185 781 339 134 108 82 
296 430 158 124 109 96 
213 427 265 123 130 144 
205 30 227 88 82 78 
168 542 264 55 88 150 
246 808 292 109 112 120 
248 350 242 135 138 147 
306 661 361 113 135 168 
254 721 355 40 74 103 
248 766 244 200 150 119 
269 907 270 108 83 69 
305 533 188 152 165 198 
408 252 230 111 126 144 
276 593 191 81 117 159 
206 29 226 77 70 62 
250 641 178 47 43 45 
219 616 320 75 119 156 
174 711 175 78 86 97 
228 121 283 75 62 47 
305 196 174 80 95 111 
221 383 150 156 128 92 
214 659 139 105 155 202 
323 660 416 126 101 73 
407 193 268 153 53 86 
149 271 231 133 30 40 
261 917 333 184 139 114 
230 795 253 198 136 111 
291 444 295 146 147 154 
137 735 147 177 145 118 
235 59 324 112 95 78 
303 256 163 82 108 133 
152 377 201 94 116 139 
177 827 306 194 153 122 
152 400 209 56 94 136 
186 542 287 117 135 161 
288 507 316 97 116 140 
187 748 191 131 96 67 
282 321 160 141 72 51 
414 163 268 45 72 93 
329 292 178 123 123 127 
155 811 272 196 151 121 
169 651 259 165 167 177 
217 681 207 82 88 97 
299 203 167 87 82 87 
248 621 162 146 111 86 
241 972 290 106 78 52 
170 652 110 156 172 212 
311 733 415 160 181 221 
131 718 194 98 89 84 
203 31 238 97 83 69 
358 183 241 153 83 95 
164 481 161 98 114 135 
361 394 267 176 155 137 
308 650 307 72 107 152 
323 576 315 131 106 88 
153 440 209 90 114 141 
278 622 333 57 72 88 
251 719 194 155 130 130 
190 620 255 150 150 157 
445 313 242 147 135 134 
203 70 258 77 64 51 
134 751 233 121 109 99 
296 205 264 111 40 58 
161 265 206 102 82 79 
384 407 279 152 135 119 
180 833 250 203 153 116 
184 370 181 84 84 86 
154 451 188 78 103 131 
273 59 308 120 92 75 
247 26 317 82 69 57 
325 654 352 160 164 174 
311 323 156 164 143 123 
345 367 185 125 134 153 
190 682 152 145 100 76 
183 905 250 75 57 46 
111 679 150 130 136 146 
283 816 327 97 119 143 
123 758 208 151 136 124 
318 731 341 100 124 180 
172 452 144 147 149 157 
266 78 303 129 97 81 
387 254 218 143 143 147 
233 72 316 131 115 103 
188 639 119 167 174 190 
337 718 363 145 149 190 
272 394 151 180 151 120 
322 727 342 169 178 195 
338 539 194 153 162 200 
424 277 236 129 119 110 
305 582 262 121 61 78 
314 171 232 85 57 53 
189 584 268 167 166 171 
267 490 318 114 128 148 
151 775 280 160 143 130 
224 328 151 126 125 129 
382 291 210 139 143 151 
214 825 254 150 112 78 
183 286 263 84 123 157 
189 142 281 149 62 14 
234 157 280 124 133 145 
248 112 257 91 77 64 
199 613 167 40 79 123 
277 376 162 132 18 45 
178 306 182 87 104 121 
225 670 341 93 94 100 
133 734 214 107 93 81 
204 30 237 92 80 66 
237 947 330 107 83 68 
208 81 313 140 125 113 
259 199 150 112 53 43 
332 137 244 129 103 84 
377 445 288 88 120 151 
382 450 192 125 138 157 
156 470 215 144 144 152 
327 331 172 125 119 119 
231 929 235 65 51 42 
203 686 332 153 151 154 
256 130 165 108 101 96 
296 154 178 113 67 13 
173 738 165 183 164 150 
342 491 182 106 137 193 
101 668 132 95 121 148 
329 507 311 161 170 185 
259 130 232 74 63 54 
204 31 241 96 83 69 
175 728 330 150 161 178 
180 583 181 98 43 60 
337 177 245 94 89 101 
306 145 251 152 75 12 
283 218 159 117 91 72 
317 363 257 177 153 130 
157 509 184 91 106 125 
291 511 167 92 123 195 
266 895 321 99 80 60 
164 372 242 97 115 150 
396 159 256 126 55 27 
164 786 301 150 123 93 
354 215 243 123 83 102 
194 747 345 160 160 167 
202 511 310 134 144 162 
268 506 322 136 144 157 
314 524 320 96 135 168 
150 527 198 79 100 133 
435 221 253 90 95 105 
162 706 229 87 93 100 
189 433 251 65 91 123 
175 459 143 130 144 182 
136 748 239 93 81 70 
212 73 324 148 142 140 
142 794 255 188 138 108 
419 405 236 90 113 150 
214 15 231 86 74 61 
356 493 188 201 197 207 
298 645 267 69 74 81 
298 351 163 148 3 53 
157 702 245 102 117 132 
163 380 240 76 118 152 
203 607 159 82 113 140 
273 707 348 97 115 138 
162 659 108 96 121 180 
254 187 270 121 49 62 
178 421 248 52 80 138 
180 334 262 163 55 100 
341 309 182 112 103 98 
408 248 257 107 44 71 
265 27 329 69 65 62 
343 280 189 108 114 124 
106 638 110 107 119 135 
294 259 253 148 102 90 
241 477 157 181 181 189 
273 898 268 140 108 82 
365 153 247 149 79 28 
324 736 399 135 148 192 
193 161 282 46 83 122 
238 497 156 58 104 145 
191 946 319 158 135 116 
195 696 199 88 93 102 
317 217 201 70 57 73 
393 482 253 145 161 185 
293 392 270 142 125 109 
181 647 155 54 78 138 
207 635 296 72 119 155 
405 447 246 84 106 154 
236 441 288 59 90 121 
217 15 225 108 87 73 
309 727 304 135 136 156 
146 475 202 139 144 156 
135 779 213 177 125 92 
371 271 209 151 151 156 
277 889 267 132 107 79 
285 767 291 174 164 164 
331 616 354 143 105 78 
281 737 258 123 94 87 
252 16 302 56 50 47 
118 735 166 167 140 116 
260 759 391 150 159 175 
221 375 253 80 99 131 
241 956 247 168 130 101 
337 365 183 140 140 146 
284 197 268 113 44 39 
206 635 293 77 122 158 
229 116 299 149 95 92 
267 69 271 109 90 69 
272 18 314 56 51 48 
375 283 208 114 129 147 
222 449 290 97 114 135 
328 739 386 168 181 204 
196 689 207 72 81 93 
264 19 225 125 94 71 
235 873 258 108 80 47 
256 85 266 99 82 63 
214 736 355 83 108 156 
164 294 199 127 69 10 
313 770 367 158 165 196 
250 622 165 154 115 93 
236 107 305 163 116 103 
383 214 226 92 52 25 
178 669 144 64 83 126 
394 434 200 179 171 172 
312 223 257 61 91 122 
270 480 159 125 149 190 
211 353 251 141 72 96 
266 922 328 192 141 118 
332 353 180 132 98 105 
199 569 293 124 140 162 
244 414 275 75 103 130 
252 299 153 103 63 50 
262 508 324 130 141 157 
443 237 269 123 16 49 
220 14 224 120 96 81 
341 335 250 123 136 149 
440 333 231 178 173 177 
195 346 260 111 132 157 
246 567 331 88 141 181 
269 50 288 103 84 64 
223 12 224 128 105 90 
200 609 274 155 152 157 
325 363 173 149 128 108 
282 295 235 148 148 154 
222 13 227 110 92 78 
207 91 331 110 91 71 
303 612 272 130 140 168 
322 574 209 139 159 205 
208 299 244 80 99 118 
301 161 254 115 107 115 
262 273 155 147 146 150 
317 390 264 164 70 5 
348 265 248 80 124 158 
306 588 346 115 100 89 
220 13 230 95 79 66 
239 644 160 101 103 109 
221 12 230 96 81 67 
179 524 280 129 131 139 
222 12 228 106 89 75 
323 577 222 69 98 187 
222 748 363 152 150 157 
175 913 292 66 51 43 
283 888 268 137 113 88 
153 528 241 165 162 165 
277 383 268 81 74 101 
170 487 143 87 115 151 
187 613 200 129 135 148 
215 355 249 145 101 39 
240 775 242 199 144 114 
184 544 285 126 140 162 
214 929 334 121 99 83 
198 512 145 112 134 177 
243 261 152 72 63 67 
319 382 262 160 77 14 
217 614 165 70 85 100 
328 558 253 215 213 221 
208 852 322 148 114 85 
439 237 273 132 9 59 
238 890 250 89 66 40 
234 420 276 140 142 149 
185 265 263 154 151 155 
183 511 148 72 70 108 
204 861 323 156 123 94 
264 342 152 193 162 130 
308 642 402 120 99 77 
343 451 285 97 123 152 
294 701 363 57 94 152 
324 291 250 118 140 163 
304 493 305 138 150 166 
241 493 159 101 115 148 
193 581 279 135 146 163 
251 385 148 128 30 53 
267 726 223 162 133 105 
381 187 244 103 62 88 
219 392 265 65 95 139 
443 188 276 112 113 121 
396 205 238 50 54 68 
362 220 238 115 113 123 
267 879 267 156 124 99 
358 363 193 109 120 137 
217 14 239 81 68 54 
351 541 216 150 166 189 
185 607 196 91 115 141 
330 210 251 113 57 68 
260 940 322 124 89 81 
333 276 252 167 163 167 
310 154 232 158 60 13 
219 400 153 189 159 128 
446 228 260 76 95 121 
218 13 239 81 68 54 
194 720 171 199 164 123 
444 151 263 161 73 16 
299 206 263 112 44 64 
220 12 232 88 74 60 
180 895 252 99 82 65 
321 328 165 80 101 123 
304 646 225 102 78 78 
395 350 209 160 141 125 
344 706 381 145 158 178 
261 407 279 39 76 111 
205 874 246 78 62 47 
245 19 294 91 80 71 
209 130 283 122 110 101 
164 279 202 105 54 61 
264 379 264 87 105 125 
158 705 264 71 76 97 
218 545 150 125 129 158 
185 876 252 110 85 65 
295 259 253 135 109 110 
188 860 301 130 98 69 
131 774 222 137 134 136 
275 718 244 131 116 106 
176 303 262 96 130 162 
321 573 320 115 100 86 
253 565 336 164 170 184 
271 720 227 140 111 80 
239 34 311 102 88 75 
238 560 160 145 154 170 
164 298 199 138 69 1 
237 645 158 94 97 103 
191 445 251 69 96 125 
312 453 288 150 156 168 
296 204 166 112 75 65 
194 386 172 155 134 112 
304 240 166 122 68 65 
183 951 292 133 101 73 
157 214 263 91 26 27 
184 178 280 59 44 68 
225 103 312 163 115 73 
156 816 259 201 148 119 
305 609 285 110 66 73 
110 636 94 35 67 104 
240 408 270 79 102 125 
224 958 318 100 80 67 
133 701 178 87 92 97 
340 420 179 85 109 138 
254 734 359 35 66 98 
296 194 168 96 82 78 
238 928 341 206 161 137 
217 520 320 205 193 187 
226 461 299 86 102 122 
198 801 232 188 136 104 
125 710 183 103 30 45 
230 650 148 26 47 91 
163 714 286 108 75 78 
264 18 250 152 137 131 
271 574 329 90 136 172 
308 666 242 146 120 90 
332 568 222 208 209 220 
290 705 357 59 114 155 
268 723 223 179 151 124 
170 626 238 95 122 149 
271 142 198 122 76 44 
422 288 232 136 147 162 
319 477 173 119 141 171 
223 11 240 80 67 52 
258 908 337 184 141 114 
339 689 376 50 77 117 
182 743 172 106 129 153 
317 362 258 176 152 128 
442 325 243 164 163 169 
418 409 250 98 130 166 
220 12 242 80 66 52 
220 822 352 108 136 169 
310 707 265 124 152 181 
189 620 213 123 123 128 
246 396 265 83 102 123 
315 583 225 138 171 216 
223 572 317 170 166 170 
329 360 255 171 143 116 
149 642 99 67 91 158 
156 784 182 222 152 114 
210 655 179 106 111 133 
222 12 243 80 66 51 
408 279 227 154 152 156 
424 330 221 86 81 85 
205 523 152 74 96 129 
160 713 149 144 113 81 
421 186 281 111 100 118 
163 466 180 58 77 105 
312 170 251 50 82 111 
270 682 340 56 83 111 
183 491 256 67 96 122 
397 373 205 156 152 154 
296 448 294 108 122 140 
220 15 246 83 68 52 
323 450 169 120 131 149 
445 239 267 137 30 63 
302 659 284 75 94 126 
185 256 184 116 102 100 
172 432 175 80 97 118 
321 319 166 135 136 143 
207 709 174 182 183 189 
311 768 355 149 149 192 
238 838 331 116 76 54 
248 433 289 57 84 113 
353 549 257 186 207 233 
190 782 213 199 146 105 
178 361 186 58 63 70 
244 49 299 95 80 67 
274 233 263 71 56 109 
208 957 314 103 84 71 
365 521 216 136 154 201 
200 623 190 120 126 136 
190 273 178 120 91 76 
280 148 211 112 66 52 
150 268 223 145 47 54 
222 13 248 80 66 51 
297 697 364 102 128 160 
223 13 248 80 66 51 
322 476 297 60 96 135 
197 673 147 95 70 98 
303 745 298 182 111 115 
325 314 168 118 125 137 
226 285 234 101 42 64 
289 209 161 118 64 43 
292 202 265 110 35 51 
163 595 213 98 110 126 
225 894 241 67 56 46 
225 316 236 118 132 149 
166 674 144 92 99 127 
404 447 265 145 159 177 
267 65 275 105 87 68 
294 692 353 57 76 121 
338 468 294 140 148 161 
249 42 330 130 108 85 
265 818 366 179 200 223 
161 743 293 133 109 98 
200 518 146 162 170 192 
266 181 155 45 46 58 
296 696 245 220 178 132 
237 480 159 117 127 150 
396 197 253 103 28 54 
376 440 286 129 146 168 
299 637 251 74 112 145 
260 876 329 153 115 93 
204 807 349 65 57 70 
200 741 191 92 67 41 
269 727 233 136 117 96 
238 334 241 115 121 131 
211 22 226 91 80 72 
154 338 230 102 135 167 
209 21 231 91 80 70 
222 783 361 173 176 186 
176 649 151 70 98 130 
211 75 318 135 127 123 
396 440 203 153 158 174 
269 140 194 136 79 35 
184 664 236 73 74 84 
206 435 164 98 108 121 
241 710 188 127 99 106 
168 260 201 86 88 97 
244 983 267 171 136 107 
196 460 144 136 145 160 
202 806 348 62 64 74 
303 436 286 81 101 128 
180 774 190 169 132 94 
412 202 248 114 43 22 
247 507 161 92 114 179 
250 872 264 113 87 54 
249 904 341 130 107 84 
199 697 166 141 135 144 
253 554 334 143 152 167 
220 356 248 134 101 63 
331 254 254 90 116 140 
329 299 174 87 97 109 
327 504 184 64 98 187 
407 378 275 169 77 10 
213 19 227 93 79 69 
243 783 375 86 110 173 
359 519 200 174 183 200 
191 572 155 179 187 209 
241 869 264 109 87 61 
442 214 259 137 104 83 
194 57 257 86 78 71 
267 586 185 102 131 172 
390 294 246 90 119 146 
173 719 304 129 142 159 
260 784 386 63 109 184 
220 666 180 57 61 78 
180 822 243 220 156 119 
148 312 216 136 108 115 
180 927 309 81 63 48 
130 769 206 126 148 172 
229 589 321 75 119 155 
402 317 217 155 148 147 
246 927 340 198 144 118 
175 829 302 199 154 128 
312 739 326 150 165 186 
252 670 344 68 92 118 
214 802 244 196 136 104 
356 204 229 71 53 64 
278 140 173 124 90 66 
212 19 229 89 78 68 
183 906 250 83 66 53 
213 18 229 90 77 67 
258 649 336 72 94 120 
216 593 166 85 83 86 
186 723 168 195 158 129 
185 613 244 66 115 151 
212 737 190 171 144 120 
297 694 358 59 52 111 
345 260 198 75 65 60 
294 699 358 60 114 153 
215 16 229 91 77 64 
249 27 321 81 69 57 
216 396 256 54 83 125 
251 736 361 41 69 96 
403 194 266 151 37 76 
251 237 154 128 24 50 
186 360 175 134 135 141 
371 199 230 104 42 45 
196 910 233 68 52 42 
256 956 271 105 84 71 
304 652 407 123 100 76 
286 721 254 64 20 54 
424 385 251 159 141 122 
398 175 255 88 70 82 
339 673 404 152 105 75 
373 406 196 87 110 133 
211 18 232 89 77 66 
300 690 429 110 127 151 
173 432 164 112 127 145 
167 795 201 227 160 123 
186 579 269 196 182 175 
178 670 255 125 127 134 
230 811 270 167 111 90 
170 689 279 129 139 153 
136 690 167 87 29 35 
271 901 265 121 89 67 
438 182 280 102 114 129 
266 22 244 129 98 82 
297 385 162 160 133 103 
167 732 158 154 132 133 
240 418 148 165 69 1 
121 737 162 140 115 101 
267 937 314 134 107 95 
210 772 215 187 136 101 
240 282 231 75 124 163 
227 80 294 89 75 59 
236 603 174 78 72 68 
415 166 259 57 74 102 
343 445 282 97 118 144 
339 561 221 131 152 201 
344 700 385 123 141 166 
262 235 258 118 38 58 
175 294 262 129 149 173 
233 932 237 89 69 50 
168 320 257 185 137 72 
272 296 155 107 124 144 
235 110 303 162 120 104 
292 786 322 108 38 60 
263 94 292 137 105 88 
377 516 236 112 140 198 
117 725 156 83 58 110 
199 482 295 133 137 148 
260 864 312 148 111 86 
267 526 326 90 105 141 
434 154 258 146 76 35 
271 219 266 107 45 75 
177 711 178 94 107 122 
183 410 155 138 140 146 
179 593 239 108 126 150 
210 21 238 91 78 65 
354 494 187 196 192 198 
299 529 182 121 133 155 
178 927 261 109 79 61 
220 659 332 140 131 128 
342 546 238 136 151 203 
210 22 237 92 80 68 
294 803 344 98 80 91 
112 684 155 120 132 147 
255 873 337 200 143 125 
181 395 168 36 65 96 
209 542 313 136 154 176 
373 525 245 131 148 194 
259 345 153 185 155 122 
178 906 284 61 48 42 
229 789 246 197 139 112 
157 633 113 99 88 78 
314 534 322 106 127 156 
267 321 231 75 116 149 
297 783 326 127 135 144 
311 291 163 138 139 145 
284 373 165 136 34 41 
364 504 197 112 127 178 
227 690 177 135 133 135 
270 496 318 102 115 145 
176 570 259 152 161 176 
270 624 338 64 88 134 
155 550 177 147 147 154 
270 666 337 69 87 112 
305 265 164 82 103 126 
340 278 251 152 150 156 
312 603 305 167 118 108 
160 641 104 111 134 186 
200 318 162 134 135 141 
313 700 432 156 116 109 
247 977 279 115 75 59 
212 19 237 87 73 59 
279 651 338 98 120 146 
190 229 266 130 54 88 
271 558 329 126 141 163 
319 265 252 151 150 158 
172 708 155 94 76 63 
308 567 203 144 171 214 
365 325 247 173 150 124 
329 596 336 168 122 103 
303 620 270 93 69 61 
308 689 433 141 111 97 
244 171 276 162 33 26 
250 495 323 109 123 141 
446 250 253 141 141 145 
263 726 212 216 184 154 
274 10 304 42 38 35 
200 471 283 125 130 141 
266 783 286 175 140 99 
332 671 358 167 166 173 
102 682 124 115 129 156 
239 905 243 69 58 48 
219 387 258 51 95 136 
281 823 352 164 82 115 
113 712 166 155 124 87 
411 335 215 158 151 149 
286 598 332 72 70 77 
249 155 283 178 69 8 
206 941 241 140 99 62 
379 466 292 110 131 163 
172 300 189 86 104 123 
291 431 157 122 108 98 
307 701 260 84 124 158 
278 268 249 148 94 66 
294 472 159 83 115 171 
399 340 212 159 144 133 
170 666 274 153 159 172 
366 427 280 157 149 149 
182 426 250 55 88 139 
168 464 146 99 109 121 
259 424 288 55 87 120 
306 184 180 110 92 77 
331 568 215 169 182 217 
144 298 224 80 129 169 
208 24 232 91 82 72 
280 493 316 136 141 152 
259 462 151 153 159 182 
448 282 247 121 117 115 
255 761 384 113 131 162 
208 24 237 90 77 65 
307 145 237 147 73 34 
167 268 202 68 95 119 
164 560 245 201 191 188 
170 692 287 88 123 152 
270 573 329 86 133 171 
302 471 160 123 140 170 
180 520 146 54 94 152 
201 266 166 138 84 82 
377 314 247 183 159 136 
352 455 289 63 98 147 
314 629 321 82 100 130 
297 792 376 169 171 205 
178 549 274 162 165 176 
284 400 277 58 89 123 
194 818 248 176 125 90 
249 22 259 145 130 130 
140 755 159 196 170 145 
291 356 253 98 105 117 
252 854 323 110 44 47 
164 789 300 162 137 113 
250 614 167 104 97 92 
220 150 278 143 88 76 
153 463 208 129 137 151 
164 603 219 153 159 170 
169 793 197 222 158 125 
237 110 302 162 123 105 
296 799 357 182 193 211 
217 301 153 81 112 139 
293 485 307 60 89 135 
282 12 302 75 62 49 
216 501 148 110 120 139 
235 554 157 149 158 173 
214 17 241 86 73 61 
363 395 194 92 109 130 
372 188 232 51 60 77 
276 902 277 106 86 71 
356 305 193 127 54 58 
235 608 327 155 156 164 
271 20 230 121 91 68 
177 839 297 189 143 117 
264 32 333 123 109 98 
382 509 253 144 154 187 
248 782 261 183 142 117 
179 670 235 65 101 129 
215 18 242 87 73 59 
209 971 295 118 92 68 
273 920 314 180 134 107 
262 742 235 85 111 134 
313 266 251 157 160 170 
382 256 215 153 150 153 
325 461 177 91 108 173 
294 694 395 123 128 139 
200 363 258 87 115 158 
300 622 349 40 101 141 
285 677 233 140 106 76 
295 271 247 132 127 129 
168 779 308 161 143 129 
332 479 299 86 117 154 
377 220 224 116 50 23 
296 676 342 87 110 138 
272 899 296 142 113 84 
212 22 242 90 75 58 
235 552 157 83 115 160 
368 534 274 130 149 207 
205 136 283 152 86 27 
370 509 207 159 169 198 
404 299 222 91 121 148 
215 785 357 171 32 53 
407 360 209 126 127 139 
303 639 349 70 119 156 
282 803 376 132 169 205 
316 166 235 104 50 34 
176 527 145 135 141 167 
410 353 270 183 160 140 
175 655 145 43 67 118 
130 655 137 77 94 112 
204 410 253 47 74 109 
169 717 185 119 128 140 
312 586 270 73 76 82 
295 619 228 148 138 140 
215 20 245 93 78 62 
266 645 333 71 95 119 
291 666 231 113 67 57 
311 726 281 127 167 199 
218 432 283 90 115 141 
248 472 152 187 186 194 
258 564 331 98 112 132 
274 815 318 92 82 80 
319 585 288 123 79 77 
316 460 289 68 101 146 
207 832 254 140 105 74 
257 65 316 127 96 81 
382 308 209 146 143 144 
235 233 243 103 113 125 
238 603 324 149 149 156 
281 139 233 131 87 72 
234 569 321 84 125 156 
213 782 356 170 48 65 
194 686 160 140 113 120 
228 596 323 79 118 152 
233 167 275 105 58 51 
352 483 299 89 116 160 
321 755 370 182 189 203 
251 696 184 112 101 85 
180 779 195 180 138 103 
216 407 263 87 106 144 
228 413 274 102 120 141 
303 773 329 161 178 201 
210 175 276 81 52 81 
382 510 254 134 147 186 
363 230 221 103 38 35 
210 24 242 90 76 62 
184 742 173 123 131 146 
162 556 198 139 137 141 
325 693 334 159 167 183 
227 862 335 157 121 91 
211 25 243 93 79 64 
146 512 211 124 133 147 
115 726 175 125 105 88 
240 273 232 90 123 151 
164 815 292 184 143 113 
145 798 257 190 140 111 
331 647 371 124 90 65 
279 553 181 138 140 150 
353 475 297 88 120 160 
272 870 289 122 102 81 
264 174 156 52 68 84 
217 199 258 71 86 114 
179 651 117 120 133 186 
211 921 233 72 56 46 
302 532 326 124 123 127 
300 295 155 121 127 136 
219 680 181 49 63 76 
225 701 352 71 93 132 
165 758 301 107 118 131 
158 815 274 200 155 125 
313 698 279 114 147 179 
277 726 253 165 115 66 
246 373 254 97 110 127 
203 235 255 145 104 108 
413 424 237 100 120 161 
403 202 263 102 56 77 
172 636 241 108 114 126 
194 398 172 72 90 107 
422 171 261 66 89 112 
233 562 159 106 124 153 
210 682 336 133 134 142 
287 711 381 115 121 131 
188 896 238 102 80 56 
288 713 370 75 102 144 
149 428 196 100 117 136 
169 396 166 105 128 158 
175 386 167 71 107 136 
189 597 258 126 136 151 
249 447 298 95 113 133 
176 670 264 96 117 140 
284 414 284 127 133 145 
257 473 152 105 126 182 
238 986 268 166 135 115 
242 28 302 112 102 97 
314 702 276 128 153 179 
354 503 190 135 154 186 
213 26 246 101 84 65 
322 333 251 180 154 128 
279 654 338 90 115 142 
242 190 261 64 42 72 
214 24 247 100 83 65 
201 515 308 161 160 167 
269 63 281 99 82 63 
309 451 163 106 125 155 
232 108 277 103 90 79 
268 60 318 147 106 99 
164 707 223 76 43 40 
373 340 202 167 132 83 
267 140 167 113 101 91 
150 533 224 91 115 156 
168 287 196 134 131 131 
278 891 272 147 122 97 
193 627 132 96 86 77 
405 389 277 148 96 59 
384 421 196 136 145 160 
388 280 216 90 121 150 
193 588 161 94 116 140 
266 671 340 66 86 110 
207 655 166 93 99 140 
189 942 258 163 129 97 
204 557 307 126 142 164 
210 441 263 109 125 144 
266 768 394 120 134 182 
219 372 151 132 26 46 
214 28 248 99 87 75 
333 624 377 124 98 68 
224 555 318 196 181 173 
213 216 251 145 17 38 
343 437 179 82 104 138 
332 724 354 185 185 193 
303 298 239 80 124 158 
177 549 273 172 171 178 
204 772 352 68 62 119 
225 640 149 45 40 70 
212 621 301 158 154 158 
189 959 294 121 95 78 
374 450 289 170 171 179 
159 465 222 120 128 142 
404 354 271 172 150 129 
427 316 261 103 136 167 
282 774 295 146 111 77 
255 425 288 100 114 131 
175 704 210 88 100 115 
260 12 287 78 69 61 
250 939 331 155 118 105 
216 18 244 87 73 58 
271 10 297 50 44 40 
274 194 158 131 50 65 
217 18 245 87 74 60 
301 142 239 137 89 62 
155 290 250 91 115 140 
185 656 238 135 135 142 
394 290 218 92 123 150 
194 690 165 118 114 142 
237 935 337 188 142 117 
419 303 261 139 152 171 
140 775 189 193 131 99 
255 957 270 104 84 69 
148 440 204 135 140 151 
221 410 153 135 134 135 
294 701 364 77 106 157 
193 660 124 31 69 124 
392 262 243 157 155 160 
367 338 251 185 159 134 
153 692 132 157 121 139 
423 247 270 83 120 151 
319 755 380 127 147 195 
128 758 214 90 71 53 
309 588 258 72 61 62 
375 245 217 93 115 137 
234 216 247 57 44 62 
158 784 290 166 151 142 
352 289 193 138 137 141 
432 264 241 133 113 88 
146 517 211 109 123 145 
275 911 285 68 55 42 
328 703 338 115 129 180 
330 377 178 97 106 121 
259 753 245 178 165 159 
169 212 272 56 113 153 
217 20 248 98 81 64 
381 349 257 177 157 137 
216 22 248 97 81 63 
301 355 254 171 149 127 
275 175 273 144 30 38 
217 22 249 92 76 58 
302 297 155 140 142 149 
315 690 268 146 166 189 
177 862 289 170 131 98 
314 706 271 147 168 192 
388 249 219 143 143 148 
127 660 95 127 139 213 
313 184 221 100 59 62 
219 21 250 92 78 66 
289 770 305 91 69 72 
209 854 253 109 84 55 
215 562 314 189 180 180 
213 274 240 150 147 150 
182 275 187 87 69 80 
281 562 332 92 134 170 
219 23 251 110 100 94 
132 734 211 126 101 79 
295 659 229 112 71 58 
244 34 291 110 99 91 
201 243 256 78 114 142 
339 551 300 153 163 190 
168 411 183 55 80 121 
194 671 145 110 67 86 
266 740 377 73 99 122 
195 348 260 125 143 163 
283 503 170 92 122 175 
327 655 411 126 99 70 
122 753 191 140 103 75 
170 393 246 90 122 156 
218 916 232 48 39 36 
200 534 150 126 140 190 
350 342 249 186 159 132 
163 495 168 124 135 152 
439 294 258 105 78 96 
169 674 123 137 120 141 
432 324 225 95 125 153 
222 16 252 91 74 55 
181 581 176 126 130 139 
157 427 223 117 126 145 
293 760 299 204 146 136 
285 230 157 72 104 132 
272 725 244 24 23 29 
154 226 260 86 33 37 
265 242 257 113 71 93 
150 432 194 100 109 125 
178 338 180 80 111 138 
179 724 329 130 140 156 
374 354 257 168 149 127 
223 18 254 98 84 72 
330 562 232 121 154 187 
395 477 237 129 149 181 
150 496 216 78 100 129 
353 162 236 165 44 11 
187 647 241 73 101 125 
269 534 169 146 156 177 
282 520 321 111 128 149 
220 23 251 110 101 96 
150 742 276 116 104 95 
270 901 322 161 126 98 
312 720 318 47 64 115 
279 776 393 124 149 208 
360 339 249 167 142 116 
359 523 300 132 140 177 
198 447 152 50 79 107 
365 280 242 148 137 136 
222 21 253 113 103 99 
254 749 366 51 56 83 
223 20 255 112 103 98 
281 717 410 156 155 161 
212 970 296 127 99 70 
344 554 284 112 136 174 
222 23 253 118 108 103 
204 143 282 169 71 11 
273 698 342 79 104 130 
204 91 321 153 138 127 
180 557 149 178 182 202 
286 326 238 135 136 142 
247 913 243 56 44 42 
216 25 248 82 67 49 
173 701 310 132 152 175 
154 765 285 135 117 102 
103 657 129 40 77 109 
232 77 286 81 70 59 
434 263 269 150 153 163 
371 397 271 155 79 12 
216 27 249 118 109 103 
211 660 166 71 88 134 
239 785 253 207 149 122 
290 339 244 110 122 138 
378 286 209 130 135 145 
305 363 258 170 140 105 
190 623 207 143 147 159 
365 297 244 144 150 162 
299 526 181 46 82 145 
211 730 186 125 114 107 
339 434 178 103 122 149 
292 523 172 174 178 201 
446 308 246 113 49 59 
266 798 381 201 210 228 
338 680 382 57 90 123 
243 730 362 104 110 120 
276 206 269 119 52 48 
196 809 342 174 118 78 
448 261 259 172 169 173 
161 532 184 112 127 144 
161 405 236 102 116 147 
436 349 241 137 147 162 
228 270 235 160 158 162 
444 322 237 169 168 174 
262 87 299 138 102 88 
154 368 199 67 91 120 
159 305 250 161 167 181 
101 678 130 123 141 163 
276 358 161 170 142 110 
185 320 172 82 99 114 
382 205 230 112 46 30 
216 638 141 83 85 88 
155 773 173 224 157 116 
353 270 245 81 122 157 
271 137 276 125 113 103 
156 314 208 95 101 110 
363 522 296 77 113 168 
233 264 152 85 119 150 
220 27 251 104 98 96 
336 367 254 169 158 153 
273 617 186 92 85 81 
257 547 171 100 118 175 
333 654 404 131 100 69 
404 323 216 160 153 150 
362 302 244 138 145 158 
244 486 157 98 124 187 
223 447 157 128 140 164 
252 374 255 107 117 132 
305 574 324 97 86 82 
263 21 225 117 91 66 
252 330 234 146 144 148 
316 727 419 155 181 215 
195 417 253 25 65 113 
342 552 230 112 151 195 
247 194 262 165 53 33 
163 706 279 124 140 157 
223 27 253 84 73 66 
162 796 200 246 163 124 
223 435 154 163 144 142 
120 681 104 165 163 220 
220 28 251 62 54 50 
304 681 293 66 84 118 
332 630 385 122 96 66 
242 169 276 159 38 30 
217 163 277 86 54 84 
392 303 215 147 144 148 
302 497 307 159 164 176 
421 336 265 140 31 67 
445 202 264 144 81 76 
131 736 148 224 192 165 
269 545 173 167 172 187 
328 327 171 136 128 125 
279 897 279 114 92 71 
171 689 233 101 108 118 
322 413 270 123 110 98 
248 597 180 70 93 118 
196 942 322 106 88 75 
419 266 234 134 125 119 
153 797 280 73 100 123 
373 379 265 161 138 114 
193 921 325 88 71 56 
285 608 209 139 125 126 
172 258 199 105 88 77 
189 725 337 157 157 165 
313 584 226 138 171 216 
177 924 302 66 52 45 
172 771 179 174 134 98 
163 695 264 130 142 158 
207 429 164 74 103 133 
338 662 384 141 100 69 
182 601 240 154 149 150 
230 936 337 168 131 109 
231 750 213 191 137 99 
308 751 320 145 168 194 
304 742 303 69 61 86 
243 559 163 183 183 191 
385 393 201 86 114 140 
206 32 222 99 87 75 
182 895 301 156 120 100 
276 724 403 137 142 155 
276 822 360 91 76 137 
270 488 161 95 128 192 
202 207 263 112 57 86 
171 594 216 80 121 155 
153 711 240 120 38 36 
154 298 214 116 68 13 
227 752 365 160 160 168 
298 640 344 20 48 116 
146 774 176 214 147 108 
311 659 301 125 142 166 
204 923 332 96 78 65 
263 241 256 103 100 112 
233 218 150 57 42 41 
208 377 253 67 94 130 
221 796 359 159 137 145 
441 300 255 142 101 109 
309 587 212 141 154 196 
409 427 266 89 115 163 
288 669 219 165 120 79 
358 494 189 153 163 185 
173 429 164 134 140 151 
171 668 114 75 118 150 
302 612 276 136 120 121 
299 625 283 55 58 77 
173 544 269 104 133 163 
393 228 228 105 55 73 
155 549 227 127 142 164 
250 531 165 109 122 143 
252 798 286 141 110 78 
311 663 307 126 134 160 
368 340 200 144 88 95 
195 359 260 104 125 158 
373 408 276 129 116 102 
304 179 195 63 66 74 
306 740 302 88 58 66 
438 187 263 122 62 73 
208 323 157 146 145 150 
203 40 223 103 90 78 
431 228 250 68 85 116 
386 502 254 99 126 171 
202 42 223 107 92 77 
205 156 281 49 64 111 
404 190 248 109 28 29 
164 195 258 109 89 81 
417 396 262 172 151 130 
311 566 261 60 121 163 
204 687 174 81 100 126 
131 748 207 127 109 93 
282 241 261 145 36 71 
283 645 336 51 66 90 
268 160 278 123 111 115 
166 476 165 120 130 144 
215 456 160 86 107 130 
192 926 325 100 81 63 
308 766 346 156 167 185 
175 928 292 70 55 47 
200 668 316 86 123 154 
179 389 170 20 63 97 
170 717 192 144 38 56 
321 274 251 170 168 173 
237 74 309 88 71 54 
175 895 265 73 59 49 
287 656 203 196 156 109 
209 961 244 107 82 48 
310 735 295 96 142 181 
170 792 309 157 127 92 
211 929 238 86 63 43 
259 860 282 136 109 88 
444 227 269 134 109 122 
309 606 367 120 101 84 
207 40 220 109 95 83 
179 711 179 115 122 132 
252 796 379 176 192 216 
155 555 181 152 150 156 
192 913 240 110 86 61 
333 712 407 115 106 117 
255 347 239 110 120 135 
435 176 261 67 94 117 
271 341 239 128 129 136 
174 437 150 99 117 139 
181 898 294 106 86 69 
294 322 160 148 39 69 
244 441 291 78 99 123 
376 235 220 107 55 66 
305 444 288 146 150 160 
287 263 252 180 64 10 
164 493 148 101 124 148 
241 834 345 131 123 123 
302 598 227 180 180 192 
228 180 267 111 54 79 
247 338 238 94 117 140 
419 320 222 90 114 139 
172 825 301 196 152 125 
256 461 150 114 122 170 
329 261 189 136 133 135 
211 828 254 146 106 71 
219 267 152 119 44 69 
169 190 265 96 59 41 
268 942 287 96 76 64 
305 683 284 149 158 173 
402 152 262 159 75 11 
400 456 269 141 151 169 
263 621 176 127 102 78 
217 398 261 94 115 145 
215 421 263 86 105 136 
272 454 306 103 118 143 
378 519 264 114 140 184 
272 922 285 100 81 65 
306 303 155 108 122 138 
337 689 356 118 134 160 
205 685 333 128 131 140 
194 416 253 39 75 116 
297 432 158 128 112 97 
264 865 282 191 150 138 
394 335 259 165 145 127 
396 179 254 91 63 88 
128 671 98 157 170 206 
201 52 223 119 100 82 
170 380 169 67 99 134 
278 644 337 83 111 150 
240 521 332 112 129 154 
403 225 235 118 33 23 
175 609 142 75 103 134 
227 125 273 117 110 105 
294 308 236 75 116 149 
324 165 246 75 65 88 
311 725 422 97 139 213 
124 719 189 67 71 93 
209 993 292 155 129 103 
410 355 271 183 158 135 
319 598 363 115 97 80 
351 326 246 146 22 68 
224 668 160 145 75 151 
289 138 241 124 99 87 
256 780 269 137 122 114 
244 838 332 187 141 116 
164 272 262 95 135 168 
305 421 279 93 94 122 
196 657 289 118 56 69 
186 527 292 71 78 129 
171 393 247 92 120 159 
252 90 266 93 76 58 
389 404 201 117 127 144 
205 50 222 103 87 70 
261 299 230 82 126 161 
258 52 281 96 76 52 
273 219 266 87 49 74 
177 525 276 118 126 140 
207 49 221 105 90 74 
243 890 334 127 91 83 
188 576 155 144 165 200 
260 617 174 114 99 86 
259 493 156 87 117 170 
429 302 260 105 136 167 
274 926 294 98 69 49 
173 543 270 103 131 162 
302 390 164 161 134 103 
201 635 130 125 96 67 
274 139 227 111 78 67 
297 682 405 128 136 149 
206 561 308 162 167 180 
158 520 171 64 92 136 
193 743 343 135 136 143 
235 777 237 195 143 110 
329 192 232 91 44 24 
181 913 314 183 124 94 
314 676 325 89 107 142 
266 877 301 170 126 97 
271 75 298 126 98 81 
242 842 277 131 103 73 
269 944 311 88 70 58 
152 387 201 36 76 124 
373 199 230 104 30 46 
183 537 148 69 107 157 
222 123 260 112 98 91 
186 972 286 137 107 77 
158 760 290 110 108 109 
262 867 312 159 121 91 
302 701 430 132 147 184 
303 337 160 136 85 85 
291 378 264 123 109 97 
214 822 347 172 138 110 
226 855 257 123 85 49 
201 59 222 120 101 82 
299 139 257 116 104 94 
346 489 302 91 122 161 
402 313 219 133 138 147 
202 57 222 113 96 78 
216 86 322 154 137 125 
354 142 253 112 97 87 
187 583 267 125 130 156 
265 800 307 142 127 116 
211 972 242 161 123 76 
109 639 91 57 63 76 
259 670 169 99 61 78 
276 315 232 77 115 146 
296 359 256 135 100 85 
253 814 309 149 119 96 
197 343 163 128 135 147 
127 736 199 117 94 72 
283 425 290 153 149 152 
240 955 246 185 149 120 
201 60 223 124 105 87 
173 184 259 122 63 20 
202 627 135 95 83 72 
371 157 251 160 64 11 
406 327 216 154 149 149 
219 613 161 61 61 63 
233 903 241 63 54 45 
250 533 164 104 117 144 
297 681 405 118 132 149 
154 722 217 64 35 29 
351 280 195 141 138 141 
397 198 241 74 52 32 
203 579 294 112 136 166 
326 402 168 120 107 98 
170 684 245 106 119 134 
187 272 262 166 163 168 
197 309 165 137 135 137 
183 967 275 137 110 82 
211 371 156 153 122 95 
190 592 165 96 129 165 
260 19 310 55 51 47 
308 724 271 186 42 53 
203 63 220 109 94 78 
254 199 265 26 40 75 
107 669 141 81 101 124 
257 712 194 183 162 146 
285 776 305 66 70 71 
304 320 155 191 160 127 
221 495 317 90 111 138 
230 947 244 139 104 62 
263 664 339 80 97 116 
178 591 236 104 124 151 
272 488 316 167 160 162 
156 358 221 92 114 143 
142 675 146 21 53 78 
253 289 153 99 119 139 
238 14 259 81 70 61 
435 204 278 77 117 149 
426 363 218 130 133 140 
161 507 248 89 105 125 
273 421 152 154 70 0 
257 613 181 62 69 77 
285 677 234 165 132 98 
343 358 184 170 161 159 
245 556 332 180 184 197 
332 724 396 148 153 185 
248 845 319 154 109 88 
357 472 296 99 128 161 
173 428 168 90 109 131 
273 903 286 80 62 43 
174 516 271 89 107 132 
389 138 264 125 108 95 
170 777 312 109 98 94 
314 748 401 119 130 198 
430 367 249 156 146 147 
156 491 225 135 138 146 
149 782 276 141 123 111 
188 968 261 135 105 72 
417 374 269 160 124 86 
403 301 222 92 121 147 
164 831 273 187 142 115 
307 396 270 114 99 86 
178 637 252 141 146 157 
206 62 218 102 90 78 
442 250 269 106 65 76 
172 263 198 66 99 127 
446 292 252 96 141 176 
434 259 270 168 162 161 
291 562 187 95 133 171 
249 746 364 50 70 96 
338 553 298 119 137 177 
359 414 188 98 117 137 
336 685 412 170 116 88 
312 497 176 121 142 170 
421 266 235 124 106 86 
235 307 150 143 142 146 
208 986 296 182 156 139 
328 334 175 138 113 84 
225 333 240 128 83 21 
179 563 152 131 144 193 
275 591 189 86 118 160 
346 214 223 106 47 31 
284 685 238 197 140 49 
156 543 245 138 147 162 
266 151 162 130 58 5 
444 246 268 120 88 106 
375 428 190 126 136 151 
344 380 260 181 160 141 
222 823 274 139 98 80 
178 708 172 86 101 119 
161 731 289 143 108 65 
204 138 282 167 70 10 
268 491 318 121 133 149 
310 744 324 156 166 184 
176 672 130 162 154 175 
271 633 187 133 97 78 
212 827 340 174 148 126 
174 327 185 141 137 139 
193 644 166 79 103 146 
170 688 234 87 101 115 
208 882 238 75 59 43 
392 371 205 134 137 145 
322 375 260 136 138 146 
395 191 253 124 53 46 
226 313 235 144 145 153 
223 523 149 109 122 149 
241 163 280 90 28 29 
209 39 220 108 93 78 
167 701 225 90 95 102 
279 374 163 132 19 37 
157 378 222 45 94 131 
233 290 232 93 38 67 
212 34 218 113 94 75 
284 387 269 146 133 126 
207 302 245 146 125 103 
301 619 351 52 93 144 
315 441 165 75 103 154 
264 863 283 176 144 132 
324 335 252 179 153 125 
369 411 193 100 117 138 
270 622 179 127 100 77 
156 621 126 73 83 98 
337 689 402 151 109 85 
137 650 138 74 94 120 
279 780 298 96 71 59 
401 456 249 83 114 169 
208 584 161 116 122 139 
226 668 342 71 74 81 
268 210 266 109 58 81 
174 222 270 60 84 122 
315 691 274 140 160 184 
259 745 232 167 128 106 
167 690 238 94 103 115 
213 39 218 102 88 74 
190 783 343 162 12 48 
219 482 309 116 126 141 
204 730 348 119 137 161 
341 236 250 138 74 82 
205 583 296 78 107 143 
335 722 362 148 156 189 
354 258 244 81 123 157 
279 768 281 131 111 98 
274 818 319 123 99 71 
222 110 304 162 107 102 
169 385 166 92 115 143 
288 137 246 113 98 88 
282 137 265 120 111 101 
217 524 149 104 119 147 
316 166 249 51 75 100 
445 148 264 160 73 13 
412 423 223 102 130 165 
289 770 304 70 57 64 
261 494 321 107 124 150 
421 328 220 96 83 76 
241 520 331 90 103 130 
218 489 151 137 138 142 
318 327 249 107 125 146 
306 644 403 120 98 76 
230 831 270 153 110 86 
278 159 271 136 91 74 
224 421 277 135 141 152 
191 513 299 124 136 153 
211 45 219 102 89 76 
331 245 254 114 89 106 
210 66 256 83 72 63 
132 705 125 162 66 71 
244 394 264 76 101 124 
441 254 246 117 130 145 
209 44 220 102 88 75 
214 596 312 147 150 160 
260 202 268 33 62 125 
192 934 323 135 114 94 
202 468 269 116 122 132 
219 650 329 145 145 151 
352 264 246 82 123 156 
300 791 360 173 183 201 
211 663 325 85 114 138 
270 323 232 77 114 144 
312 380 263 159 70 10 
359 478 187 191 187 196 
165 199 271 125 80 62 
164 283 259 90 138 175 
303 309 239 91 53 69 
267 903 268 115 87 69 
255 754 237 107 136 164 
212 43 219 99 87 75 
176 650 263 78 76 87 
162 344 189 116 130 146 
310 517 184 185 189 206 
170 528 146 127 139 177 
233 544 324 205 190 182 
202 325 254 121 81 101 
347 201 243 72 101 127 
304 256 164 81 108 132 
369 349 199 141 95 89 
336 705 354 146 159 182 
360 261 207 82 94 111 
282 531 323 117 130 147 
303 625 353 25 74 148 
212 44 219 100 88 76 
257 135 192 129 94 76 
364 274 205 144 142 146 
235 659 344 56 83 105 
441 244 249 128 91 89 
431 364 247 147 144 149 
213 46 219 100 88 77 
306 573 259 148 105 106 
205 855 321 151 117 89 
185 598 250 97 120 150 
250 762 372 40 57 96 
200 880 241 80 62 47 
242 961 253 96 73 54 
290 389 162 162 137 112 
294 209 164 102 85 92 
281 14 311 65 56 48 
244 33 321 106 90 73 
249 875 336 175 126 113 
252 448 301 95 110 128 
313 599 279 68 66 69 
368 143 255 134 107 86 
324 666 330 35 69 125 
298 520 174 94 118 158 
315 766 373 127 141 192 
179 710 197 101 108 118 
273 509 170 152 162 187 
348 216 245 103 105 117 
273 34 293 124 112 105 
208 446 282 114 127 144 
408 201 268 115 55 70 
249 807 295 131 101 76 
158 810 235 227 165 128 
281 570 190 31 111 171 
372 502 205 163 173 193 
376 312 205 113 126 143 
188 604 253 88 118 152 
271 44 325 133 102 69 
155 495 228 92 108 127 
200 575 157 142 147 169 
245 30 293 108 97 89 
184 746 184 92 68 47 
316 262 253 168 163 166 
226 570 317 166 164 170 
210 658 210 101 103 111 
311 455 289 118 134 153 
178 853 295 179 136 103 
138 682 158 87 99 112 
246 836 327 152 120 84 
274 394 275 61 96 129 
196 661 126 131 157 183 
374 499 205 199 192 194 
218 39 218 93 80 68 
375 151 256 161 65 12 
286 180 165 71 80 95 
216 472 302 97 113 132 
243 981 261 164 133 100 
294 598 213 93 116 153 
285 150 217 131 62 41 
392 425 198 94 115 146 
212 758 208 172 125 87 
310 752 336 151 170 194 
282 718 363 55 107 143 
318 316 162 137 139 146 
444 296 236 95 125 152 
269 667 185 161 104 29 
315 687 272 138 157 180 
273 295 232 81 115 144 
388 350 208 156 104 37 
263 18 252 150 136 132 
193 897 318 163 116 91 
164 489 170 136 141 151 
280 716 408 116 128 148 
221 36 218 100 85 71 
181 154 262 77 61 42 
322 205 253 120 51 73 
346 513 190 171 179 203 
217 454 159 77 103 132 
221 39 218 97 84 71 
189 421 251 54 81 124 
211 429 256 94 113 139 
169 406 176 136 141 151 
249 46 329 121 102 82 
222 38 218 97 84 71 
195 666 145 143 44 77 
291 147 178 140 72 14 
388 419 198 143 150 164 
186 656 236 148 145 150 
279 687 338 78 98 129 
306 745 312 128 45 63 
427 140 257 133 104 84 
183 965 277 115 91 66 
262 288 232 143 132 130 
271 716 222 140 127 119 
176 444 244 89 111 143 
353 459 181 66 101 145 
415 201 250 122 61 34 
169 461 234 85 103 134 
305 602 242 66 118 154 
387 475 207 113 130 166 
181 308 263 119 138 160 
309 671 314 111 126 146 
242 334 151 130 15 48 
219 42 218 95 83 72 
314 701 432 161 119 105 
414 400 269 168 155 150 
216 45 219 99 88 77 
422 380 258 152 134 121 
244 66 308 86 74 62 
165 259 264 135 139 151 
380 425 193 83 104 134 
345 157 238 130 76 44 
202 643 291 83 122 153 
212 605 303 141 149 162 
238 958 318 102 89 80 
390 486 261 138 151 181 
203 455 257 148 147 153 
399 431 203 141 144 155 
445 277 260 130 143 161 
229 75 328 110 92 75 
407 195 269 147 50 84 
306 608 302 169 114 106 
295 262 155 80 107 133 
287 617 211 33 27 31 
199 577 159 100 116 155 
180 754 331 45 38 112 
250 877 335 186 139 123 
278 245 260 152 18 71 
207 330 251 135 73 94 
236 449 152 144 95 94 
288 13 302 101 81 62 
277 482 168 84 110 162 
270 141 201 120 76 48 
237 795 261 201 141 115 
222 41 218 94 82 71 
280 691 224 45 82 107 
346 231 247 146 108 80 
337 174 235 94 48 33 
341 294 184 99 109 121 
172 813 307 166 149 137 
220 433 156 123 107 94 
206 875 245 77 63 51 
182 779 337 121 96 65 
182 896 293 105 83 68 
318 662 326 107 124 151 
155 324 240 107 139 170 
159 311 206 82 73 67 
167 580 200 66 103 143 
260 154 158 116 83 62 
270 29 285 114 105 106 
252 918 247 77 63 51 
261 121 286 136 100 77 
249 766 244 195 146 115 
205 350 158 125 132 145 
184 901 245 85 67 51 
224 980 244 133 98 73 
223 47 218 95 84 73 
206 407 162 104 120 138 
349 309 187 116 25 38 
211 48 219 105 91 78 
325 450 174 120 127 151 
241 37 317 109 92 74 
293 445 294 158 154 155 
333 632 363 145 105 80 
294 355 163 140 15 48 
289 363 163 132 15 45 
288 204 162 115 69 51 
397 157 261 117 119 130 
179 905 255 75 60 49 
421 227 245 113 61 59 
215 671 162 243 155 167 
335 675 351 91 112 156 
200 508 147 104 132 185 
202 592 286 94 118 147 
127 622 115 124 132 143 
200 503 307 87 109 134 
446 244 262 140 33 74 
279 414 159 148 55 10 
270 685 340 45 77 107 
300 144 257 120 102 80 
104 654 100 191 185 189 
309 606 296 161 108 98 
150 725 222 91 81 72 
257 329 153 190 159 125 
224 571 156 147 156 177 
418 335 217 158 153 153 
432 207 257 140 84 62 
244 877 263 92 55 25 
238 903 243 67 57 46 
436 253 271 106 101 117 
410 411 272 113 137 163 
176 572 178 113 117 127 
238 52 307 99 83 68 
173 419 245 89 100 147 
248 780 260 192 155 128 
348 333 184 121 85 90 
228 365 259 129 134 145 
150 260 225 93 32 44 
300 622 260 168 160 159 
208 53 220 102 89 77 
161 452 186 95 108 125 
406 408 206 122 135 155 
363 538 262 201 200 209 
405 174 253 39 51 79 
176 496 145 95 118 158 
138 714 191 94 82 69 
225 363 256 140 140 146 
266 505 322 117 128 144 
251 709 353 91 104 119 
213 50 219 102 90 78 
344 709 379 146 154 170 
235 709 187 184 147 102 
155 271 214 118 47 45 
307 443 163 149 151 162 
419 160 276 63 81 98 
322 243 192 118 112 110 
384 226 224 80 37 40 
260 863 281 142 113 91 
285 141 232 142 88 68 
322 445 168 136 146 162 
245 837 323 129 95 81 
226 161 278 105 50 68 
345 196 230 45 57 75 
420 231 272 134 66 88 
304 699 255 64 48 58 
108 635 108 98 113 129 
356 405 270 168 83 12 
307 603 257 86 74 67 
193 488 281 167 156 150 
269 865 300 138 109 79 
200 439 253 104 118 134 
254 866 276 130 103 73 
212 486 308 86 105 130 
423 236 244 123 26 45 
396 176 254 85 65 85 
225 451 158 119 137 169 
247 839 302 100 84 67 
261 829 358 184 167 147 
239 953 324 102 87 75 
253 710 353 72 89 106 
215 55 218 102 90 79 
208 989 260 113 75 40 
189 946 317 138 114 96 
205 630 187 52 102 141 
281 269 155 87 89 102 
236 478 313 95 115 137 
225 367 259 100 115 137 
304 615 282 162 112 99 
418 405 225 115 135 160 
243 895 252 103 65 39 
158 294 209 126 77 12 
206 137 282 167 77 10 
150 683 150 33 51 67 
363 464 185 99 125 169 
313 198 208 85 53 40 
306 650 358 107 131 172 
185 582 171 80 111 140 
210 437 274 87 109 134 
172 374 251 95 116 161 
388 308 248 133 49 74 
308 640 401 122 101 80 
267 609 192 82 84 89 
219 662 189 56 107 145 
243 493 159 149 162 184 
209 60 217 103 91 80 
332 268 188 114 120 129 
315 295 164 93 106 121 
413 332 217 154 148 148 
239 762 227 196 144 108 
299 615 353 77 107 144 
226 528 323 162 165 173 
209 62 217 102 91 80 
167 427 185 89 104 122 
332 675 375 61 87 110 
210 61 217 101 89 78 
259 96 296 123 90 71 
211 61 217 101 89 77 
252 940 329 160 129 116 
222 333 151 149 146 149 
173 567 175 112 123 138 
273 524 325 93 113 145 
299 622 231 145 136 134 
271 629 337 62 94 135 
335 680 367 105 130 156 
165 373 244 96 114 146 
272 559 330 165 167 176 
179 580 178 136 141 153 
153 538 206 67 90 142 
430 261 269 127 108 112 
228 482 155 98 116 136 
163 568 225 126 141 161 
190 644 269 71 111 142 
156 272 211 120 49 48 
284 651 338 58 81 102 
274 686 205 131 115 97 
173 325 261 177 128 61 
175 779 187 184 143 107 
302 672 278 83 111 143 
132 768 235 108 94 81 
164 433 235 112 129 156 
130 696 173 98 25 32 
176 639 112 172 177 189 
213 61 217 99 87 76 
212 62 217 101 89 77 
212 63 217 100 87 75 
283 683 223 156 141 130 
321 590 306 157 112 96 
186 979 266 161 130 104 
181 492 252 93 110 128 
270 892 297 139 112 84 
192 160 282 47 82 122 
157 331 239 176 136 109 
177 383 175 50 79 101 
257 26 226 136 119 111 
175 914 277 69 56 46 
297 495 164 122 149 199 
281 162 166 58 62 71 
247 867 333 129 78 67 
201 673 322 102 41 58 
241 736 364 73 94 120 
124 733 190 150 113 64 
309 751 322 160 180 204 
164 501 245 72 97 120 
263 25 280 110 93 77 
158 755 289 136 100 65 
245 47 327 122 102 81 
161 779 178 210 149 111 
120 628 117 120 123 132 
336 713 357 131 146 179 
304 658 286 109 124 148 
198 480 288 125 129 139 
260 74 265 101 84 67 
191 663 224 51 67 85 
204 365 160 156 141 129 
207 474 151 102 119 139 
320 159 236 140 61 24 
222 956 320 110 87 70 
207 651 310 76 119 154 
373 477 295 174 172 178 
441 243 249 121 54 66 
412 285 259 163 164 172 
188 296 260 124 133 147 
181 344 176 85 116 143 
324 286 251 119 140 163 
240 493 159 82 105 137 
319 535 317 45 79 142 
292 359 163 133 26 47 
196 860 246 115 79 45 
175 857 287 180 135 105 
362 473 296 175 174 181 
323 192 252 130 67 63 
190 238 266 71 116 150 
233 912 235 53 47 41 
309 593 232 142 163 189 
254 22 317 58 54 51 
308 687 276 130 147 167 
256 21 219 153 136 128 
440 181 280 106 112 122 
296 710 427 128 142 184 
221 51 218 94 84 74 
268 46 288 107 88 66 
198 612 176 150 155 167 
331 342 179 148 70 70 
157 549 209 97 124 157 
345 180 243 153 118 93 
292 451 157 62 94 145 
278 723 370 84 105 129 
175 238 267 94 58 79 
349 551 282 107 128 180 
149 312 228 168 169 177 
339 711 363 178 186 203 
270 17 227 123 98 71 
203 277 247 140 136 138 
155 285 213 127 102 98 
168 574 232 138 151 168 
179 717 162 113 109 108 
296 174 171 110 83 69 
264 214 152 104 69 85 
390 321 252 128 48 51 
119 714 179 116 102 90 
298 289 239 131 96 100 
198 697 178 64 89 121 
179 153 268 81 52 26 
192 643 208 145 145 153 
288 683 338 71 101 138 
305 217 260 59 47 73 
166 422 186 71 98 130 
263 951 289 96 72 54 
294 648 208 131 107 82 
387 217 245 88 71 81 
330 393 175 103 103 118 
426 324 223 91 118 142 
241 67 309 100 85 73 
139 701 177 49 49 57 
385 472 289 160 167 180 
215 443 160 74 100 126 
199 813 247 212 145 110 
271 214 156 128 86 58 
218 57 217 100 89 79 
299 674 422 76 108 137 
243 110 261 97 81 67 
219 57 216 98 87 77 
326 699 425 184 129 106 
170 644 254 157 160 169 
334 691 343 167 168 179 
219 59 216 99 88 78 
216 60 217 101 88 75 
238 681 176 164 105 99 
255 500 157 155 174 210 
272 709 215 157 143 147 
286 484 164 108 132 174 
354 346 251 172 148 122 
293 698 426 98 112 156 
225 473 306 98 116 138 
200 615 166 42 84 123 
204 587 292 95 128 161 
