ply
format ascii 1.0
comment Created by CloudCompare v2.11.1 (Anoia)
comment Created 2/28/22 9:41 PM
obj_info Generated by CloudCompare!
element vertex 2000
property float x
property float y
property float z
property uchar red
property uchar green
property uchar blue
end_header
155 391 233 72 101 137 
316 334 164 117 117 121 
173 445 157 141 140 146 
258 138 153 92 88 87 
237 737 365 137 136 142 
195 473 146 76 114 153 
177 809 236 203 147 110 
300 636 255 65 97 122 
289 806 345 155 165 176 
150 317 243 159 158 166 
202 641 195 47 88 120 
153 406 214 74 98 128 
283 162 164 94 101 110 
298 187 267 91 78 89 
243 711 191 197 149 93 
278 756 268 157 145 137 
337 167 237 126 61 69 
234 281 157 85 114 140 
197 640 198 70 81 100 
194 946 257 134 100 75 
159 805 287 107 92 77 
152 525 246 169 163 164 
168 328 260 178 130 63 
193 346 261 95 122 152 
179 142 256 104 86 68 
352 522 306 78 105 157 
117 645 83 187 195 212 
275 929 292 132 111 91 
251 431 298 72 93 130 
301 781 338 173 131 128 
379 439 195 129 142 162 
225 379 257 61 102 134 
272 507 168 178 175 187 
390 504 246 148 166 200 
157 393 177 77 103 134 
179 353 261 128 85 126 
435 278 235 163 160 162 
414 354 207 152 155 164 
317 356 260 170 148 126 
374 338 190 124 62 59 
217 87 297 110 82 44 
181 582 257 141 151 169 
294 368 260 129 99 79 
205 801 237 196 143 110 
317 618 390 118 96 73 
223 126 262 117 105 96 
273 829 339 99 113 139 
387 268 228 121 111 112 
243 798 276 193 137 118 
317 450 289 71 105 145 
256 868 272 147 110 71 
180 233 200 115 59 69 
180 234 200 118 59 68 
138 745 256 158 144 134 
311 212 200 50 66 85 
155 401 177 60 93 132 
280 265 155 87 122 150 
202 962 303 101 76 60 
245 876 260 105 55 20 
168 285 263 165 173 188 
412 241 228 131 43 71 
115 715 147 177 137 77 
303 675 292 84 103 130 
203 325 250 134 82 101 
250 965 290 79 50 32 
390 354 253 128 101 114 
207 262 241 119 109 110 
186 224 197 93 80 86 
186 225 196 104 80 83 
294 757 307 111 27 43 
257 723 203 205 161 106 
419 424 253 107 132 165 
305 668 274 90 91 99 
142 787 261 189 173 163 
275 916 304 165 124 95 
186 227 197 103 59 66 
290 782 322 105 56 96 
205 83 330 148 141 139 
121 728 157 150 144 144 
331 457 175 104 123 158 
362 267 211 98 85 75 
148 474 192 145 147 156 
186 231 195 110 77 61 
160 526 174 89 107 144 
214 667 156 105 79 109 
261 139 195 94 80 69 
305 607 245 109 111 131 
208 422 162 142 131 128 
411 420 275 69 108 151 
268 867 295 138 107 76 
157 800 224 244 175 131 
219 613 155 98 92 91 
233 986 266 150 116 77 
191 683 217 83 91 102 
184 230 197 107 59 56 
184 231 197 112 74 67 
274 772 396 146 169 214 
264 92 259 112 95 77 
256 610 190 79 84 91 
210 515 316 202 191 188 
184 217 268 116 62 67 
186 228 196 110 67 63 
186 229 196 109 66 58 
253 823 320 137 99 75 
281 528 169 128 151 196 
156 458 225 105 118 142 
276 649 199 162 130 97 
188 225 195 97 74 77 
393 271 228 87 80 92 
288 524 168 135 159 204 
150 802 238 220 161 124 
207 584 304 164 163 171 
196 158 275 51 77 126 
149 797 269 178 135 108 
313 435 160 63 91 124 
350 355 179 143 102 101 
174 637 107 100 101 106 
200 654 158 51 81 132 
398 485 241 128 139 180 
212 613 307 81 110 139 
247 741 365 59 76 93 
173 354 191 68 81 95 
244 830 348 114 119 128 
244 595 329 101 130 161 
373 516 294 95 120 167 
235 460 306 37 73 125 
436 284 238 164 161 165 
310 367 165 167 145 124 
176 923 265 98 75 57 
271 919 281 90 69 55 
298 648 417 124 100 74 
259 880 265 153 112 78 
228 899 238 63 54 46 
226 635 333 86 110 142 
216 333 158 115 126 140 
290 787 326 127 75 47 
158 687 132 147 73 78 
305 675 439 151 107 85 
189 230 192 107 80 75 
387 497 286 97 126 175 
298 632 238 56 69 81 
160 502 164 128 136 153 
289 597 352 83 113 140 
214 977 242 155 119 89 
195 609 265 147 146 152 
151 464 198 150 149 155 
267 71 302 131 102 84 
185 187 270 148 36 70 
176 718 159 138 122 112 
105 669 132 53 89 137 
280 600 335 32 70 123 
292 712 432 116 145 199 
327 448 288 74 109 144 
231 159 260 88 47 43 
230 369 257 81 103 127 
176 559 269 157 167 183 
274 243 260 137 10 48 
195 476 276 60 87 114 
206 426 164 47 74 99 
390 374 260 170 149 128 
177 562 165 139 143 154 
188 649 156 78 92 136 
415 432 266 174 175 183 
193 937 247 167 134 101 
316 745 386 102 128 185 
204 900 227 79 57 40 
202 682 329 133 134 142 
174 314 188 117 114 116 
169 579 230 191 176 168 
190 462 142 106 124 149 
173 565 180 78 97 119 
154 407 207 51 81 121 
378 523 283 97 128 182 
185 235 196 118 81 65 
292 798 359 157 172 192 
298 639 320 116 132 152 
180 613 225 73 88 122 
300 780 371 148 147 189 
175 604 217 69 80 118 
183 889 248 78 60 46 
247 531 328 130 144 163 
177 695 306 67 105 136 
280 792 382 181 186 216 
136 738 246 99 92 88 
313 687 263 155 177 203 
309 585 357 112 97 83 
364 250 240 77 106 132 
255 803 302 177 149 123 
212 672 158 142 84 109 
187 238 192 115 82 77 
198 351 166 139 137 142 
434 316 241 134 143 159 
201 403 164 101 116 132 
217 783 231 191 137 103 
203 853 315 149 112 84 
379 524 278 197 197 206 
232 632 151 180 124 101 
148 783 188 204 134 106 
171 667 139 84 98 128 
144 685 160 76 88 100 
203 952 248 100 78 53 
319 621 358 134 95 76 
231 101 306 167 115 104 
384 519 267 187 196 215 
273 540 328 120 138 159 
273 28 288 151 138 134 
291 582 196 54 74 110 
281 430 298 110 122 139 
233 375 262 70 103 131 
323 652 358 52 96 150 
326 520 308 127 139 156 
274 147 200 89 77 66 
168 725 299 132 22 40 
291 385 271 134 119 106 
136 690 167 75 24 24 
217 479 307 114 125 140 
167 272 265 103 135 166 
164 613 230 129 147 172 
239 708 189 161 143 130 
303 139 232 156 96 36 
311 754 353 136 157 186 
200 669 145 75 69 90 
403 364 263 155 143 136 
257 713 198 140 123 109 
237 48 323 111 94 76 
233 123 272 111 91 74 
175 564 175 116 120 131 
355 547 282 126 156 197 
273 125 258 81 71 61 
336 559 216 141 161 193 
317 742 389 102 122 190 
162 518 155 74 105 144 
312 669 334 67 85 130 
351 399 267 157 92 34 
258 475 315 150 151 159 
337 155 230 136 77 57 
392 251 216 149 158 174 
327 147 228 132 74 39 
191 963 284 120 95 70 
203 461 265 57 86 118 
387 419 194 97 120 158 
247 335 151 144 118 88 
186 785 341 135 91 96 
307 506 317 164 167 176 
311 478 302 79 113 149 
264 133 281 125 99 68 
383 508 237 154 157 204 
216 724 185 116 98 97 
206 366 161 160 138 116 
181 242 197 125 73 66 
181 243 197 121 67 60 
215 506 317 133 140 153 
208 686 166 72 59 106 
411 155 243 110 114 120 
319 568 311 85 95 111 
425 350 235 138 145 157 
297 614 378 129 107 87 
341 551 260 201 207 223 
160 701 236 112 36 51 
315 707 280 113 145 174 
282 229 267 48 75 120 
165 792 300 129 120 116 
118 676 100 137 163 208 
163 585 203 98 99 129 
206 440 254 133 136 144 
294 651 219 156 119 53 
344 489 188 91 118 169 
271 278 236 113 100 88 
241 45 326 116 98 78 
247 818 313 140 125 115 
157 793 199 249 162 123 
253 612 170 107 101 98 
180 245 197 118 67 58 
328 424 163 116 102 121 
250 750 383 103 124 149 
196 539 305 167 168 176 
166 684 261 107 126 145 
180 245 198 120 68 59 
169 548 155 159 167 183 
169 641 104 178 180 196 
227 796 365 170 27 51 
147 491 211 88 105 129 
255 411 145 193 162 129 
156 773 287 116 96 75 
131 745 231 116 106 100 
368 198 226 134 41 68 
428 335 262 171 148 126 
133 680 101 227 233 248 
183 360 178 138 136 139 
156 204 258 121 39 25 
220 364 244 82 89 100 
172 291 195 114 115 121 
227 340 154 131 127 127 
198 519 145 138 148 171 
200 679 212 52 73 91 
202 940 323 91 73 62 
163 236 267 155 153 157 
170 416 151 114 129 147 
148 757 276 142 125 112 
312 359 164 153 131 105 
300 785 339 73 67 131 
196 164 271 45 69 113 
113 656 90 153 157 188 
195 617 193 130 133 142 
329 678 388 42 82 118 
296 545 180 125 138 157 
405 218 230 49 63 98 
328 280 249 153 152 157 
191 752 196 184 134 94 
148 673 141 28 50 75 
434 207 226 148 95 63 
194 961 290 99 73 55 
311 568 272 107 83 86 
172 673 246 69 105 135 
270 118 267 112 90 67 
417 327 259 173 153 135 
242 655 152 100 128 153 
205 214 250 138 22 33 
136 746 240 119 106 94 
176 250 199 117 89 59 
289 649 207 162 146 138 
405 470 245 137 146 176 
167 486 159 114 116 123 
267 880 303 169 127 102 
260 883 324 148 109 89 
161 796 213 252 180 138 
220 678 171 166 129 74 
172 458 241 79 100 138 
337 519 197 201 195 199 
305 321 239 139 139 144 
158 420 235 85 107 145 
179 881 260 85 66 55 
138 619 112 116 128 144 
178 251 198 110 96 81 
277 647 336 84 105 146 
184 192 270 155 57 74 
270 550 175 100 127 183 
322 735 387 55 96 182 
222 604 325 80 128 164 
262 488 320 146 153 166 
291 586 201 53 69 94 
236 901 240 68 58 48 
304 595 259 152 139 132 
284 371 151 143 31 58 
263 98 259 103 87 71 
162 679 117 132 157 185 
313 438 159 107 119 139 
388 391 184 87 120 152 
188 700 161 139 115 105 
262 934 264 87 69 56 
229 988 274 124 86 57 
259 24 252 148 133 130 
241 524 158 107 122 149 
178 254 197 96 93 96 
163 796 210 251 175 133 
222 952 320 126 104 88 
292 581 198 89 103 123 
312 621 334 125 143 169 
351 273 248 83 121 152 
293 644 379 81 99 137 
144 739 149 133 110 100 
224 653 139 96 132 164 
223 390 259 58 93 134 
152 488 181 130 143 165 
381 288 211 98 87 92 
213 682 167 159 118 117 
206 870 249 72 57 41 
226 592 331 76 123 159 
313 574 276 143 102 95 
355 486 194 128 148 174 
227 202 243 112 38 35 
194 299 176 120 122 128 
176 928 275 90 68 52 
408 273 212 144 148 157 
179 265 195 64 97 123 
399 464 282 115 133 161 
266 769 269 210 184 165 
408 383 273 145 128 112 
213 948 321 107 87 71 
194 442 157 108 114 124 
305 347 249 158 135 112 
260 956 291 116 95 76 
233 910 234 51 44 40 
139 631 129 54 90 119 
254 867 272 142 107 68 
180 709 188 104 111 121 
114 713 148 220 178 126 
253 218 251 138 23 22 
157 805 281 186 144 114 
421 152 239 138 127 129 
182 253 194 100 104 112 
309 481 160 78 106 182 
297 410 284 93 94 115 
304 565 204 120 123 162 
180 430 148 112 130 150 
183 255 193 98 99 105 
154 364 182 91 117 151 
355 395 265 177 152 126 
183 254 194 95 99 105 
408 202 232 116 43 66 
175 779 194 195 149 112 
275 40 304 104 82 61 
273 903 319 173 132 103 
242 100 300 154 118 98 
311 201 208 56 50 52 
170 423 161 122 132 147 
254 765 394 91 121 183 
158 800 222 247 177 134 
243 682 349 90 101 120 
295 323 162 130 38 53 
328 311 250 117 134 155 
185 682 298 127 129 136 
186 234 267 116 78 104 
301 649 363 112 134 172 
137 782 220 190 134 103 
244 53 328 163 151 144 
184 240 195 122 73 67 
392 382 264 158 70 10 
114 648 86 157 170 217 
266 727 360 48 67 91 
295 345 160 159 136 113 
155 521 250 139 141 148 
197 442 158 114 121 131 
154 510 183 130 130 136 
290 620 337 59 84 141 
136 710 127 198 147 126 
281 156 201 80 64 50 
188 314 262 126 13 53 
184 731 335 132 130 135 
321 242 190 115 105 97 
310 217 261 106 65 94 
189 690 164 99 114 132 
258 131 163 124 114 107 
248 864 331 141 92 82 
145 711 133 68 62 70 
279 704 245 184 47 20 
289 642 387 117 96 81 
298 609 231 129 129 136 
177 263 197 73 101 127 
271 69 281 103 84 65 
437 325 253 166 164 168 
172 602 216 55 89 135 
176 741 167 147 127 128 
191 464 142 102 122 148 
271 863 277 159 130 100 
352 525 208 137 151 172 
185 247 193 93 88 99 
268 755 406 152 159 200 
179 868 260 122 90 68 
246 442 301 114 126 142 
252 918 338 185 137 109 
300 709 258 87 72 99 
159 370 243 91 109 148 
301 619 261 153 144 143 
188 665 129 136 148 165 
190 376 173 106 119 134 
374 178 216 125 50 24 
176 909 276 68 55 45 
309 550 199 44 68 142 
315 697 426 181 125 102 
302 756 320 123 32 54 
432 344 248 123 139 159 
185 248 193 90 87 95 
259 4 564 120 120 120 
163 498 245 67 93 116 
221 666 173 57 91 117 
365 201 229 132 48 67 
233 834 272 146 107 80 
226 404 279 88 109 134 
187 491 279 80 100 119 
253 43 330 114 96 88 
287 681 434 65 97 143 
231 804 365 155 173 193 
184 250 194 98 97 103 
186 248 192 91 88 97 
311 747 328 157 173 195 
294 511 320 94 116 139 
187 615 216 90 102 117 
253 368 148 157 137 116 
308 750 395 192 192 201 
154 400 211 55 83 125 
308 455 295 101 123 147 
231 71 320 144 127 114 
219 733 193 195 169 146 
184 254 193 106 107 113 
223 962 308 164 134 103 
184 255 193 103 103 108 
187 942 264 145 110 90 
172 497 253 45 79 107 
153 404 222 122 129 141 
333 391 265 161 85 14 
311 586 230 117 152 198 
376 406 182 93 120 153 
202 320 251 115 80 99 
180 919 303 68 54 45 
128 663 138 85 95 109 
267 141 211 98 80 65 
269 879 286 130 103 73 
199 636 168 80 109 146 
402 373 191 151 150 155 
204 159 159 144 125 109 
383 499 226 202 200 208 
213 677 171 118 115 137 
291 272 252 147 137 129 
142 731 223 81 80 82 
263 138 282 116 97 76 
275 905 297 148 116 86 
182 802 330 169 142 119 
303 670 437 123 95 74 
264 14 251 101 80 68 
185 663 229 56 81 102 
372 181 215 104 41 48 
248 276 227 149 148 154 
359 147 220 166 75 37 
306 391 164 160 132 99 
355 203 239 127 73 77 
406 464 266 139 152 175 
196 588 279 143 148 161 
381 287 235 96 119 142 
265 936 317 143 112 95 
268 56 282 93 77 59 
317 600 340 143 99 82 
321 475 169 104 120 153 
230 662 343 68 99 125 
309 161 248 129 66 5 
322 150 236 122 78 59 
213 847 256 136 105 73 
219 989 269 118 98 79 
307 604 290 118 65 78 
292 681 391 68 95 139 
408 449 272 155 164 180 
310 182 222 124 53 18 
188 623 251 140 141 148 
159 633 110 98 87 78 
157 551 203 87 113 149 
424 146 270 164 77 11 
292 511 318 98 115 134 
402 465 233 163 172 189 
279 370 261 102 92 84 
187 514 295 112 117 128 
306 403 161 135 59 5 
213 991 286 147 117 88 
346 174 233 128 86 75 
245 318 225 149 149 155 
262 272 233 119 84 96 
376 316 243 172 152 131 
369 401 265 158 74 13 
359 514 303 155 168 187 
228 834 256 146 115 83 
307 675 325 121 136 156 
215 885 235 63 52 40 
142 791 258 181 138 109 
218 656 203 84 32 54 
223 825 347 176 140 113 
199 890 322 161 119 92 
265 125 281 126 98 67 
205 444 255 68 95 129 
417 390 229 118 131 157 
193 343 170 144 141 142 
310 727 314 148 168 193 
286 168 269 133 59 52 
283 635 207 45 36 42 
209 652 168 132 139 153 
337 564 235 197 206 223 
281 408 286 131 136 147 
160 525 164 87 109 144 
431 250 243 145 142 144 
254 583 179 103 130 172 
213 155 156 162 138 117 
212 154 158 165 140 118 
149 532 201 74 94 142 
167 686 243 111 116 125 
249 763 245 196 149 117 
274 143 276 114 102 94 
210 815 349 127 117 118 
221 297 231 103 122 142 
183 603 203 132 127 129 
308 648 246 78 91 105 
166 472 235 113 120 132 
317 539 314 59 84 137 
309 725 311 112 136 160 
185 445 250 56 85 126 
179 731 333 129 133 142 
202 918 233 84 70 60 
159 778 293 115 93 76 
154 5 550 134 128 124 
428 347 239 118 133 151 
279 527 171 54 72 137 
346 534 208 123 153 186 
261 810 314 147 120 90 
257 931 331 199 146 129 
183 892 295 130 100 80 
403 166 231 51 86 113 
219 649 333 142 141 145 
177 759 181 158 120 85 
155 755 160 140 109 91 
187 877 303 153 117 91 
141 705 127 223 171 178 
182 617 131 46 66 84 
222 550 153 157 163 184 
209 449 286 83 104 132 
151 269 257 100 39 64 
239 769 235 201 146 115 
242 742 213 196 156 120 
444 216 236 107 110 118 
210 654 166 90 101 143 
222 644 141 62 79 94 
236 823 357 176 133 69 
195 648 162 106 120 147 
282 668 422 108 126 147 
179 819 314 176 138 117 
169 720 299 145 20 32 
325 243 195 121 115 112 
152 724 204 82 29 30 
231 824 298 65 42 42 
346 434 174 93 113 160 
152 472 220 120 129 143 
319 495 177 126 145 168 
158 485 232 146 144 148 
249 573 173 105 132 172 
274 144 168 113 70 37 
202 574 156 126 138 171 
384 190 215 85 53 75 
204 602 286 115 131 152 
166 710 211 90 86 91 
227 461 159 130 142 167 
218 150 159 150 130 110 
258 697 188 138 120 111 
233 895 339 143 112 86 
189 437 251 86 105 127 
252 582 179 103 129 174 
179 679 228 95 99 107 
130 712 127 220 64 72 
212 614 150 96 92 92 
162 740 294 120 41 60 
227 851 330 153 116 89 
433 220 223 101 99 111 
239 815 291 149 120 91 
155 685 152 49 62 81 
242 944 328 100 81 66 
201 738 350 75 104 156 
260 747 403 160 171 189 
417 300 248 135 142 154 
280 147 178 102 72 48 
334 385 169 108 88 83 
274 907 314 167 127 97 
424 222 219 120 73 76 
221 150 153 140 122 107 
217 935 331 103 81 66 
220 150 154 146 130 116 
224 427 289 96 115 138 
258 848 300 142 114 84 
236 838 266 156 124 92 
221 151 154 131 114 101 
204 537 153 136 136 144 
380 496 293 96 121 163 
321 360 261 178 152 127 
303 609 284 114 79 73 
152 685 122 175 66 58 
170 585 225 117 132 150 
238 596 176 90 87 85 
280 214 270 113 36 56 
295 768 317 158 114 111 
167 486 160 107 110 117 
164 480 168 83 93 107 
163 718 152 145 121 97 
206 960 311 108 88 74 
290 765 307 60 37 32 
393 498 247 140 158 199 
221 148 157 151 133 115 
221 149 156 150 131 112 
293 776 324 115 33 54 
408 362 196 148 150 159 
220 149 158 135 119 105 
148 329 202 130 139 153 
170 636 254 133 139 151 
204 925 235 82 62 46 
197 446 252 137 136 142 
247 870 266 116 90 54 
325 163 231 120 30 18 
317 661 381 96 69 61 
217 153 155 149 129 113 
194 375 169 136 122 112 
162 699 273 127 134 144 
197 894 235 63 53 45 
286 559 331 50 82 134 
211 647 316 71 113 148 
325 389 162 151 73 0 
245 50 316 118 103 91 
161 546 189 139 135 137 
120 636 93 66 65 67 
271 174 150 53 76 96 
408 338 197 170 141 113 
202 640 288 77 119 153 
312 147 232 119 67 10 
149 522 196 84 101 130 
273 935 300 115 91 73 
156 720 214 62 34 31 
200 574 295 153 161 176 
148 636 137 36 81 128 
137 690 167 69 24 25 
260 412 289 133 136 144 
298 637 320 60 86 130 
282 669 411 79 101 143 
397 166 222 46 57 91 
288 660 396 89 98 139 
312 225 193 74 67 67 
232 280 158 82 109 135 
220 605 175 82 85 89 
252 178 269 79 37 55 
216 159 154 138 117 100 
246 94 261 93 76 55 
220 666 205 85 87 93 
209 912 331 119 97 79 
173 654 142 12 49 107 
246 827 354 165 21 71 
204 422 165 42 71 96 
252 508 162 165 175 201 
218 158 153 128 107 88 
194 619 153 81 94 132 
168 327 194 119 115 115 
174 466 139 129 146 183 
152 788 192 224 147 115 
407 454 236 120 139 161 
310 677 303 138 146 170 
285 13 306 91 76 62 
184 878 250 99 77 64 
217 446 293 89 107 131 
154 789 191 235 153 117 
168 751 167 200 175 154 
326 272 250 174 169 171 
220 155 154 144 125 109 
150 477 200 128 136 149 
286 147 267 126 112 100 
314 495 312 151 159 173 
197 914 326 77 60 48 
183 224 268 118 62 92 
157 403 236 110 120 145 
188 620 220 116 117 124 
225 653 337 134 133 138 
220 156 153 140 118 98 
240 565 166 198 187 185 
345 432 278 152 143 139 
391 493 234 201 198 205 
324 561 305 60 74 92 
177 645 263 73 51 56 
343 557 270 216 214 221 
393 498 271 190 190 197 
416 329 207 159 154 156 
211 217 245 143 41 32 
151 381 194 78 107 135 
139 647 135 76 103 128 
308 502 316 78 105 137 
262 310 224 73 118 152 
169 685 274 100 121 143 
418 298 212 90 122 151 
276 37 322 153 138 129 
321 475 302 126 142 162 
276 699 224 87 78 70 
345 554 224 178 189 215 
185 579 269 176 171 174 
203 159 163 140 119 103 
258 509 162 194 191 202 
204 638 294 73 123 161 
299 160 255 128 67 6 
184 302 262 164 122 50 
233 229 238 131 24 41 
311 298 164 147 149 156 
365 531 241 112 126 170 
186 170 275 50 64 91 
242 14 258 86 75 67 
261 143 282 121 107 98 
268 17 315 48 44 40 
440 254 239 139 140 149 
135 742 230 78 72 72 
176 663 112 173 181 210 
201 666 146 85 95 112 
201 907 229 71 56 47 
329 541 201 97 116 173 
177 898 274 63 49 41 
284 201 153 126 39 57 
284 679 237 83 86 91 
341 557 289 135 159 187 
299 134 238 129 114 102 
186 421 165 48 77 100 
204 886 326 164 120 96 
274 871 280 116 94 75 
283 165 160 81 62 58 
177 656 111 86 111 136 
308 564 263 108 126 149 
355 510 303 104 132 171 
155 417 202 107 121 141 
188 952 288 100 60 33 
167 732 299 105 23 31 
148 661 133 46 72 108 
273 480 316 147 148 155 
247 333 229 145 143 147 
427 295 225 123 138 156 
269 724 234 131 111 89 
205 157 167 123 102 85 
368 361 181 96 112 129 
162 701 145 191 170 152 
161 751 294 128 106 81 
324 671 386 61 90 117 
209 569 313 172 169 175 
299 624 397 113 95 76 
294 795 335 82 107 147 
290 325 159 119 21 43 
178 617 146 61 110 147 
206 157 165 135 114 96 
272 707 396 84 102 121 
270 648 334 73 94 118 
164 697 231 94 101 111 
308 669 299 78 112 154 
358 417 271 145 132 127 
291 635 394 135 110 88 
255 896 253 115 80 44 
236 668 164 166 104 133 
225 788 241 197 137 111 
387 239 223 125 55 76 
305 722 270 142 57 69 
251 813 368 204 30 64 
331 539 310 142 159 181 
203 159 168 112 94 78 
180 505 277 126 132 144 
188 486 262 144 140 139 
352 313 188 105 34 39 
303 332 241 106 120 137 
271 107 272 112 91 68 
254 19 311 58 53 49 
178 784 206 194 142 105 
331 151 233 134 74 25 
180 578 176 113 124 139 
173 600 214 61 95 160 
162 388 166 127 143 168 
263 21 320 63 60 58 
298 610 379 122 102 84 
147 484 186 113 124 143 
284 173 272 142 39 42 
231 931 237 70 49 33 
243 418 289 72 99 126 
340 229 212 112 27 36 
207 646 308 80 123 157 
153 439 216 99 114 138 
294 796 351 75 76 142 
278 420 151 160 65 1 
212 978 243 185 137 95 
209 208 249 61 32 35 
206 155 174 100 86 73 
153 438 211 101 120 145 
151 709 245 88 22 34 
205 85 320 155 139 127 
169 701 291 138 149 165 
389 303 208 122 132 146 
345 181 236 117 88 78 
215 779 359 177 13 46 
229 587 166 153 150 155 
229 739 206 195 144 107 
287 680 402 94 110 129 
231 510 154 96 118 154 
198 508 147 93 117 150 
149 455 183 80 105 137 
305 475 157 87 118 176 
206 157 168 119 99 81 
335 248 252 101 112 133 
207 156 168 121 100 82 
136 768 252 134 125 121 
255 598 336 144 149 161 
263 689 196 106 76 42 
209 965 243 111 84 52 
366 360 254 142 32 72 
215 332 241 152 113 71 
315 625 397 120 97 72 
205 156 172 97 78 62 
351 469 185 119 137 174 
205 157 172 96 77 62 
251 632 172 108 81 67 
163 259 207 97 97 104 
218 418 259 62 90 127 
160 694 245 101 114 129 
272 831 342 160 120 132 
238 955 319 103 88 77 
168 753 167 169 149 133 
125 640 88 99 100 106 
317 607 345 138 95 77 
132 694 111 132 160 193 
206 156 172 98 79 63 
350 469 291 89 122 157 
132 762 186 125 103 93 
237 371 257 103 116 134 
438 317 249 148 155 168 
135 727 213 68 67 67 
194 619 135 104 91 79 
315 149 239 117 88 72 
348 507 303 81 113 155 
361 533 243 155 170 217 
199 159 184 66 57 50 
199 159 185 62 54 49 
267 153 280 167 66 5 
235 380 266 55 92 122 
321 326 166 96 115 135 
289 160 183 98 59 11 
359 255 212 83 104 133 
226 885 338 196 151 125 
132 717 200 37 37 61 
151 397 189 61 93 131 
281 394 151 170 142 112 
164 605 224 149 158 172 
291 176 268 95 47 48 
174 583 241 109 128 152 
266 724 412 121 129 157 
353 410 175 72 105 139 
222 887 337 192 148 121 
310 217 262 105 64 92 
258 237 248 129 5 53 
182 66 263 99 78 51 
251 740 361 37 56 94 
240 123 284 146 110 82 
256 663 171 142 149 171 
161 562 206 153 150 155 
428 154 256 137 80 39 
352 496 197 132 144 174 
308 768 368 139 147 186 
381 453 205 111 131 161 
141 649 134 77 97 118 
301 755 320 125 33 54 
194 384 255 88 113 149 
263 761 261 191 167 148 
416 426 268 125 140 165 
276 710 354 102 122 151 
178 725 163 120 95 69 
192 954 307 113 91 77 
226 585 162 132 148 170 
265 200 146 122 54 52 
234 136 274 124 110 98 
378 506 292 116 133 176 
143 788 208 212 147 119 
255 732 357 56 78 116 
389 404 271 133 124 120 
238 973 291 111 81 60 
240 288 224 76 111 145 
366 262 239 79 91 107 
161 433 168 125 135 161 
186 628 155 68 102 134 
311 357 164 120 35 47 
331 205 253 106 94 104 
207 149 190 89 66 49 
329 682 400 83 114 146 
188 811 243 205 147 110 
308 701 296 129 160 190 
404 453 279 138 147 164 
273 39 323 160 145 136 
160 648 140 43 36 92 
214 379 249 34 63 88 
227 323 230 119 132 149 
216 577 157 134 151 185 
161 627 119 95 86 78 
281 156 165 109 64 6 
316 619 352 121 89 71 
298 636 326 96 109 137 
203 157 179 75 59 42 
293 178 267 95 49 46 
160 520 163 89 108 142 
393 491 281 152 159 173 
231 570 163 143 146 160 
359 392 263 174 149 124 
178 6 555 121 117 113 
183 897 301 158 121 99 
277 284 236 112 121 134 
265 679 186 187 87 44 
268 879 297 166 124 97 
176 927 286 64 52 44 
306 589 360 111 96 83 
319 729 406 122 140 191 
205 130 275 111 97 88 
420 340 222 170 166 170 
188 946 315 126 105 90 
288 581 193 92 140 179 
149 291 249 91 111 134 
108 680 114 142 163 197 
234 323 154 110 117 128 
305 610 322 126 122 124 
196 71 265 102 77 60 
320 666 423 139 102 73 
305 219 181 69 67 68 
415 377 222 154 154 163 
206 616 143 106 96 87 
209 594 309 162 163 171 
137 625 105 87 102 119 
203 157 182 72 60 50 
285 697 247 186 77 19 
387 359 184 139 80 79 
114 708 163 140 106 57 
157 723 279 130 47 26 
339 416 171 76 101 135 
246 614 328 102 113 128 
198 646 166 122 139 162 
167 686 149 91 98 111 
207 154 177 90 82 76 
276 701 395 22 54 85 
186 879 249 89 67 52 
206 154 179 83 72 64 
197 958 308 128 105 89 
305 565 320 57 77 102 
361 277 206 147 144 147 
371 377 256 178 154 132 
325 438 161 75 105 140 
295 659 233 176 111 56 
227 369 253 84 102 127 
397 371 263 172 149 125 
219 989 253 130 100 72 
270 93 276 109 88 65 
238 543 159 119 136 159 
321 482 304 165 161 163 
316 709 339 73 100 155 
189 620 151 86 101 126 
232 712 357 106 114 127 
300 622 258 139 122 115 
288 302 232 72 112 145 
415 294 243 91 114 137 
238 974 251 148 116 88 
207 153 183 89 83 80 
175 412 155 128 134 145 
341 501 301 124 147 175 
271 59 295 107 86 62 
312 750 387 118 142 192 
164 506 253 132 132 137 
123 633 97 47 67 85 
171 675 111 180 200 225 
182 575 171 81 105 130 
286 362 151 132 73 62 
280 515 176 52 81 149 
205 156 177 89 77 69 
254 281 154 152 152 157 
188 927 324 131 109 87 
183 898 249 81 61 45 
178 861 261 151 114 86 
243 887 333 108 72 69 
154 343 233 118 130 147 
161 498 243 73 96 119 
185 945 308 100 81 68 
258 664 341 82 98 118 
316 257 168 81 104 126 
187 539 292 151 151 159 
289 697 366 71 114 152 
254 897 335 136 106 77 
199 427 166 64 82 101 
409 368 199 144 143 151 
334 691 394 120 142 166 
291 338 158 150 128 105 
141 669 98 116 140 203 
151 778 180 217 149 111 
202 155 187 83 74 66 
231 282 158 81 108 135 
248 960 308 125 98 71 
243 619 156 133 107 79 
242 795 375 132 144 161 
396 446 218 173 171 178 
208 888 232 66 54 43 
261 172 278 120 49 66 
224 606 329 112 81 102 
125 750 185 141 96 64 
219 664 337 157 155 160 
244 714 192 173 155 143 
193 639 203 129 132 140 
301 780 349 142 165 191 
437 201 230 120 54 54 
191 410 254 72 102 134 
187 419 252 54 82 125 
258 385 146 130 35 57 
416 345 210 108 127 149 
204 460 285 96 112 133 
360 394 177 86 107 138 
287 596 337 84 76 75 
307 564 206 138 169 208 
288 478 157 106 135 193 
196 327 258 106 95 111 
247 798 282 118 131 147 
184 725 166 140 115 90 
295 795 353 127 138 179 
247 225 152 38 69 104 
212 125 265 91 76 65 
327 672 402 149 104 80 
135 677 152 76 91 105 
213 434 262 113 121 135 
338 362 257 180 157 136 
188 983 266 173 137 96 
221 985 297 197 168 142 
201 156 186 78 71 65 
388 165 225 93 58 58 
295 553 328 90 120 152 
195 606 156 48 81 143 
311 698 331 49 73 92 
288 562 329 50 79 135 
198 232 257 128 23 65 
166 591 209 80 109 161 
260 227 254 88 39 38 
147 767 170 225 159 114 
161 568 220 167 163 166 
172 461 240 96 111 137 
283 628 203 174 121 111 
117 704 124 150 38 54 
163 725 290 80 64 105 
317 582 351 126 106 87 
261 424 296 97 113 132 
246 720 358 45 74 105 
178 436 248 106 124 145 
262 112 288 130 95 79 
353 148 219 163 76 48 
364 343 183 118 126 137 
400 471 277 101 122 167 
220 719 356 132 135 144 
336 486 183 136 152 197 
329 654 400 141 101 68 
150 342 216 123 132 156 
205 154 184 86 80 77 
394 493 274 148 163 187 
294 732 262 160 119 93 
271 782 299 165 149 137 
307 568 207 118 152 211 
353 412 269 146 121 98 
195 737 178 116 115 118 
235 946 244 146 114 78 
362 137 218 130 88 60 
316 734 346 123 140 168 
204 152 188 84 68 53 
258 603 189 65 70 76 
429 260 244 136 137 145 
268 872 291 139 105 77 
263 667 176 188 103 103 
223 846 257 135 103 73 
340 328 253 143 12 60 
204 458 261 73 98 131 
213 694 171 128 118 114 
216 807 252 185 127 95 
180 900 310 169 97 80 
203 680 330 149 146 151 
204 686 171 35 78 123 
394 386 267 156 78 12 
259 856 280 137 110 90 
272 24 327 79 69 59 
256 761 396 111 126 184 
262 953 288 109 92 82 
272 384 148 145 103 66 
249 528 328 147 157 172 
219 356 242 134 99 57 
165 555 172 128 127 132 
308 257 256 166 160 162 
195 737 344 135 138 148 
199 63 262 90 72 49 
424 153 268 170 75 11 
179 577 178 142 143 150 
407 401 275 131 108 94 
249 845 282 103 85 66 
403 361 262 171 149 129 
176 897 265 78 65 52 
164 245 267 173 168 172 
212 288 168 82 106 131 
385 185 216 107 55 51 
212 508 149 172 166 168 
338 199 248 75 93 112 
161 676 126 104 57 82 
292 551 180 139 153 201 
307 666 298 97 120 151 
174 790 210 198 142 109 
137 728 213 66 62 60 
163 701 145 208 179 150 
421 253 216 148 72 8 
268 780 289 189 157 127 
223 141 169 95 70 41 
309 746 399 195 194 207 
191 271 185 127 102 85 
206 652 313 82 125 159 
225 550 154 134 145 167 
293 18 303 120 95 75 
267 183 148 56 49 62 
182 898 297 138 108 89 
210 990 281 148 121 95 
444 216 240 123 117 116 
206 982 246 147 113 89 
179 856 293 173 132 99 
438 199 245 124 100 123 
124 751 197 170 139 110 
273 203 272 128 56 53 
221 564 325 159 153 159 
365 144 219 153 77 11 
342 516 305 168 175 189 
291 322 159 122 16 40 
306 229 163 112 97 87 
344 271 194 128 126 129 
332 301 249 99 126 152 
256 117 289 149 102 86 
279 346 152 193 163 131 
324 611 358 146 107 81 
351 341 253 170 146 123 
329 560 210 149 160 195 
428 337 262 178 155 132 
221 142 173 89 60 18 
221 143 172 100 74 46 
202 881 237 73 59 46 
211 423 254 103 111 125 
263 291 151 168 148 131 
217 631 138 159 114 78 
330 219 212 27 56 94 
349 156 225 145 75 40 
315 134 234 119 93 72 
169 577 234 143 153 168 
145 720 264 134 104 81 
210 288 237 77 106 133 
223 129 178 106 82 58 
214 666 330 154 150 152 
170 414 246 109 132 159 
303 143 244 104 88 75 
324 601 356 144 107 80 
114 710 166 120 95 60 
150 801 231 221 161 128 
299 558 326 63 103 137 
210 814 251 165 119 86 
260 458 150 180 140 148 
193 901 317 153 112 87 
232 73 304 90 74 57 
223 130 182 102 74 42 
340 408 272 157 79 28 
180 70 264 124 93 58 
272 535 172 74 101 181 
341 192 243 92 106 124 
342 190 242 96 104 117 
160 821 263 206 153 124 
174 611 130 110 130 150 
243 503 162 104 127 171 
196 469 255 125 131 143 
223 133 176 99 70 37 
320 616 383 121 97 70 
181 607 215 83 96 114 
279 175 275 144 28 39 
201 636 193 54 96 127 
302 719 427 100 125 198 
224 968 299 100 71 44 
223 132 179 98 69 33 
368 324 193 112 115 121 
304 358 164 97 104 123 
311 273 163 107 42 48 
305 446 155 109 125 156 
275 563 332 103 142 175 
206 433 254 77 99 126 
300 774 328 70 99 142 
252 436 148 138 117 100 
131 739 212 124 115 110 
222 135 178 97 64 19 
280 424 151 162 79 4 
193 261 185 112 102 95 
310 666 333 46 72 132 
257 518 164 166 167 189 
189 450 146 83 113 139 
281 316 228 95 123 147 
169 289 263 87 133 172 
260 875 321 161 114 95 
289 777 389 125 139 200 
229 670 187 84 75 70 
252 599 333 140 150 167 
234 570 165 199 188 187 
280 675 419 49 89 139 
317 232 257 128 97 90 
296 246 158 130 23 52 
246 659 150 106 149 188 
340 284 187 84 102 120 
167 298 199 121 75 30 
222 135 183 97 67 25 
239 726 361 107 112 122 
286 391 275 133 117 100 
264 307 224 77 121 155 
234 784 372 162 172 187 
301 201 171 66 70 78 
241 561 332 105 53 78 
217 321 160 141 139 143 
209 786 356 166 23 44 
141 297 228 66 115 157 
196 710 169 204 186 185 
223 134 186 101 74 45 
289 426 294 157 151 152 
323 258 253 114 71 79 
288 627 217 73 46 63 
305 648 257 84 124 155 
256 935 328 179 140 126 
179 565 164 119 128 143 
198 610 270 149 147 153 
199 365 257 104 119 150 
219 141 178 92 65 28 
219 141 179 93 68 38 
203 679 157 156 111 108 
230 367 151 131 132 137 
241 570 168 166 165 175 
384 262 227 93 79 88 
198 904 228 71 60 53 
151 720 226 70 49 34 
301 741 279 207 51 133 
183 72 265 138 98 77 
158 440 229 151 154 165 
186 971 267 156 124 94 
217 143 182 101 94 87 
305 644 294 135 145 160 
373 523 242 167 186 213 
256 597 186 105 118 135 
408 177 224 54 52 56 
258 734 383 46 82 112 
328 721 398 132 143 183 
343 223 215 76 45 51 
232 386 270 89 111 131 
268 34 289 119 109 103 
268 763 401 152 177 211 
365 446 186 83 115 165 
226 744 365 100 113 137 
231 161 258 105 57 54 
328 148 225 123 61 8 
171 709 204 109 121 135 
375 393 263 163 79 11 
230 922 232 61 50 43 
244 625 329 64 75 89 
197 971 291 145 117 89 
281 163 273 123 101 100 
210 692 169 145 124 111 
250 835 333 173 142 118 
177 528 280 95 109 133 
344 260 199 75 56 64 
305 349 165 102 76 85 
276 199 272 115 53 51 
170 467 146 146 153 167 
191 673 221 83 87 94 
359 240 215 99 60 64 
422 177 230 61 51 69 
220 138 177 95 67 28 
392 371 185 165 158 159 
184 621 130 98 89 82 
286 509 164 138 151 203 
157 351 242 132 132 139 
255 228 249 83 36 30 
384 349 186 130 95 80 
172 677 134 123 92 102 
309 588 359 111 95 81 
168 188 273 134 48 63 
269 86 269 88 74 61 
379 309 241 133 28 65 
200 824 332 155 132 114 
348 168 224 64 56 71 
439 260 234 110 128 148 
221 136 180 95 65 22 
245 980 272 117 88 66 
198 824 330 150 124 106 
165 403 161 111 121 150 
300 543 327 76 107 160 
268 737 251 163 136 107 
281 687 408 53 86 122 
302 654 326 118 139 162 
177 706 172 89 104 119 
220 138 180 94 62 11 
329 143 236 115 102 91 
295 637 373 84 98 139 
387 439 205 167 167 174 
191 597 174 89 118 146 
261 440 304 102 117 136 
176 712 305 140 150 166 
138 767 181 200 144 110 
397 367 261 169 152 137 
220 140 176 93 63 21 
441 198 235 114 78 58 
328 714 359 170 172 184 
414 361 211 119 128 146 
269 826 327 122 119 159 
264 263 240 117 97 73 
385 422 277 68 103 145 
154 281 214 111 49 68 
365 415 270 149 133 117 
331 543 202 168 176 200 
120 734 187 93 83 76 
243 575 171 112 130 161 
331 262 251 109 44 59 
283 155 191 88 72 52 
179 935 275 102 78 57 
174 786 201 210 156 118 
307 586 233 180 184 198 
181 348 262 154 24 73 
377 204 222 116 47 59 
263 824 324 194 171 152 
287 702 366 88 127 160 
211 319 240 148 108 69 
199 658 155 106 118 138 
219 141 184 98 81 67 
219 141 185 98 80 66 
296 134 240 121 108 99 
319 255 178 81 33 57 
119 723 151 102 119 134 
144 726 234 59 55 54 
156 794 206 249 166 126 
289 188 193 43 44 49 
168 495 247 79 99 117 
179 806 323 166 143 123 
149 460 191 139 143 154 
182 701 202 79 91 105 
331 558 247 182 186 198 
184 501 285 118 128 143 
204 269 174 130 71 80 
222 576 327 106 133 161 
190 306 177 137 134 137 
145 507 208 120 129 142 
217 142 189 100 83 68 
397 341 251 123 122 133 
196 273 249 140 138 141 
225 926 336 152 124 102 
211 689 184 51 57 66 
365 244 217 83 114 139 
163 545 182 146 146 153 
186 847 247 137 108 83 
309 449 158 109 125 150 
179 448 139 66 102 137 
184 519 291 188 174 167 
191 597 177 79 109 137 
292 613 368 88 84 88 
303 627 242 164 157 156 
233 138 272 122 109 98 
212 686 182 69 86 102 
255 347 231 141 141 146 
114 711 157 164 41 51 
226 986 258 164 130 99 
165 371 177 37 88 126 
179 786 212 199 146 111 
203 821 338 168 143 125 
147 723 268 119 98 74 
174 324 263 154 68 103 
418 427 250 101 119 159 
307 505 169 196 193 202 
263 950 282 85 67 58 
221 137 186 100 78 54 
299 248 261 136 47 80 
130 760 192 161 110 74 
290 274 250 107 125 145 
196 490 144 108 131 165 
220 139 185 99 79 59 
276 568 331 74 101 152 
302 611 263 80 98 136 
272 429 299 100 117 137 
416 138 252 118 95 75 
418 174 253 136 116 114 
285 177 272 99 39 38 
257 26 239 138 124 119 
248 57 279 96 79 61 
235 112 267 98 79 61 
196 951 254 85 67 46 
268 497 322 107 123 151 
312 747 336 154 170 191 
156 811 268 200 152 123 
290 665 396 95 106 132 
300 629 353 65 122 163 
249 291 224 75 121 156 
179 570 170 107 127 149 
221 138 188 103 83 65 
245 492 160 114 137 189 
282 159 195 82 60 43 
234 757 371 163 159 162 
249 762 244 185 145 117 
161 492 238 138 136 139 
275 908 283 67 55 43 
191 474 253 136 139 148 
182 687 221 71 83 96 
281 134 237 127 102 81 
388 340 189 158 124 89 
386 308 205 138 137 142 
291 606 362 76 102 126 
222 137 191 109 89 73 
207 418 252 62 83 116 
223 136 191 109 88 70 
324 725 357 102 123 178 
271 20 320 61 57 54 
169 762 311 73 88 116 
178 479 139 167 168 187 
354 395 265 178 152 126 
162 799 220 251 185 141 
303 634 313 77 98 147 
215 151 167 139 115 95 
168 579 199 79 108 146 
225 232 159 55 48 75 
408 275 211 149 149 154 
270 705 405 82 98 120 
422 395 245 110 129 160 
205 958 312 116 99 85 
238 665 159 172 146 158 
326 174 248 59 84 105 
369 163 217 144 43 29 
409 437 234 182 181 187 
314 670 261 128 145 164 
289 643 401 135 108 86 
316 230 194 79 77 87 
390 382 184 147 152 164 
153 497 232 64 93 123 
151 496 228 71 96 123 
306 240 162 126 117 107 
278 750 263 162 152 157 
250 551 168 166 173 187 
283 579 326 59 63 73 
356 537 245 114 129 198 
359 375 178 93 112 134 
306 291 242 79 124 160 
280 153 213 83 66 61 
330 499 186 158 172 201 
191 422 165 63 83 102 
215 149 174 93 77 61 
195 758 349 136 149 167 
183 254 265 164 155 153 
214 150 173 97 76 55 
348 406 269 161 72 10 
273 894 312 111 87 68 
269 372 259 111 101 96 
274 42 320 130 108 86 
297 269 254 105 128 158 
187 673 138 117 69 113 
150 538 231 104 131 167 
279 714 251 166 89 30 
278 229 266 49 83 135 
150 540 208 81 100 144 
385 494 225 187 187 198 
293 191 198 88 70 51 
326 448 163 128 139 156 
293 775 323 137 54 79 
119 709 127 112 45 112 
282 886 283 141 106 78 
203 259 244 68 107 138 
280 691 237 149 122 133 
294 639 375 80 99 135 
150 426 181 85 106 133 
203 518 311 138 146 160 
208 155 165 136 113 94 
209 155 164 144 120 101 
204 660 315 79 124 158 
257 494 321 83 104 144 
208 155 167 127 105 86 
203 230 252 104 93 105 
270 659 183 55 44 48 
365 514 301 128 142 171 
286 656 394 95 112 140 
175 750 170 138 107 84 
347 250 205 79 105 132 
247 139 282 141 123 109 
197 616 173 148 152 163 
156 656 136 53 33 79 
327 648 402 136 101 67 
146 310 232 156 160 171 
319 417 160 136 123 116 
210 155 166 133 109 90 
348 396 173 104 119 141 
437 270 250 103 127 152 
365 413 269 141 122 103 
322 417 275 130 115 103 
233 239 237 93 107 131 
258 611 184 63 74 85 
208 156 162 154 130 111 
168 422 153 127 140 157 
388 215 213 96 38 34 
104 658 117 93 110 134 
357 300 250 124 135 151 
280 694 401 123 127 136 
251 794 380 176 189 210 
143 791 222 212 156 120 
213 153 161 155 132 112 
437 233 229 120 35 45 
234 768 230 194 141 107 
266 614 186 61 66 72 
243 536 161 153 157 170 
291 750 408 124 138 204 
174 559 266 154 164 180 
177 694 221 74 86 98 
266 408 145 189 162 136 
267 588 188 136 154 184 
314 186 221 85 55 24 
216 833 330 185 159 136 
354 495 197 183 182 192 
163 699 144 118 102 83 
433 249 244 150 148 152 
311 227 179 70 71 75 
228 793 367 180 30 56 
278 147 184 99 77 60 
247 564 170 136 147 169 
171 279 199 96 88 90 
159 278 261 76 131 173 
210 127 271 94 81 70 
212 153 165 144 120 100 
207 545 315 117 142 169 
270 872 287 114 91 68 
219 592 165 92 88 87 
299 668 369 148 159 177 
200 467 271 129 131 139 
292 687 371 128 151 177 
411 409 275 162 164 173 
258 431 300 103 117 134 
148 622 115 62 80 97 
212 154 164 149 125 105 
297 714 431 104 140 218 
305 775 359 142 170 204 
367 528 228 103 133 177 
274 709 231 114 96 80 
289 135 244 112 99 89 
236 328 153 137 131 129 
246 619 158 149 117 89 
191 383 171 162 139 115 
193 809 242 209 151 115 
204 83 329 147 141 138 
226 372 255 75 97 130 
301 633 328 97 114 148 
300 773 381 139 146 188 
266 45 324 133 100 66 
160 583 206 108 134 161 
328 694 352 153 158 176 
284 135 255 89 82 77 
235 634 338 76 99 120 
273 915 282 85 70 57 
230 258 161 116 64 75 
346 420 273 127 113 100 
305 743 317 140 117 105 
224 68 315 129 116 106 
316 417 161 123 112 104 
293 630 393 129 106 84 
210 154 170 113 91 71 
331 681 365 153 157 167 
209 153 174 101 87 73 
278 624 195 130 78 81 
292 625 340 22 56 135 
249 412 146 191 159 125 
147 487 211 78 97 126 
289 499 314 81 107 140 
218 353 242 138 102 59 
282 252 260 134 121 133 
295 511 163 156 169 201 
155 676 142 26 41 78 
256 570 331 78 98 125 
301 638 360 117 137 166 
291 633 391 135 108 87 
150 792 206 227 156 127 
247 834 304 91 75 60 
204 417 253 57 83 111 
205 441 163 43 78 110 
176 696 219 81 92 105 
324 713 415 129 153 193 
314 697 280 132 154 179 
300 785 338 105 121 147 
183 619 150 30 51 92 
378 355 251 143 36 72 
234 424 289 80 108 134 
301 632 299 112 115 122 
271 552 331 115 129 151 
271 649 180 94 105 122 
174 664 265 93 114 137 
176 902 260 74 58 44 
263 733 373 49 73 113 
277 805 319 140 116 93 
213 152 169 124 102 81 
266 871 270 163 121 97 
301 336 243 115 116 121 
231 354 152 132 37 56 
213 152 171 111 89 69 
284 285 157 161 157 160 
213 440 288 96 116 138 
308 359 256 159 138 117 
245 463 153 139 152 180 
260 330 226 101 90 96 
320 567 290 90 101 136 
210 600 309 151 152 160 
302 724 268 118 80 76 
281 362 255 99 88 78 
368 301 204 115 122 134 
264 527 167 184 185 199 
282 457 309 90 108 138 
246 962 261 104 84 68 
274 471 314 153 152 158 
261 303 150 92 115 136 
261 19 252 152 136 132 
222 247 236 95 128 155 
217 384 248 47 76 103 
289 619 369 98 124 149 
277 691 218 87 77 104 
274 250 153 88 120 148 
218 615 152 108 96 87 
263 204 267 114 44 45 
182 941 274 114 88 70 
282 169 272 141 38 39 
159 349 247 187 140 78 
282 150 188 94 80 67 
212 991 289 147 122 97 
308 709 300 141 159 181 
340 544 208 141 161 192 
414 344 263 172 151 131 
229 577 329 101 135 168 
393 289 211 95 122 148 
135 621 108 134 142 153 
232 279 159 84 113 139 
242 69 307 92 74 57 
409 362 199 141 143 154 
249 717 194 181 102 61 
273 867 285 121 100 77 
196 462 151 26 66 102 
164 274 206 65 62 83 
272 214 269 107 37 48 
179 342 181 83 113 140 
365 196 228 130 45 70 
167 412 158 75 104 141 
188 705 188 107 108 114 
223 904 232 63 48 32 
292 270 159 78 113 145 
407 455 239 53 83 148 
270 449 148 175 159 156 
219 148 167 123 102 85 
325 173 231 79 40 31 
139 785 258 112 110 112 
309 643 414 124 99 73 
268 348 235 132 132 138 
340 210 219 87 47 65 
141 729 234 94 83 73 
426 280 246 114 129 147 
228 284 228 76 121 157 
317 223 198 97 51 52 
184 642 237 88 108 138 
343 148 226 134 107 73 
183 761 191 172 131 93 
276 134 236 126 100 78 
212 583 314 114 138 164 
230 271 230 108 127 149 
270 542 172 109 131 189 
331 565 241 129 157 189 
200 642 123 173 176 194 
163 347 252 179 131 54 
213 590 317 152 148 155 
171 391 251 85 113 163 
137 638 133 84 108 131 
220 147 165 128 110 95 
234 531 328 92 123 158 
406 449 233 148 159 180 
201 641 195 49 91 121 
191 891 237 91 68 46 
282 888 279 127 97 72 
257 651 337 78 94 118 
258 504 160 82 114 189 
274 213 149 145 82 67 
294 568 194 104 125 152 
172 171 257 90 82 74 
197 564 293 118 133 159 
162 580 198 58 105 142 
225 653 336 132 131 136 
194 542 147 149 156 174 
343 173 224 121 39 35 
330 546 203 143 170 203 
184 761 192 173 132 93 
421 339 226 160 157 162 
163 818 285 184 142 113 
132 744 212 124 108 93 
244 252 155 124 48 73 
230 945 244 147 114 79 
155 711 141 156 121 74 
220 149 160 139 122 107 
361 245 244 116 102 105 
180 334 264 158 58 101 
426 369 238 143 131 122 
203 244 248 81 108 131 
168 346 195 58 69 81 
229 705 184 166 147 138 
167 332 196 114 115 119 
366 341 251 172 148 125 
212 323 161 122 125 132 
201 499 152 94 105 134 
179 451 138 152 158 171 
241 366 251 128 132 141 
311 597 317 166 119 104 
291 14 293 119 94 73 
241 38 299 99 80 64 
176 406 163 51 81 103 
240 346 151 130 80 51 
217 147 173 87 65 39 
246 545 164 179 177 185 
402 426 219 85 111 150 
168 237 267 151 141 144 
193 691 325 155 153 158 
178 497 262 63 89 112 
206 510 314 160 160 166 
160 426 236 92 107 146 
311 618 331 122 141 166 
292 19 301 128 86 73 
300 179 264 95 83 82 
344 314 252 164 133 109 
315 695 270 151 170 192 
199 196 261 84 36 53 
145 524 231 116 124 152 
181 798 331 123 114 108 
254 48 318 99 74 60 
160 560 207 141 143 153 
219 152 261 136 40 31 
135 758 170 206 165 120 
224 564 326 128 80 91 
187 477 249 38 73 123 
115 633 110 77 100 122 
266 98 262 108 92 76 
315 634 365 120 87 76 
217 148 169 116 94 74 
233 489 320 140 145 156 
216 378 247 50 73 92 
222 824 347 183 146 114 
152 685 109 159 199 233 
373 436 189 88 110 162 
328 573 229 220 221 230 
211 231 244 109 87 103 
386 173 224 84 66 91 
192 343 171 141 138 140 
315 253 168 79 75 79 
322 576 334 131 109 90 
186 955 281 112 78 52 
188 555 287 213 195 184 
207 203 251 43 38 47 
280 466 157 102 131 200 
318 595 336 140 99 84 
271 52 293 105 85 63 
309 759 342 160 172 190 
194 925 242 104 79 54 
176 752 324 136 24 34 
304 700 434 186 134 113 
225 155 260 102 47 59 
253 235 245 120 12 44 
362 286 246 151 148 153 
107 692 135 159 171 189 
293 675 393 78 86 134 
307 648 314 82 115 156 
197 750 200 183 130 92 
193 660 288 83 118 146 
302 529 182 111 140 184 
291 770 312 166 99 130 
226 802 255 184 119 88 
316 723 343 70 102 155 
427 330 234 156 153 156 
238 470 157 177 173 181 
253 890 254 125 94 61 
307 429 286 126 135 148 
269 869 290 126 101 76 
188 880 245 91 68 52 
220 144 172 92 69 40 
310 519 320 93 135 169 
329 511 306 98 122 154 
229 99 308 174 123 104 
286 713 429 158 172 200 
168 499 150 93 105 119 
229 824 351 112 134 155 
268 874 288 129 100 68 
223 600 327 80 125 161 
269 888 310 127 101 77 
174 344 188 85 112 136 
309 551 200 104 119 171 
175 610 223 88 100 134 
220 601 323 81 127 163 
315 733 341 138 157 184 
240 438 150 163 143 134 
195 568 290 134 143 161 
187 732 337 147 144 148 
252 543 169 93 110 145 
366 253 238 72 108 136 
276 914 302 158 120 93 
277 896 276 85 66 50 
252 24 323 66 58 51 
256 586 181 132 155 184 
214 147 181 102 96 93 
209 211 247 134 38 40 
170 581 231 171 160 155 
293 682 350 72 100 150 
235 332 231 114 127 144 
195 624 266 158 154 158 
301 780 360 175 184 201 
215 146 182 101 96 93 
179 879 260 86 65 51 
202 794 351 155 22 46 
212 605 313 85 129 162 
173 171 271 81 82 85 
147 487 189 115 125 144 
291 182 163 62 70 80 
145 705 129 185 111 96 
206 363 161 156 136 117 
213 150 177 101 94 89 
222 421 285 116 127 143 
245 41 287 98 81 65 
160 527 165 72 99 138 
275 923 305 173 128 101 
241 815 365 137 63 91 
202 687 171 16 69 121 
246 469 313 86 111 141 
321 577 338 127 105 84 
396 357 256 141 136 137 
130 762 200 168 150 137 
234 986 268 162 129 98 
234 759 222 192 140 106 
307 200 206 54 47 49 
247 575 333 111 150 187 
173 185 275 152 61 85 
422 193 224 127 28 51 
172 817 241 223 163 125 
214 150 176 100 90 83 
371 525 235 168 180 200 
179 900 255 68 53 45 
290 144 261 108 97 90 
248 251 153 98 67 73 
256 504 160 105 127 189 
321 630 368 137 98 77 
177 364 258 183 178 181 
289 19 308 138 114 106 
247 227 153 44 81 120 
282 25 320 132 121 115 
217 404 155 174 149 123 
196 798 230 187 136 103 
149 636 103 98 89 82 
218 442 292 120 131 147 
146 321 211 150 149 156 
308 674 249 105 80 75 
315 671 262 142 158 178 
237 334 152 136 20 55 
184 621 246 105 124 145 
378 204 216 97 40 43 
287 747 268 175 173 175 
194 387 169 148 130 113 
208 603 297 88 117 150 
211 409 158 139 124 113 
300 312 236 146 143 146 
293 674 243 169 135 112 
140 771 261 157 143 134 
229 60 322 107 92 76 
155 369 230 92 109 135 
207 717 178 142 113 86 
137 698 175 19 44 68 
171 807 308 178 162 151 
193 824 249 150 111 77 
208 151 186 100 76 67 
173 408 157 120 132 147 
106 687 124 200 211 231 
210 149 185 104 82 74 
210 830 252 154 114 79 
223 374 245 66 84 111 
222 798 360 164 21 52 
280 497 318 78 101 138 
306 735 305 63 76 113 
157 771 173 228 161 122 
241 866 262 114 92 67 
209 512 316 57 94 143 
217 921 335 120 98 84 
301 636 291 117 129 148 
163 346 194 76 57 53 
267 142 206 90 78 66 
183 782 210 206 154 117 
180 833 304 194 147 120 
288 623 217 186 135 127 
283 570 190 33 119 181 
194 292 252 145 138 137 
319 617 385 119 95 69 
299 498 159 109 134 200 
208 149 190 116 63 48 
271 510 166 142 154 176 
131 684 106 188 198 218 
312 585 270 103 87 79 
191 663 220 55 83 106 
177 247 267 155 151 154 
348 313 251 143 63 63 
211 148 188 109 76 65 
222 676 183 47 42 39 
166 803 227 237 172 132 
201 813 248 200 143 110 
212 147 186 101 84 77 
271 864 290 122 100 79 
359 437 180 89 113 157 
213 147 186 100 86 80 
203 853 310 142 105 79 
389 210 215 47 46 49 
440 217 242 140 106 96 
410 280 234 146 146 152 
215 145 186 98 89 83 
394 153 222 144 129 121 
385 179 223 96 64 92 
267 684 200 109 73 37 
263 557 176 101 121 173 
204 318 167 147 145 149 
390 480 287 164 165 174 
222 418 283 96 114 134 
125 754 202 194 179 171 
253 776 262 139 138 141 
198 474 286 94 109 127 
162 711 281 146 23 35 
400 218 216 102 35 35 
157 467 225 113 119 132 
181 596 242 133 143 158 
173 67 260 143 131 121 
306 619 276 156 107 95 
198 822 253 149 107 80 
154 811 263 199 149 121 
391 337 193 162 129 95 
317 277 165 141 142 148 
152 352 213 160 154 156 
177 780 199 193 145 109 
273 313 226 72 115 148 
212 146 191 104 76 65 
319 733 399 91 109 187 
256 428 297 101 119 139 
237 558 330 112 43 62 
354 215 222 125 33 20 
