ply
format ascii 1.0
comment Created by CloudCompare v2.11.1 (Anoia)
comment Created 2/28/22 9:41 PM
obj_info Generated by CloudCompare!
element vertex 2008
property float x
property float y
property float z
property uchar red
property uchar green
property uchar blue
end_header
279 290 234 131 131 137 
143 703 179 76 26 31 
350 460 188 87 120 162 
208 736 188 120 85 64 
150 212 226 34 29 71 
424 268 237 140 141 147 
172 625 120 97 87 77 
266 646 335 84 103 126 
343 176 224 102 36 32 
147 290 222 106 113 123 
344 304 252 106 121 138 
275 825 352 166 62 84 
262 19 251 156 137 137 
247 225 244 115 38 33 
172 448 155 115 126 145 
151 317 213 76 87 99 
278 707 359 30 59 129 
242 933 334 182 138 112 
228 855 332 153 118 92 
149 213 228 41 44 66 
193 321 261 134 28 65 
247 747 380 34 69 122 
246 672 178 201 65 69 
272 717 427 117 121 180 
330 690 373 148 161 179 
229 959 313 113 89 71 
220 138 259 164 68 10 
160 537 259 80 100 149 
193 701 192 95 99 107 
261 799 381 196 209 232 
149 214 231 53 56 86 
207 390 252 39 69 92 
393 226 215 120 68 58 
239 296 159 146 145 148 
273 914 318 183 139 113 
263 799 381 165 190 221 
251 724 356 57 81 103 
174 711 308 115 138 162 
167 659 135 26 49 87 
235 832 292 75 57 39 
373 356 181 110 110 120 
338 559 244 132 158 204 
328 288 177 90 103 117 
264 464 152 49 93 180 
284 292 236 119 83 85 
361 426 182 94 119 154 
363 171 220 89 55 65 
429 172 225 59 75 89 
148 209 235 53 36 45 
148 210 232 52 58 81 
180 762 187 164 126 89 
229 322 229 139 143 153 
148 211 233 48 51 83 
234 95 303 161 120 107 
284 225 270 54 41 61 
229 209 241 87 48 55 
255 684 347 71 88 115 
302 743 307 122 120 142 
256 195 264 45 54 85 
285 162 205 79 58 45 
154 462 221 135 139 150 
247 785 383 136 159 188 
202 649 124 23 73 120 
174 727 319 140 140 151 
279 630 198 173 124 109 
220 410 278 74 99 126 
254 766 397 148 169 204 
134 714 196 41 39 51 
199 471 285 81 101 123 
186 776 343 154 65 67 
270 602 330 91 102 116 
304 282 164 152 149 150 
186 554 285 219 198 184 
237 58 320 136 121 109 
348 420 274 146 130 115 
192 624 259 149 146 150 
194 372 258 73 95 146 
224 796 249 204 139 115 
162 364 247 169 164 166 
182 691 219 72 85 99 
314 610 383 122 98 71 
288 643 343 114 132 151 
250 589 181 78 109 137 
249 835 310 145 114 87 
171 627 118 97 88 80 
303 361 164 88 99 119 
212 911 332 140 111 91 
174 602 227 62 105 137 
304 695 433 180 124 101 
213 621 318 116 136 159 
159 398 162 80 110 165 
200 866 319 167 127 100 
299 369 265 115 124 135 
297 772 328 126 54 61 
276 11 299 81 68 57 
189 633 235 83 95 121 
260 20 222 118 98 82 
148 212 239 45 39 55 
287 237 155 79 93 120 
148 493 223 81 104 128 
270 115 276 122 97 70 
154 378 233 55 103 138 
155 434 196 115 124 140 
189 582 166 116 131 152 
144 517 205 78 100 127 
245 547 165 143 152 171 
154 369 213 31 71 125 
148 215 239 74 50 73 
153 346 231 95 109 130 
402 199 209 102 58 71 
158 748 288 122 109 101 
192 425 164 75 91 107 
266 224 263 35 42 76 
347 256 207 83 108 133 
298 637 323 96 119 146 
307 758 367 162 170 194 
238 834 284 101 77 49 
201 983 243 145 117 96 
408 366 205 151 147 151 
270 699 210 55 66 90 
292 173 166 90 75 59 
292 630 227 87 71 59 
278 704 379 58 85 123 
210 396 251 46 71 93 
274 820 327 143 120 107 
286 578 326 76 78 84 
109 656 99 61 94 155 
279 214 150 149 94 58 
172 849 271 201 157 126 
363 349 254 166 134 113 
287 653 384 81 87 133 
346 239 214 118 103 93 
283 159 201 81 57 35 
239 663 154 192 157 171 
329 272 251 142 140 146 
220 760 215 182 134 95 
189 430 253 57 85 121 
311 584 232 125 155 201 
244 966 294 91 60 37 
169 634 249 110 117 130 
234 832 263 162 126 94 
205 243 248 78 108 132 
209 424 162 122 111 105 
297 758 316 98 71 124 
286 755 280 133 139 150 
268 831 346 102 103 127 
321 572 300 121 96 90 
151 221 224 61 35 44 
180 424 252 56 85 135 
150 220 226 48 43 65 
384 359 250 169 146 124 
314 713 283 141 167 195 
265 528 327 66 87 126 
209 667 150 183 60 78 
157 241 267 165 160 163 
164 615 133 130 134 143 
264 564 179 127 144 191 
151 222 225 84 43 48 
236 765 376 59 75 105 
211 936 241 118 86 66 
272 125 256 82 72 64 
409 140 238 120 94 68 
206 613 147 23 80 120 
272 245 259 115 81 101 
324 553 312 43 62 82 
322 684 410 93 124 152 
237 661 343 73 90 110 
107 656 106 109 131 157 
209 291 239 120 130 144 
376 188 216 106 48 63 
225 472 308 93 114 137 
231 988 282 159 127 93 
319 479 305 157 157 164 
355 530 213 118 144 188 
230 782 371 40 63 111 
271 683 206 90 82 79 
238 720 359 76 94 115 
149 223 229 97 48 54 
293 197 271 146 57 54 
126 754 202 174 158 146 
161 751 292 111 98 87 
296 784 352 143 156 186 
163 693 137 151 87 76 
207 598 169 75 86 100 
373 187 219 99 46 57 
408 374 207 160 156 161 
190 733 173 151 143 149 
178 590 201 122 113 109 
148 216 233 33 48 68 
196 665 123 178 202 230 
316 683 417 156 111 82 
214 404 252 84 104 127 
226 648 336 151 150 156 
265 383 145 131 30 58 
214 632 322 143 145 155 
145 683 155 22 30 42 
135 766 247 110 100 94 
258 762 256 128 99 93 
297 649 226 155 96 36 
187 698 169 46 79 115 
180 902 304 139 101 84 
394 342 189 171 138 100 
316 595 301 173 115 105 
183 450 141 78 108 137 
171 794 310 166 136 104 
258 460 153 150 159 180 
232 668 346 110 124 142 
228 614 155 108 98 91 
129 727 203 134 108 81 
292 680 359 54 76 121 
152 324 244 112 138 165 
158 501 243 123 129 140 
113 686 115 136 169 201 
206 915 330 92 75 60 
312 481 159 79 108 163 
253 913 246 72 58 49 
199 838 315 192 150 118 
172 708 154 98 94 96 
111 656 95 123 142 166 
180 279 264 104 131 159 
373 472 293 148 152 163 
181 658 251 104 119 141 
226 817 256 148 111 78 
143 322 207 150 146 149 
240 715 192 164 109 51 
189 327 264 111 133 153 
212 4 563 139 131 127 
288 199 154 133 58 73 
302 655 273 65 67 71 
282 295 157 111 125 143 
202 219 256 136 17 44 
164 443 237 82 104 145 
281 233 153 50 82 114 
229 119 276 119 86 66 
278 150 195 86 71 57 
171 671 283 97 70 99 
148 220 236 94 39 65 
141 289 239 77 130 170 
219 783 363 166 171 184 
376 289 240 93 115 138 
126 747 176 136 113 96 
176 862 282 152 112 82 
259 253 152 93 90 98 
323 576 232 75 104 188 
307 611 338 77 87 110 
220 398 264 99 118 141 
195 829 323 144 135 131 
377 340 246 171 147 122 
301 245 266 140 27 65 
182 269 193 66 90 113 
258 922 335 196 144 120 
148 223 239 97 47 73 
152 208 224 28 63 101 
311 484 160 99 128 164 
214 282 235 96 120 145 
182 924 312 85 68 56 
277 303 230 75 116 148 
173 171 272 79 84 97 
392 411 204 111 126 160 
282 643 406 135 111 88 
152 214 224 54 64 86 
345 187 242 98 101 107 
300 405 284 127 115 107 
210 950 319 100 82 68 
229 91 272 82 67 53 
295 602 229 137 144 159 
265 641 187 54 50 48 
182 137 259 85 68 48 
155 703 136 129 95 95 
269 908 268 100 82 67 
152 219 224 43 40 61 
165 567 245 172 165 168 
237 236 239 120 29 68 
324 169 247 111 89 92 
295 174 211 96 71 61 
291 263 261 136 150 169 
292 292 241 80 117 145 
276 669 338 76 93 128 
195 816 248 182 132 100 
268 56 309 124 93 78 
212 860 329 167 126 99 
168 584 204 120 62 101 
309 489 160 145 156 180 
227 85 275 81 67 53 
197 317 256 117 14 49 
126 655 86 67 92 181 
309 751 334 146 164 186 
266 920 328 195 143 119 
151 517 244 165 158 159 
395 277 229 118 107 108 
306 540 190 119 136 196 
197 945 251 155 123 90 
329 493 186 189 184 190 
316 719 349 81 113 175 
234 216 163 121 50 56 
253 682 183 105 84 82 
109 691 130 179 193 215 
223 710 183 158 129 117 
148 210 244 95 55 51 
306 652 257 55 88 113 
417 293 239 93 114 137 
294 173 177 90 53 49 
387 140 211 169 67 26 
267 529 169 178 182 201 
249 427 295 89 111 132 
369 300 198 117 118 121 
319 339 257 130 29 59 
309 221 172 77 80 87 
432 333 238 154 152 156 
146 681 152 27 36 48 
373 485 207 83 111 172 
290 179 271 101 51 51 
138 678 98 139 158 221 
173 449 142 142 149 162 
152 745 153 214 187 166 
355 258 211 77 103 129 
151 388 174 93 115 141 
230 144 260 157 67 10 
187 467 250 71 94 122 
181 550 280 144 149 165 
274 520 172 151 154 171 
156 519 251 108 118 134 
233 498 325 91 116 150 
192 594 167 70 110 152 
284 316 156 125 18 43 
251 922 242 82 61 36 
218 774 364 108 115 152 
290 619 388 126 105 84 
190 629 230 121 122 130 
298 666 241 229 188 135 
207 691 339 55 63 76 
301 711 267 111 104 121 
289 668 238 137 33 13 
226 123 261 118 111 106 
292 588 336 120 95 77 
393 449 211 73 110 152 
239 633 332 41 54 71 
350 165 228 118 80 72 
322 664 407 150 107 72 
231 431 153 142 126 111 
174 391 177 56 78 98 
186 852 300 163 123 90 
266 11 306 35 32 30 
158 772 289 146 124 102 
279 672 434 84 95 114 
228 107 271 86 71 57 
194 616 193 116 121 132 
218 194 246 53 64 95 
151 357 180 121 136 155 
267 670 185 203 156 108 
300 639 264 128 135 147 
296 572 327 75 79 86 
279 704 377 98 120 143 
132 766 207 87 111 133 
316 244 181 72 53 45 
213 683 201 79 83 90 
178 157 272 97 81 64 
290 776 387 159 168 200 
231 49 318 107 92 76 
211 238 244 84 116 142 
232 335 155 141 130 121 
173 662 281 126 134 145 
149 213 248 126 39 14 
400 202 209 65 58 102 
169 658 274 164 168 178 
187 390 176 80 91 103 
172 517 271 93 110 134 
236 300 224 90 58 75 
306 732 311 134 166 197 
181 413 252 59 91 143 
151 212 249 132 38 20 
148 528 240 77 89 144 
307 499 164 92 119 179 
157 429 234 78 99 147 
151 213 250 133 40 27 
384 179 213 123 66 63 
176 840 258 180 138 108 
201 661 213 82 85 91 
307 754 328 163 180 202 
264 751 409 170 178 203 
203 988 257 136 102 70 
150 215 250 129 27 29 
397 180 211 111 63 60 
293 193 187 69 58 48 
151 212 252 132 31 24 
230 893 337 147 114 92 
155 532 189 113 122 135 
181 786 214 198 145 108 
180 431 251 53 83 133 
378 511 223 180 188 205 
212 876 331 167 124 100 
153 392 182 81 104 141 
264 13 290 84 70 58 
180 690 158 113 121 133 
246 495 162 179 183 197 
267 503 162 185 185 199 
258 858 313 160 121 98 
233 406 281 66 97 130 
294 614 388 114 96 79 
170 214 270 60 114 151 
221 470 305 102 120 139 
176 924 271 94 71 51 
245 391 147 182 153 124 
207 173 256 113 38 59 
362 227 219 120 36 28 
155 355 237 150 149 156 
357 231 245 100 45 66 
271 564 182 141 155 194 
300 614 393 113 94 75 
314 520 185 150 167 188 
352 547 224 137 171 207 
149 226 256 95 45 55 
164 502 151 93 109 127 
284 700 361 49 89 136 
149 216 246 113 37 41 
248 698 187 130 135 149 
281 155 277 157 72 5 
216 424 264 140 141 149 
396 283 230 145 145 151 
282 417 150 165 43 15 
243 557 167 153 158 171 
290 179 197 76 54 34 
200 633 278 75 122 158 
408 470 250 156 164 182 
149 218 247 97 39 64 
149 219 246 90 43 62 
173 845 264 188 146 113 
276 902 308 161 123 94 
286 442 153 75 65 54 
325 416 278 136 122 112 
193 840 249 157 121 85 
149 339 220 98 114 144 
146 716 263 125 41 28 
228 816 279 147 98 82 
176 926 284 58 45 39 
356 283 250 160 159 164 
155 394 208 40 76 124 
165 483 237 127 133 144 
148 223 241 100 42 70 
148 222 242 86 32 63 
205 718 348 127 134 153 
406 474 260 126 144 171 
282 452 309 116 126 140 
148 220 244 87 45 65 
377 371 255 174 150 127 
236 99 298 158 120 103 
159 221 268 66 67 98 
141 787 216 210 147 116 
180 765 189 162 124 88 
321 360 164 154 126 100 
338 528 204 197 198 209 
306 762 332 168 170 178 
196 684 324 143 143 148 
245 620 156 153 117 89 
271 612 195 40 53 65 
221 680 201 82 82 87 
323 636 389 138 101 68 
181 833 303 194 147 119 
263 888 316 121 87 69 
407 373 263 155 78 12 
308 220 179 77 75 76 
277 148 214 98 79 70 
287 684 384 83 106 146 
177 672 269 126 129 138 
315 288 249 102 133 162 
240 729 363 90 100 114 
232 663 345 77 109 136 
149 218 248 109 40 52 
343 147 220 168 67 11 
150 641 92 16 69 123 
169 290 264 93 135 174 
334 566 225 220 222 234 
214 959 308 107 86 70 
211 723 353 111 122 149 
141 275 239 147 143 142 
244 806 372 171 188 211 
206 469 152 104 120 139 
150 376 177 91 117 149 
261 723 355 60 94 132 
251 961 271 92 67 54 
150 216 252 131 29 22 
166 581 212 81 102 124 
187 650 116 108 119 173 
153 365 216 97 112 136 
135 738 149 176 145 116 
344 246 209 82 103 123 
275 772 290 216 198 187 
429 381 254 154 139 128 
151 217 254 131 35 24 
151 217 255 130 35 21 
278 11 299 90 75 62 
195 778 215 191 139 100 
304 606 288 110 73 71 
171 572 193 67 97 125 
165 258 267 180 178 185 
189 631 236 98 108 121 
176 883 264 78 62 54 
304 205 177 63 73 83 
154 703 251 81 61 73 
407 141 220 163 68 17 
242 886 333 111 75 65 
305 508 168 184 188 201 
192 696 199 77 86 98 
156 634 106 101 90 80 
422 273 235 124 129 138 
250 743 398 124 139 161 
232 64 287 79 68 58 
240 591 328 108 135 162 
337 343 256 138 103 114 
367 451 196 106 132 166 
238 28 314 101 84 67 
334 245 202 79 103 124 
304 745 320 94 108 125 
297 578 340 113 98 86 
238 569 166 128 141 164 
198 560 304 166 169 180 
256 845 297 130 106 79 
280 227 153 66 103 133 
167 412 159 99 124 158 
241 757 375 40 56 94 
374 447 200 144 152 167 
334 292 184 102 108 117 
305 691 286 136 153 173 
196 362 259 83 114 156 
149 222 254 111 33 40 
307 603 253 154 109 102 
185 400 172 40 61 80 
270 642 337 68 96 142 
381 462 207 107 131 165 
221 752 367 164 158 159 
213 561 151 129 132 144 
327 483 304 100 124 149 
310 651 375 78 90 117 
223 461 159 107 116 128 
282 285 158 158 155 158 
316 688 342 113 137 161 
329 354 165 162 138 113 
125 726 187 130 104 82 
272 138 227 135 106 78 
315 641 361 154 162 177 
160 802 290 137 125 119 
298 584 350 114 100 88 
199 469 272 110 118 130 
167 600 225 44 64 88 
152 211 251 132 31 24 
303 412 155 118 96 74 
371 523 295 95 123 167 
219 958 242 106 81 53 
222 640 332 132 133 140 
286 305 159 101 116 134 
390 496 284 125 145 176 
407 339 197 173 142 108 
139 733 218 66 69 75 
215 917 231 63 46 40 
305 730 411 166 171 185 
302 516 171 65 95 160 
374 517 222 128 137 187 
156 794 203 249 166 126 
372 200 219 126 52 60 
247 420 291 74 99 126 
291 365 148 124 25 45 
206 988 266 108 81 52 
272 334 151 171 142 110 
174 569 185 89 38 61 
252 842 297 127 103 78 
297 481 308 102 120 142 
160 195 266 107 71 58 
276 675 411 145 147 155 
272 728 252 84 80 82 
301 494 159 155 166 191 
152 212 255 134 32 24 
359 317 189 126 47 51 
297 634 324 89 106 138 
240 281 159 107 84 74 
152 214 255 132 29 23 
113 663 94 130 149 195 
261 141 282 133 117 105 
160 295 260 121 141 164 
209 443 257 132 136 146 
225 407 280 78 100 124 
322 568 254 169 172 183 
172 454 150 131 139 153 
320 649 352 147 156 172 
176 403 165 36 71 96 
364 289 201 139 138 142 
269 486 160 70 104 181 
197 625 196 139 141 149 
221 951 321 108 89 71 
332 176 246 125 102 84 
385 441 206 124 141 165 
151 233 223 95 49 56 
279 520 172 42 66 134 
165 741 159 132 119 111 
234 905 341 189 153 127 
190 745 342 167 161 162 
346 240 249 126 31 71 
393 501 249 151 172 201 
335 291 186 99 107 119 
163 699 143 111 108 108 
403 137 218 142 66 20 
214 355 160 107 120 136 
150 237 223 89 44 38 
158 720 147 185 166 151 
317 683 413 129 99 87 
305 671 275 56 68 84 
196 185 264 111 35 57 
285 672 223 143 38 34 
305 680 436 172 115 94 
310 710 269 104 144 178 
354 347 259 167 142 116 
293 297 238 70 111 146 
191 54 258 82 72 62 
224 903 338 180 140 114 
158 224 215 53 49 60 
429 173 244 173 110 103 
302 403 283 118 106 99 
245 275 227 156 153 157 
210 742 202 157 113 77 
179 565 167 137 139 148 
380 375 184 107 120 138 
281 661 207 159 127 87 
259 822 323 157 128 98 
205 909 230 88 68 53 
277 456 311 80 100 136 
264 611 195 59 67 77 
274 765 276 178 139 88 
289 414 150 182 59 0 
426 359 229 139 136 139 
331 218 211 29 59 88 
158 617 131 114 124 138 
220 81 287 106 82 47 
265 711 392 92 102 115 
267 581 327 80 99 128 
120 725 155 76 98 137 
155 381 237 62 99 139 
345 527 308 94 119 158 
189 611 251 119 134 154 
263 139 211 113 90 68 
152 468 219 146 145 151 
221 737 200 153 106 79 
205 631 187 54 99 133 
264 652 165 99 144 182 
170 604 221 94 114 138 
239 961 248 131 103 74 
250 524 167 106 123 176 
175 675 269 102 99 110 
293 169 180 91 87 86 
366 534 260 109 133 198 
151 805 245 211 151 120 
315 629 351 69 103 143 
184 78 263 137 102 89 
251 475 315 137 142 156 
153 225 221 84 41 42 
244 523 161 84 105 137 
255 226 248 79 33 36 
196 131 267 100 86 74 
282 684 342 97 114 141 
170 842 284 202 151 125 
153 225 222 82 48 46 
153 226 220 89 31 37 
398 346 193 166 122 76 
312 681 277 129 150 173 
155 629 135 69 94 129 
401 256 222 85 123 154 
343 266 201 123 119 119 
281 704 371 73 98 144 
141 772 264 148 141 140 
259 793 295 195 158 114 
304 208 177 63 71 81 
266 725 419 126 132 174 
199 641 168 91 111 163 
428 174 221 54 70 86 
277 695 231 92 92 95 
235 804 369 198 23 56 
133 710 126 222 124 117 
168 718 296 141 24 42 
307 505 318 179 180 188 
304 655 426 122 96 68 
359 341 257 178 153 129 
208 641 180 57 108 142 
174 338 186 86 113 137 
432 247 224 142 147 158 
152 421 225 164 156 155 
117 685 153 72 75 102 
407 161 223 50 78 101 
191 630 217 150 148 154 
308 155 250 134 67 5 
271 367 257 113 93 87 
253 914 246 74 60 47 
260 923 255 87 72 62 
149 348 188 79 93 147 
374 373 255 173 149 126 
252 867 334 164 129 109 
433 281 232 133 140 152 
402 479 237 144 152 190 
201 78 257 88 72 57 
269 633 185 126 88 76 
380 349 248 140 43 73 
288 639 381 80 101 132 
305 501 164 112 133 185 
214 659 137 121 160 196 
163 569 236 112 124 158 
267 948 294 83 63 55 
273 380 147 134 26 49 
174 336 263 164 77 112 
146 525 232 104 115 152 
362 428 275 138 148 166 
439 197 226 126 70 71 
278 792 382 86 109 197 
235 642 153 39 50 79 
286 411 153 159 86 28 
401 471 277 128 145 172 
313 717 296 155 177 203 
160 771 294 137 117 98 
172 399 251 81 109 159 
159 299 258 115 143 171 
316 193 214 90 40 37 
197 760 351 167 166 171 
173 665 277 112 111 115 
318 710 411 108 136 189 
187 944 269 119 89 68 
291 643 417 123 99 74 
218 724 187 142 111 101 
277 444 150 156 135 119 
285 624 205 127 94 72 
163 720 151 188 167 150 
272 927 310 192 143 120 
157 232 214 102 40 46 
253 438 302 87 106 125 
408 165 213 37 71 108 
226 749 367 98 106 132 
163 677 120 139 174 210 
199 145 273 141 90 88 
175 823 303 196 153 124 
312 740 336 152 169 191 
283 409 290 107 120 137 
157 235 215 98 30 35 
157 505 171 63 98 125 
346 480 191 158 165 182 
314 722 335 93 126 166 
423 390 227 113 128 147 
250 523 167 106 125 178 
235 682 179 83 86 120 
176 498 143 108 125 154 
252 516 167 184 181 196 
158 235 214 101 37 41 
264 275 234 101 100 103 
266 94 284 120 96 70 
269 580 186 98 125 159 
234 701 186 169 142 122 
315 646 365 166 162 165 
259 866 319 136 95 78 
428 293 229 128 138 151 
294 646 352 74 90 114 
211 270 238 152 148 151 
177 664 259 93 116 139 
296 574 200 101 114 163 
327 275 181 93 96 102 
220 615 325 125 92 102 
230 957 316 115 91 74 
272 333 232 139 138 143 
180 842 296 185 138 110 
169 394 164 102 117 132 
190 875 244 116 88 66 
106 664 116 112 125 155 
170 583 228 151 150 155 
173 726 323 130 146 167 
206 895 328 162 119 95 
263 869 272 191 139 116 
159 239 212 121 39 42 
351 356 262 137 24 62 
177 408 161 67 88 106 
358 365 260 147 65 72 
153 234 219 97 42 50 
376 478 294 154 162 175 
155 232 216 96 35 47 
373 461 289 80 117 155 
344 254 205 77 105 132 
176 674 112 182 199 222 
280 708 434 140 147 196 
178 838 255 185 144 111 
180 588 250 86 115 145 
243 403 148 182 155 128 
311 280 252 126 142 161 
175 569 185 93 48 66 
212 886 331 177 132 109 
426 396 256 173 172 179 
177 154 269 79 52 35 
277 156 154 107 85 60 
225 913 231 52 44 37 
389 339 244 126 108 106 
154 235 218 94 35 40 
152 232 220 98 35 43 
157 406 195 46 83 128 
242 77 270 96 76 53 
152 233 221 102 43 54 
160 552 191 111 112 119 
238 102 261 96 71 43 
293 642 375 97 116 139 
190 627 232 94 105 119 
275 538 176 75 90 130 
152 235 221 86 30 36 
175 62 261 90 73 52 
165 461 234 111 124 144 
330 557 213 145 157 194 
257 663 341 84 98 118 
219 949 321 114 95 80 
200 78 321 143 138 136 
385 395 264 138 127 120 
416 171 215 49 72 102 
192 928 246 109 86 65 
268 705 396 72 91 110 
177 542 145 121 130 173 
255 223 152 86 69 90 
153 806 266 195 148 119 
155 236 217 104 40 45 
193 898 314 169 123 98 
294 662 382 95 107 156 
129 730 209 122 106 99 
193 626 157 78 101 127 
254 577 178 146 157 183 
275 205 148 143 75 60 
314 452 293 70 103 142 
338 336 176 141 110 76 
255 412 289 115 122 134 
419 338 216 148 145 148 
247 461 313 108 125 148 
208 861 326 163 124 97 
167 686 242 108 114 124 
221 330 233 156 126 93 
291 660 234 187 148 98 
283 276 246 136 109 116 
180 935 306 101 79 66 
310 486 309 94 117 142 
203 981 289 125 101 84 
291 268 161 70 102 131 
421 411 228 60 97 145 
181 943 295 138 107 77 
392 249 222 87 117 143 
203 87 327 146 132 122 
250 692 349 67 89 116 
295 616 317 86 91 123 
169 355 191 58 66 76 
368 334 251 166 140 113 
377 213 221 43 51 71 
323 644 394 142 101 69 
260 26 331 79 68 57 
269 141 159 122 88 67 
213 925 332 104 83 70 
191 6 558 130 119 110 
202 561 150 138 154 180 
370 142 210 170 65 10 
350 536 302 116 148 186 
196 952 315 130 110 94 
172 337 188 83 111 136 
259 227 151 105 51 48 
416 283 234 117 126 139 
230 83 307 133 105 71 
313 233 261 127 100 92 
181 753 184 162 121 87 
314 216 200 60 72 94 
151 245 219 124 44 16 
161 710 279 131 60 78 
305 637 310 106 119 149 
241 964 302 118 79 50 
213 701 348 81 109 140 
291 582 334 117 98 82 
251 701 350 85 99 117 
343 137 222 137 103 81 
251 141 282 136 120 105 
214 796 239 193 137 103 
409 183 211 105 36 40 
188 149 277 54 89 125 
221 346 238 129 85 22 
149 246 223 103 42 44 
160 555 193 123 121 124 
279 391 278 67 87 116 
255 495 159 168 176 196 
181 588 186 64 112 147 
179 708 195 113 126 141 
171 745 313 129 42 65 
275 168 279 153 41 29 
244 819 309 59 63 73 
367 530 232 206 213 228 
162 731 289 177 143 96 
238 747 370 94 106 125 
141 638 132 105 123 143 
124 641 126 72 97 118 
298 133 242 112 102 92 
147 251 223 80 52 76 
303 750 390 177 179 189 
153 398 167 130 139 154 
437 250 230 126 130 139 
208 642 191 53 96 128 
160 561 243 80 101 150 
275 429 301 94 111 131 
247 754 230 200 145 111 
203 482 302 92 107 133 
151 249 218 102 72 70 
310 315 168 109 122 138 
249 872 262 151 114 85 
307 509 172 136 150 174 
340 278 247 148 146 150 
189 892 236 108 79 58 
410 306 201 132 115 110 
349 464 189 113 129 167 
373 419 272 125 70 91 
313 252 261 127 115 121 
274 688 209 102 111 125 
153 810 254 202 147 114 
288 615 360 64 95 131 
387 498 224 195 193 201 
152 425 225 149 147 153 
282 752 407 102 127 199 
159 492 161 98 119 142 
299 604 317 129 86 91 
422 152 253 165 64 10 
226 823 290 111 81 65 
297 625 290 61 95 137 
201 616 160 68 98 144 
216 124 265 99 87 78 
161 380 244 82 122 155 
218 969 238 125 101 75 
287 441 305 83 109 137 
168 739 160 190 174 163 
223 144 258 163 60 10 
180 905 288 72 58 48 
185 728 333 142 140 144 
191 944 318 160 136 116 
340 417 275 119 104 97 
415 159 237 124 84 80 
409 422 273 99 121 160 
423 278 239 112 128 145 
228 716 358 80 91 108 
133 692 109 154 173 196 
183 421 162 34 66 87 
196 521 144 147 153 171 
288 767 310 114 105 108 
286 728 259 90 60 58 
242 816 301 81 93 106 
250 965 290 75 45 31 
168 509 261 167 158 155 
311 270 256 164 158 159 
241 774 246 200 145 117 
356 400 266 169 79 6 
267 183 277 98 34 38 
275 536 328 121 131 145 
210 323 243 155 117 71 
202 662 125 167 188 213 
183 660 241 139 135 138 
336 402 273 173 78 11 
276 901 299 148 118 86 
246 979 266 153 116 81 
170 743 311 118 26 42 
343 197 246 68 88 107 
139 717 195 53 31 36 
403 229 215 133 96 95 
232 682 177 64 63 97 
245 503 323 98 122 151 
236 542 158 159 165 180 
434 273 248 135 134 140 
209 667 209 73 86 101 
235 35 302 106 94 86 
150 348 188 83 108 147 
216 796 242 194 136 105 
310 633 365 82 78 98 
196 817 248 180 130 99 
201 970 246 159 125 92 
206 357 165 101 116 132 
240 93 301 156 125 107 
344 343 177 126 87 81 
354 169 228 102 80 76 
264 609 337 38 64 88 
154 376 169 86 113 138 
155 247 214 129 54 38 
164 768 299 67 54 45 
223 386 253 43 83 120 
227 987 262 149 117 86 
232 752 371 147 145 151 
157 241 213 126 66 52 
317 426 284 101 93 118 
299 592 218 155 160 182 
245 25 260 128 116 112 
314 740 383 153 170 191 
157 240 214 121 46 38 
206 360 254 102 122 143 
182 702 316 90 105 123 
113 663 134 96 112 130 
245 874 262 101 44 16 
268 219 147 101 83 91 
312 694 422 173 122 101 
166 755 166 182 154 131 
229 662 342 64 94 119 
265 92 261 113 96 78 
306 742 395 121 142 192 
159 241 212 130 70 60 
264 732 230 134 88 55 
413 416 271 116 133 154 
188 615 201 139 142 153 
309 649 247 77 97 115 
185 638 243 68 81 100 
140 735 254 115 89 71 
146 473 208 106 117 135 
182 419 161 29 57 85 
321 567 286 148 183 216 
159 247 211 129 72 58 
331 691 383 129 139 156 
225 725 360 91 106 127 
257 9 232 116 99 85 
223 357 156 119 48 59 
157 245 212 123 54 34 
412 455 232 136 155 178 
190 572 282 122 145 171 
278 203 149 134 46 57 
311 632 360 172 170 175 
250 812 369 203 33 62 
428 160 238 104 80 75 
187 573 156 100 132 172 
371 234 233 114 56 72 
282 707 251 206 82 70 
431 236 238 115 40 70 
239 514 326 90 103 121 
413 454 260 134 152 178 
299 625 283 68 64 67 
284 681 241 197 137 40 
182 758 338 174 46 67 
153 240 218 96 49 30 
243 208 155 97 37 40 
130 652 86 127 143 183 
146 629 129 29 74 117 
244 137 281 124 110 98 
186 744 188 119 89 62 
207 531 315 86 115 152 
225 604 331 164 161 166 
191 510 302 95 116 141 
202 801 349 91 119 147 
375 160 216 101 57 75 
317 577 287 156 106 102 
261 291 226 139 139 145 
368 335 185 128 120 121 
303 625 264 160 108 101 
367 180 221 65 65 79 
330 566 221 190 199 217 
227 890 337 183 143 116 
146 517 196 127 135 148 
232 873 254 101 78 52 
262 731 223 82 114 149 
227 602 174 69 68 69 
277 441 306 128 134 145 
181 942 296 137 108 78 
251 90 297 145 104 87 
206 137 272 164 61 7 
171 779 314 137 130 129 
337 433 280 124 103 90 
266 829 332 134 132 133 
271 697 401 66 89 114 
221 680 203 81 83 89 
265 201 269 102 44 57 
315 304 247 92 117 142 
379 340 186 135 78 82 
155 766 285 107 90 75 
356 232 218 101 32 39 
186 427 160 35 61 86 
223 657 338 129 128 132 
314 474 158 117 139 169 
154 245 216 122 54 27 
303 656 272 124 126 134 
233 733 200 173 165 164 
256 848 304 144 112 86 
168 175 256 110 99 90 
168 704 291 131 145 163 
183 678 142 203 148 108 
191 607 257 87 113 147 
384 452 286 172 171 177 
149 659 132 35 72 111 
256 789 386 139 153 202 
107 670 115 102 124 161 
321 565 295 104 112 142 
155 251 213 109 57 51 
307 603 308 171 118 109 
349 551 229 203 206 218 
157 467 225 117 123 136 
376 252 231 95 81 84 
136 739 232 88 79 72 
218 223 243 84 56 78 
160 692 248 112 124 138 
153 253 215 88 71 84 
305 528 324 57 105 140 
338 450 289 102 122 148 
245 751 381 108 127 149 
336 560 275 206 203 209 
191 458 144 84 111 141 
200 859 312 157 118 90 
202 83 315 154 139 128 
410 452 268 101 121 160 
223 677 202 81 82 88 
284 376 149 151 27 61 
164 669 137 58 66 98 
262 717 416 181 173 174 
175 682 140 141 29 61 
267 142 191 90 74 62 
313 258 168 82 108 134 
390 146 211 200 60 11 
309 753 366 136 145 184 
179 901 253 75 59 45 
218 843 322 143 109 84 
396 173 213 79 79 95 
195 582 159 64 92 117 
260 394 278 46 80 111 
186 372 175 122 127 137 
158 251 211 126 58 43 
214 634 322 148 150 160 
265 681 194 151 63 20 
177 466 140 102 126 170 
318 578 290 157 108 103 
301 573 333 101 90 82 
263 724 213 210 176 140 
314 668 259 147 160 179 
275 480 162 50 86 182 
315 604 350 147 104 83 
259 883 330 194 143 122 
291 630 345 36 70 132 
177 575 180 113 105 109 
279 696 386 121 128 139 
286 667 434 117 95 73 
225 243 238 70 111 145 
312 579 246 142 165 194 
341 325 254 137 17 55 
142 704 124 192 19 68 
419 212 223 116 104 114 
145 256 237 64 42 38 
184 576 270 214 194 181 
191 495 298 179 167 163 
196 638 166 88 113 156 
147 496 223 79 103 133 
184 328 180 82 106 130 
321 711 354 71 110 165 
169 277 265 117 149 178 
345 541 213 185 193 213 
123 702 174 114 62 35 
383 484 212 146 158 180 
220 557 153 139 148 170 
124 727 146 162 152 147 
166 301 200 119 86 47 
261 163 147 87 68 92 
310 734 396 210 206 211 
169 438 243 92 109 144 
258 890 260 99 73 51 
148 778 276 161 153 152 
156 254 212 94 75 84 
156 254 213 93 73 85 
309 572 259 67 108 142 
322 665 373 141 145 155 
339 469 295 102 127 154 
261 139 205 101 82 66 
430 242 221 133 69 87 
190 539 148 56 88 154 
183 7 559 120 110 100 
395 378 196 91 110 141 
264 184 275 61 40 40 
152 249 218 103 66 57 
211 622 309 159 156 161 
321 355 262 177 151 125 
260 191 148 107 36 45 
129 755 180 170 153 140 
238 426 291 89 110 133 
182 611 133 59 101 140 
370 499 299 109 127 168 
308 582 242 142 164 191 
183 894 291 100 80 64 
146 244 256 79 88 101 
318 251 178 75 67 69 
153 252 216 90 79 91 
291 721 427 170 167 211 
243 17 303 68 60 51 
216 677 171 143 124 131 
286 21 309 162 146 140 
334 298 182 96 103 112 
170 396 161 56 94 130 
314 692 265 152 175 201 
225 242 168 54 82 108 
331 704 387 119 130 167 
143 255 250 79 73 71 
302 673 293 80 100 131 
243 85 265 93 76 57 
180 780 205 190 141 104 
147 228 231 90 38 48 
310 650 242 123 105 99 
394 211 211 50 51 62 
308 542 320 72 104 140 
359 298 252 143 135 130 
337 366 262 173 150 130 
341 146 228 113 87 48 
427 240 218 132 63 81 
310 680 322 97 115 156 
277 439 305 131 137 149 
393 269 227 85 108 129 
328 565 217 143 154 195 
289 461 309 77 98 138 
253 19 314 58 54 51 
150 225 225 94 46 50 
338 347 256 143 12 57 
262 598 190 94 108 125 
201 660 139 116 158 195 
320 158 245 130 68 4 
260 951 316 88 70 56 
275 147 191 89 74 59 
197 642 199 104 55 57 
210 624 303 157 153 156 
405 365 259 141 135 133 
422 258 217 152 76 11 
334 210 215 48 50 62 
176 585 199 78 95 110 
300 587 358 113 98 86 
400 476 226 196 191 195 
242 577 333 114 149 183 
249 820 318 161 131 103 
267 578 185 139 153 173 
284 673 401 109 118 130 
413 373 267 160 89 45 
294 257 160 113 77 72 
386 154 214 107 82 93 
406 398 270 145 133 125 
305 177 219 115 64 37 
404 309 199 123 133 148 
216 879 243 65 53 41 
376 142 213 138 55 5 
271 394 145 175 148 119 
149 226 228 88 27 46 
346 513 202 124 142 180 
333 434 171 96 114 134 
253 794 284 168 158 154 
218 405 270 83 104 134 
313 205 205 55 55 62 
272 727 423 188 193 205 
192 880 307 134 94 78 
184 501 287 69 102 132 
327 228 255 153 101 91 
250 42 329 102 84 77 
239 729 362 107 113 124 
276 150 201 84 70 56 
281 218 152 140 105 90 
377 373 255 169 145 120 
255 264 234 84 100 126 
266 725 222 214 173 122 
149 231 227 97 39 52 
296 354 256 162 139 116 
140 783 258 48 102 140 
262 262 239 127 116 107 
218 911 231 49 43 40 
280 22 321 134 122 115 
345 478 190 136 149 168 
244 250 237 155 152 158 
150 230 225 87 39 44 
150 231 224 86 42 45 
242 452 153 153 86 87 
155 513 184 53 82 113 
393 472 216 117 132 161 
378 395 188 111 127 157 
307 405 282 121 107 95 
316 634 351 89 126 165 
220 671 341 77 81 89 
275 347 240 84 104 124 
152 402 223 91 107 131 
407 152 217 127 122 120 
272 563 331 91 136 172 
148 230 229 92 44 46 
293 754 402 122 139 200 
248 781 386 155 155 191 
383 357 184 145 105 103 
322 576 224 210 214 225 
329 181 225 40 57 73 
251 163 274 136 31 27 
306 202 203 57 51 55 
147 225 235 86 37 53 
249 943 327 102 81 69 
174 641 147 37 56 81 
360 372 260 174 148 122 
147 227 233 90 44 44 
187 703 174 90 103 118 
202 935 242 121 92 63 
139 621 106 130 138 149 
274 901 282 76 61 44 
164 617 135 128 133 144 
263 26 281 102 93 88 
162 449 166 143 152 174 
242 451 153 141 21 32 
327 564 277 126 131 155 
236 780 247 210 155 128 
229 811 272 161 107 87 
213 737 359 115 119 140 
233 669 346 102 117 136 
389 428 278 158 160 169 
153 350 226 138 138 145 
138 770 188 194 135 102 
147 226 238 92 49 76 
147 226 239 90 53 79 
399 475 223 150 160 179 
273 459 154 62 108 183 
296 502 316 147 155 168 
422 266 232 135 132 136 
179 892 283 80 64 52 
149 229 258 55 45 68 
215 213 245 108 36 30 
225 956 315 108 86 73 
255 775 393 123 152 206 
344 555 272 209 209 219 
147 230 232 96 40 52 
382 344 185 140 94 93 
324 151 239 130 72 18 
267 346 149 165 141 115 
153 454 195 130 132 146 
330 377 264 185 159 134 
261 756 405 151 163 200 
171 666 283 145 155 170 
197 890 235 53 42 40 
147 228 237 89 32 30 
410 179 224 95 94 99 
294 675 443 166 119 99 
292 728 259 179 115 59 
150 649 93 148 153 174 
210 616 144 105 94 85 
210 767 360 157 166 182 
376 467 206 96 118 160 
185 670 134 163 138 125 
126 755 204 195 181 174 
120 628 101 79 101 122 
222 351 239 104 71 26 
420 348 263 179 156 134 
195 533 305 165 161 166 
272 616 185 93 88 86 
197 909 231 67 52 43 
251 746 369 46 45 70 
148 225 232 97 50 55 
179 882 284 86 66 52 
244 932 335 194 144 117 
145 718 194 64 37 31 
221 662 151 169 134 151 
314 472 158 86 112 155 
301 688 250 167 144 119 
125 643 128 74 100 125 
261 14 310 41 39 37 
404 391 268 146 136 133 
155 723 208 70 44 36 
282 638 395 136 107 86 
183 935 313 94 73 59 
214 752 363 139 142 152 
249 798 380 178 194 217 
283 334 151 178 149 118 
132 770 237 145 134 127 
147 235 231 94 54 38 
269 724 422 133 141 184 
278 690 219 114 42 47 
305 647 337 96 119 149 
182 144 272 87 68 49 
274 648 189 128 110 95 
114 704 140 136 160 181 
329 697 368 118 133 170 
330 208 214 43 46 68 
255 956 266 98 75 58 
233 351 152 125 26 33 
197 334 172 135 131 130 
421 257 216 152 75 8 
210 286 173 82 112 139 
294 618 304 83 102 155 
202 753 354 157 160 172 
150 531 198 67 86 137 
277 655 404 90 118 151 
292 153 264 144 73 11 
343 464 183 128 141 163 
287 805 352 183 49 63 
227 402 153 112 129 151 
188 139 276 133 61 8 
303 639 317 99 122 157 
285 769 309 69 61 60 
217 382 157 170 146 120 
254 294 154 142 132 125 
386 440 206 107 128 165 
235 709 188 168 135 101 
154 386 185 60 93 138 
409 382 208 114 126 150 
299 777 366 153 175 201 
238 697 353 116 121 131 
294 759 311 192 157 108 
343 543 254 147 171 211 
203 422 165 36 68 97 
230 250 165 114 85 66 
142 287 229 95 92 89 
191 757 345 140 152 168 
148 232 228 85 29 36 
123 634 91 50 68 87 
313 715 290 96 136 169 
293 393 280 134 121 112 
148 234 228 76 24 34 
275 565 182 104 130 168 
314 628 346 69 88 114 
188 862 300 138 100 73 
304 748 392 125 136 184 
203 228 253 120 32 66 
353 304 192 104 44 36 
220 979 242 222 197 165 
302 612 249 137 140 149 
409 184 222 87 72 85 
243 110 291 157 118 93 
394 482 222 197 188 190 
302 666 435 123 94 68 
207 773 216 194 140 106 
250 787 385 135 134 189 
149 238 224 90 48 32 
279 660 403 93 115 140 
149 239 224 92 40 37 
285 218 272 54 41 53 
173 684 289 52 91 122 
263 140 203 95 79 64 
275 146 186 92 74 58 
253 630 170 170 126 106 
236 692 183 128 55 54 
259 746 240 186 177 177 
148 237 228 90 41 39 
263 548 174 111 133 186 
183 318 183 93 71 64 
256 722 392 56 93 126 
316 646 364 167 165 170 
159 317 255 133 127 125 
138 730 142 175 155 153 
407 360 202 132 140 154 
364 190 227 116 50 66 
225 480 157 98 116 139 
136 753 251 119 101 83 
320 686 413 96 100 122 
187 501 294 145 143 148 
177 630 244 96 102 120 
206 622 291 140 141 149 
147 234 235 99 52 36 
280 680 212 187 176 175 
357 393 263 159 118 60 
254 22 324 71 67 64 
206 661 157 129 133 144 
168 420 158 97 117 138 
193 914 237 76 53 30 
403 482 264 40 71 157 
146 232 239 92 40 35 
153 374 188 84 108 145 
279 793 381 145 167 213 
181 775 199 176 133 99 
165 685 149 104 108 117 
212 975 242 186 135 88 
227 105 272 76 64 52 
146 235 237 96 36 28 
356 330 255 182 155 127 
198 840 314 203 152 124 
271 724 248 156 133 107 
244 29 259 115 104 98 
178 418 151 119 129 143 
152 684 151 34 44 63 
287 132 240 119 103 90 
263 927 262 91 75 65 
199 556 307 128 142 163 
199 755 202 186 134 97 
257 276 230 153 152 158 
219 99 281 80 65 48 
258 607 191 74 82 91 
242 804 284 175 145 121 
189 564 283 121 135 160 
157 473 226 142 144 152 
386 507 240 124 136 193 
336 381 267 164 138 112 
274 187 147 50 45 60 
151 343 224 109 120 143 
199 509 150 87 92 109 
267 186 145 50 41 55 
265 612 193 63 68 76 
351 337 257 174 150 127 
201 688 173 75 98 137 
206 153 261 45 52 102 
320 559 210 120 155 201 
215 387 157 177 152 126 
228 488 157 142 147 158 
185 877 300 151 115 88 
175 652 272 107 113 124 
274 934 303 123 93 77 
237 678 178 155 105 91 
201 660 137 95 144 182 
422 414 229 61 91 147 
236 291 160 120 118 120 
324 528 198 162 168 190 
275 636 340 56 85 118 
108 685 136 143 146 155 
228 329 230 100 117 137 
361 211 238 124 90 75 
164 335 257 179 140 88 
266 679 195 142 55 53 
255 41 327 90 65 56 
147 224 240 83 38 62 
327 442 162 107 128 157 
213 857 255 118 94 66 
247 19 289 94 83 76 
256 183 150 48 38 51 
200 571 299 110 128 159 
384 445 284 94 122 154 
191 629 212 146 147 155 
278 189 276 98 65 95 
117 720 174 124 107 91 
352 537 301 120 153 188 
328 357 165 167 143 118 
278 540 174 170 179 204 
302 272 257 120 143 167 
210 503 151 118 124 138 
190 458 143 96 119 145 
325 388 161 144 58 3 
152 362 206 111 129 150 
153 635 102 99 87 76 
413 457 242 116 134 177 
412 315 203 143 145 153 
185 609 204 88 110 135 
122 628 105 60 90 115 
284 530 329 176 174 180 
210 905 331 156 120 98 
136 649 131 89 106 133 
164 409 162 82 113 158 
176 646 106 192 183 184 
333 212 252 101 108 119 
311 151 246 121 79 40 
181 925 257 130 99 75 
322 490 308 113 131 152 
256 724 404 160 160 168 
320 608 359 147 105 81 
201 697 183 41 47 56 
187 615 211 103 115 133 
226 988 275 128 99 74 
265 45 324 145 109 84 
219 399 266 85 105 134 
405 444 217 134 147 168 
396 438 211 165 165 174 
365 401 179 92 119 147 
289 394 148 193 160 124 
225 289 229 92 62 76 
215 98 301 165 114 79 
169 532 269 99 114 142 
132 634 98 80 76 74 
338 556 271 209 208 216 
184 706 194 101 109 120 
281 664 402 104 113 133 
314 682 422 164 113 85 
242 430 295 69 99 130 
302 610 276 121 130 152 
194 584 160 92 117 141 
174 674 258 77 99 120 
198 441 161 65 81 99 
291 370 147 129 20 36 
228 927 336 168 136 113 
148 225 246 92 44 63 
211 762 362 144 153 175 
201 325 254 107 108 120 
148 727 209 85 73 61 
180 325 184 85 100 116 
341 413 275 150 77 29 
148 226 246 100 54 68 
316 589 276 168 114 110 
261 654 161 134 170 205 
177 743 331 99 82 117 
130 667 92 132 142 207 
375 457 204 182 176 181 
428 175 221 53 71 87 
317 442 156 73 100 140 
253 6 565 138 131 129 
195 628 124 99 86 73 
257 167 149 33 70 110 
199 331 257 127 50 84 
265 926 265 88 72 61 
311 174 256 75 102 125 
191 632 261 144 142 146 
350 490 197 104 138 178 
149 224 250 91 47 66 
305 230 163 111 95 88 
148 474 184 77 102 131 
292 707 252 147 35 32 
223 839 325 124 97 76 
213 770 362 153 167 188 
148 227 248 92 45 57 
304 154 230 98 67 52 
169 547 267 108 139 169 
411 163 228 68 78 91 
316 636 357 95 118 157 
306 695 299 130 146 166 
252 678 182 165 110 123 
366 427 186 78 106 150 
307 664 431 128 98 68 
331 702 381 191 191 201 
375 519 227 207 213 228 
306 653 268 102 67 82 
386 393 194 65 104 140 
149 224 255 99 44 55 
318 141 239 103 91 83 
270 774 395 149 158 210 
234 268 231 113 133 155 
167 742 161 164 153 150 
425 345 262 176 154 134 
211 686 179 90 103 118 
257 260 154 119 109 104 
285 520 323 120 132 148 
148 769 172 225 156 114 
305 652 236 77 52 136 
318 245 189 105 93 89 
148 228 249 95 49 66 
278 694 437 136 156 190 
262 10 228 116 96 80 
185 756 343 132 109 105 
117 716 173 92 82 77 
176 905 260 79 62 48 
299 419 291 89 108 133 
310 724 317 159 177 200 
304 648 254 79 86 100 
318 485 168 95 113 164 
397 182 210 102 52 49 
293 276 161 74 110 141 
153 457 196 150 147 150 
264 710 394 115 120 129 
155 299 255 102 139 172 
289 216 271 75 41 58 
225 834 256 152 120 89 
170 605 223 62 88 136 
149 228 252 93 47 66 
308 696 284 132 150 171 
345 555 286 114 146 193 
412 221 219 145 80 83 
149 228 255 88 47 63 
367 421 186 67 98 146 
384 478 212 184 183 192 
385 444 283 100 123 151 
301 502 161 127 144 186 
257 487 158 156 165 193 
276 6 563 120 120 120 
318 735 376 210 204 207 
276 449 309 113 128 147 
183 376 259 79 111 163 
274 11 294 87 70 54 
143 508 214 130 138 151 
199 199 261 95 51 89 
146 233 240 91 42 31 
146 233 241 91 41 29 
305 721 270 131 49 65 
186 919 320 90 71 55 
219 643 137 87 106 122 
203 214 254 134 23 44 
206 634 296 71 122 161 
149 760 163 99 153 193 
147 233 243 95 39 27 
212 713 351 91 114 142 
170 178 259 95 87 80 
206 686 167 101 85 115 
308 650 260 78 113 144 
208 633 182 61 118 161 
367 263 241 134 123 125 
393 477 284 130 146 167 
157 631 112 97 87 78 
248 839 291 94 76 57 
117 726 169 151 132 118 
147 768 171 223 155 112 
299 627 276 69 68 83 
251 734 394 147 154 167 
154 411 180 87 109 141 
303 670 278 115 126 142 
147 232 247 93 43 55 
144 503 206 128 133 143 
230 412 152 159 60 0 
146 235 244 68 39 43 
169 827 255 209 157 124 
147 234 244 95 54 40 
239 123 262 124 99 81 
297 372 155 147 124 99 
177 927 278 91 70 55 
229 350 154 129 40 53 
320 630 377 146 105 77 
345 346 258 131 18 60 
185 872 298 149 114 86 
260 929 330 198 147 125 
235 99 264 94 74 51 
286 806 358 172 67 74 
329 345 257 129 70 92 
262 503 160 147 162 202 
146 236 243 72 45 56 
146 237 242 69 44 54 
297 200 183 67 59 55 
287 205 154 138 61 66 
383 297 238 122 128 138 
301 637 286 82 116 146 
162 739 293 138 78 86 
189 426 162 49 76 103 
246 645 161 67 82 97 
376 220 225 47 64 98 
196 310 255 112 20 43 
304 768 358 133 165 197 
421 261 231 132 122 117 
329 257 195 121 121 125 
171 297 196 101 112 125 
290 270 256 120 135 156 
373 244 232 81 83 101 
153 445 221 105 118 143 
381 514 245 129 142 191 
147 236 247 45 52 86 
353 301 193 92 77 66 
192 350 172 104 117 132 
342 220 250 139 115 108 
179 401 171 23 66 97 
336 552 251 110 147 191 
197 582 159 93 110 128 
207 274 240 149 146 150 
321 632 394 131 100 67 
238 861 332 172 129 105 
302 610 262 97 116 149 
299 619 291 60 76 146 
206 556 152 100 117 137 
408 436 218 176 173 179 
330 420 279 112 99 89 
274 24 286 145 128 120 
253 788 275 57 82 106 
146 327 201 116 136 157 
251 674 345 74 93 115 
130 743 217 120 102 84 
259 79 262 103 87 69 
159 483 233 145 144 149 
272 348 239 103 115 130 
231 318 157 143 140 142 
187 627 154 74 104 134 
248 666 343 51 79 113 
292 673 369 52 72 148 
315 619 391 125 99 69 
193 660 288 80 116 145 
321 214 257 103 93 105 
414 302 241 126 133 145 
220 195 246 39 40 59 
184 543 287 138 144 161 
382 218 205 116 45 36 
276 682 407 41 66 115 
370 519 219 165 175 193 
384 256 214 136 140 148 
204 329 251 129 59 83 
285 216 272 96 37 51 
367 181 221 62 52 68 
247 716 193 166 131 99 
147 239 250 31 43 81 
212 742 202 166 119 81 
191 267 256 144 138 138 
321 722 396 159 176 201 
310 711 313 125 149 177 
217 578 157 131 149 185 
180 142 264 78 61 41 
155 381 208 58 92 131 
234 616 152 104 94 86 
432 263 228 156 101 81 
178 636 108 85 76 69 
397 389 202 105 135 164 
272 308 227 95 120 145 
291 739 414 166 179 218 
119 711 133 122 14 48 
179 351 262 148 45 92 
415 384 213 112 128 152 
277 344 151 188 160 130 
196 613 267 144 144 151 
152 740 278 96 107 119 
313 709 288 112 140 168 
148 233 250 53 53 88 
135 778 222 179 131 97 
369 191 222 131 42 63 
149 305 245 150 159 175 
236 840 263 149 116 84 
186 622 233 88 101 117 
224 328 158 142 139 142 
236 916 340 189 150 122 
183 277 262 139 136 139 
257 646 174 85 95 108 
435 299 237 89 130 164 
429 194 232 55 93 128 
224 988 253 117 69 51 
221 660 338 135 133 137 
310 266 165 83 115 143 
300 710 265 129 49 52 
242 46 288 85 73 63 
228 498 154 111 124 141 
336 171 241 131 91 78 
162 764 297 94 83 82 
426 225 215 108 68 83 
195 823 328 210 181 155 
296 763 319 138 26 23 
395 349 191 170 133 89 
246 934 332 172 128 107 
258 283 228 128 127 132 
147 240 228 95 59 41 
227 253 167 102 68 48 
408 418 215 105 128 159 
143 731 220 68 66 67 
190 585 272 172 166 169 
170 644 265 121 131 144 
417 228 208 138 34 35 
330 409 162 134 123 118 
379 346 184 136 87 87 
328 569 244 145 171 204 
240 334 230 107 118 132 
280 684 226 146 136 131 
246 833 304 81 67 53 
201 279 245 145 141 144 
318 447 156 126 134 155 
262 615 178 110 98 89 
147 242 231 50 31 52 
147 243 230 69 56 71 
147 243 231 64 61 76 
193 914 238 95 71 47 
276 877 273 133 107 80 
250 662 162 115 162 207 
411 294 234 106 121 139 
188 661 227 56 79 99 
268 755 407 208 207 222 
273 294 229 95 116 138 
178 181 274 123 64 78 
254 940 325 117 91 78 
217 411 273 83 107 140 
301 280 253 171 164 165 
153 355 183 85 118 146 
234 43 304 95 72 57 
147 244 229 54 42 54 
162 442 165 182 178 181 
206 649 205 119 125 137 
212 565 316 170 166 169 
216 977 296 161 134 110 
279 354 149 151 129 107 
278 6 562 120 120 120 
224 596 329 84 107 132 
345 546 248 112 150 194 
146 246 229 47 68 89 
206 828 331 139 101 66 
146 247 229 25 42 72 
247 47 323 112 96 82 
163 461 165 110 116 125 
314 536 196 200 198 203 
323 655 397 145 102 72 
152 402 221 63 92 127 
321 719 356 109 131 181 
185 618 150 44 63 99 
165 546 160 123 138 162 
216 589 164 58 69 79 
361 261 213 83 108 134 
243 548 163 125 138 162 
319 269 255 170 166 169 
158 552 196 153 148 150 
157 415 191 75 103 131 
329 346 166 157 136 115 
186 925 248 82 60 39 
249 303 222 81 125 160 
265 303 151 125 29 53 
275 741 260 91 81 86 
261 739 232 198 174 153 
198 312 174 130 130 135 
348 526 308 140 158 181 
188 876 246 105 80 63 
307 737 319 155 170 189 
171 688 288 66 113 149 
148 245 224 73 19 41 
232 709 186 171 139 100 
289 401 148 189 153 110 
253 211 152 82 42 37 
316 682 343 76 118 150 
368 467 292 133 146 166 
181 508 284 110 124 141 
333 521 199 156 164 182 
188 485 139 107 135 169 
205 594 167 54 73 90 
219 729 359 123 128 141 
276 593 192 102 122 160 
288 385 275 135 118 104 
255 278 229 137 138 146 
347 367 265 173 145 114 
284 305 232 72 112 144 
224 568 157 160 166 180 
162 696 238 85 35 38 
170 677 142 109 106 119 
251 873 262 115 91 61 
348 498 199 144 157 182 
160 200 269 109 92 89 
229 114 273 99 78 61 
299 613 315 88 107 162 
253 89 297 149 108 94 
259 714 406 103 121 150 
367 513 214 123 145 177 
290 324 236 141 139 143 
145 242 238 34 48 85 
381 207 213 96 43 47 
171 792 311 145 126 110 
173 844 288 198 150 123 
298 597 369 119 101 85 
294 662 359 55 98 137 
294 130 238 131 118 107 
289 527 169 145 160 205 
149 654 135 60 83 112 
296 652 360 47 118 164 
405 366 259 121 126 136 
146 241 239 40 53 86 
146 242 236 49 62 88 
179 806 322 160 138 118 
259 912 335 178 136 110 
303 514 171 161 169 187 
201 441 164 43 64 83 
240 706 189 144 113 79 
257 637 180 58 52 50 
199 375 166 149 127 105 
321 668 378 119 141 165 
213 538 318 143 155 173 
164 820 286 190 148 120 
312 625 355 72 114 148 
168 587 207 131 141 162 
308 339 168 121 49 60 
188 887 315 165 119 93 
290 658 221 200 144 81 
128 745 162 188 156 121 
258 26 250 111 93 104 
154 723 209 71 43 39 
372 361 252 141 79 70 
223 618 330 151 153 162 
344 294 249 165 163 168 
150 709 249 67 69 69 
216 656 132 113 141 170 
304 734 410 140 144 180 
274 796 382 151 181 213 
289 283 161 147 139 135 
256 372 255 90 104 119 
145 523 201 40 61 98 
294 743 410 105 119 202 
269 78 288 112 90 68 
221 832 256 156 120 86 
324 566 254 172 171 179 
128 675 95 177 198 229 
145 245 239 36 55 83 
273 701 391 104 109 118 
238 466 158 88 111 165 
401 480 272 188 185 191 
176 714 320 87 112 136 
265 198 145 113 45 47 
272 149 279 145 101 57 
407 334 196 144 137 136 
354 523 305 138 160 199 
321 435 158 133 142 159 
177 587 196 66 96 120 
382 414 197 121 139 163 
148 487 185 130 138 154 
147 249 225 88 64 85 
407 326 197 143 151 164 
136 629 121 99 111 126 
274 465 314 165 161 164 
411 331 200 134 138 148 
272 12 236 120 100 86 
132 709 189 61 32 36 
259 81 262 105 88 70 
377 513 225 158 164 187 
393 397 266 141 127 116 
152 547 219 75 102 147 
114 646 121 87 108 128 
130 765 228 155 134 119 
176 677 236 59 41 36 
288 342 153 167 142 115 
352 391 265 171 146 119 
312 685 427 166 114 87 
146 249 228 67 62 90 
322 449 290 74 110 144 
324 485 180 166 167 181 
261 231 149 113 53 54 
398 164 213 44 72 113 
259 317 152 120 87 53 
253 56 317 123 85 73 
370 482 296 106 130 164 
177 325 187 112 101 98 
335 458 176 106 132 167 
332 294 248 101 128 155 
292 170 268 105 57 71 
416 391 215 87 122 154 
146 251 231 61 57 85 
231 988 280 158 129 100 
371 491 298 157 163 177 
147 253 224 79 39 78 
142 628 112 55 65 79 
255 595 339 76 63 84 
144 718 257 102 53 63 
213 843 318 119 90 67 
191 555 292 136 148 168 
315 595 306 175 119 111 
260 58 271 101 82 61 
147 254 224 92 60 90 
240 703 188 159 124 85 
190 937 321 141 119 100 
215 851 327 156 120 92 
317 490 310 103 126 153 
316 719 404 148 166 193 
193 469 143 86 116 151 
417 295 209 94 124 151 
321 485 172 104 123 170 
398 407 272 127 99 117 
154 373 231 44 85 127 
147 712 185 47 22 28 
189 899 234 82 64 45 
338 271 249 150 147 150 
137 780 210 189 134 100 
146 252 228 85 56 76 
251 926 336 201 147 124 
251 21 260 118 98 94 
245 28 325 92 78 64 
205 493 308 134 141 155 
176 699 310 91 113 135 
306 652 319 93 121 155 
330 178 248 122 108 98 
