ply
format ascii 1.0
comment Created by CloudCompare v2.11.1 (Anoia)
comment Created 2/28/22 9:41 PM
obj_info Generated by CloudCompare!
element vertex 2009
property float x
property float y
property float z
property uchar red
property uchar green
property uchar blue
end_header
372 140 185 111 83 70 
282 707 251 197 59 16 
198 541 147 151 156 180 
260 143 149 132 116 102 
253 344 239 98 111 127 
201 330 174 90 87 92 
371 479 200 188 183 186 
209 641 308 95 89 108 
244 888 333 85 60 54 
335 480 184 131 148 177 
309 191 202 102 50 45 
315 576 332 157 115 100 
417 180 191 46 76 109 
310 680 283 129 146 166 
311 486 172 173 176 190 
263 83 267 113 95 76 
312 318 170 104 114 126 
354 198 222 68 48 78 
334 178 243 84 82 89 
278 532 331 131 140 155 
195 566 308 166 168 179 
320 563 309 88 90 111 
197 960 303 101 78 61 
288 446 148 95 94 127 
281 689 234 123 103 90 
217 655 125 90 115 153 
252 343 239 99 113 129 
309 310 168 111 121 134 
245 538 332 124 136 154 
295 378 291 128 78 19 
335 476 300 115 135 160 
214 777 218 198 143 110 
229 64 279 92 73 50 
319 285 183 102 111 122 
303 669 290 133 145 162 
168 692 235 90 98 108 
269 21 241 150 100 93 
237 575 165 126 138 156 
304 662 280 84 86 94 
321 392 165 140 77 10 
290 240 158 119 21 47 
218 108 227 89 76 64 
344 204 224 99 38 58 
164 697 159 63 79 94 
254 30 330 140 128 122 
226 386 269 48 81 119 
275 511 328 131 139 154 
273 230 276 31 61 121 
312 435 307 67 100 147 
219 111 227 90 75 58 
256 133 287 127 99 72 
263 632 391 119 97 79 
221 104 224 93 78 63 
433 330 214 90 126 155 
299 335 155 120 24 47 
189 73 267 132 97 84 
220 106 224 91 77 61 
289 772 356 137 160 183 
305 636 366 50 90 127 
166 692 124 101 87 77 
240 772 236 202 148 115 
167 283 205 111 34 47 
171 376 182 80 94 108 
160 695 242 98 111 126 
354 184 220 63 44 46 
271 359 253 111 104 102 
298 325 156 121 20 43 
301 560 328 63 89 115 
276 629 373 70 92 127 
246 489 161 113 127 183 
221 967 238 103 82 59 
315 573 329 140 107 92 
227 457 304 71 96 120 
198 609 273 140 139 145 
149 452 207 96 112 137 
262 566 331 97 109 134 
370 527 282 101 128 186 
270 405 295 52 82 114 
164 452 234 75 105 144 
284 676 218 56 32 34 
410 291 205 97 122 146 
291 728 263 137 93 66 
213 874 248 73 62 51 
222 346 242 145 106 58 
238 772 398 84 124 196 
414 298 204 99 136 169 
326 381 177 75 84 103 
311 656 373 86 117 159 
131 639 78 46 63 92 
174 568 189 60 103 133 
242 501 328 113 128 146 
272 554 335 69 90 112 
407 361 251 116 113 120 
156 197 257 66 37 34 
373 524 277 119 138 184 
256 702 190 65 43 43 
219 111 239 57 46 36 
379 208 206 96 45 55 
232 830 348 138 122 115 
150 503 200 136 139 147 
297 500 323 138 147 162 
195 171 267 50 40 52 
246 721 379 69 88 106 
220 714 182 194 151 98 
283 188 150 59 48 76 
223 104 237 93 89 88 
294 203 156 127 59 57 
354 466 297 170 172 182 
220 660 131 133 182 225 
192 902 312 120 77 50 
143 657 78 127 143 192 
175 841 259 188 143 114 
325 365 177 141 123 105 
407 352 211 170 147 124 
241 162 256 126 33 22 
292 655 398 121 83 66 
161 809 281 181 144 116 
186 250 268 99 51 68 
259 392 272 51 79 106 
328 555 310 187 195 212 
249 695 350 67 90 127 
272 611 384 123 103 85 
199 387 164 157 134 109 
150 668 132 71 86 101 
267 803 321 139 133 131 
243 985 274 130 106 84 
223 111 233 119 116 114 
142 769 258 149 137 130 
196 911 324 84 67 55 
314 662 275 160 162 171 
374 388 276 149 136 128 
177 575 258 169 167 173 
363 442 291 126 143 165 
179 147 259 84 67 49 
260 445 151 148 130 113 
309 270 176 93 77 79 
196 588 162 117 130 149 
305 462 313 75 102 129 
324 309 190 66 77 88 
245 554 168 110 128 155 
173 633 259 127 133 144 
223 970 299 124 99 73 
142 281 239 92 81 81 
250 229 249 64 30 32 
304 614 349 79 102 137 
415 166 187 135 78 83 
280 500 170 69 96 167 
296 602 383 124 100 75 
221 110 238 83 78 75 
190 806 338 130 83 56 
183 902 289 87 71 58 
265 951 273 85 68 58 
299 526 327 41 62 107 
256 960 271 108 84 61 
177 782 329 40 33 80 
193 491 298 102 113 129 
339 511 194 161 170 197 
314 292 177 117 122 132 
250 818 370 86 79 146 
314 672 369 147 156 171 
320 324 174 106 114 125 
153 658 127 71 87 112 
255 566 331 83 101 135 
370 154 204 98 84 97 
322 563 307 144 148 162 
165 590 213 91 123 155 
304 604 319 163 112 104 
283 21 306 118 84 61 
218 886 334 182 137 113 
255 372 152 140 122 102 
253 949 252 100 82 71 
373 146 195 133 65 31 
275 716 433 116 152 206 
204 461 272 113 121 133 
161 380 193 62 92 139 
166 797 209 251 179 137 
182 879 257 89 70 57 
220 828 253 159 121 87 
259 328 236 137 138 145 
344 243 216 73 88 104 
318 512 313 98 118 145 
324 342 284 146 39 72 
281 690 436 176 124 101 
200 828 249 140 105 72 
174 468 240 155 149 150 
169 581 218 96 109 125 
182 701 309 132 134 142 
168 815 293 164 143 127 
211 99 249 82 63 47 
378 310 204 107 125 146 
247 258 241 144 145 153 
168 180 261 109 95 80 
252 653 404 110 127 149 
262 627 395 122 100 79 
251 411 284 57 82 108 
207 627 165 47 84 119 
214 810 248 179 122 92 
165 454 147 157 164 178 
210 101 249 81 64 47 
180 453 247 57 85 134 
231 117 270 101 79 62 
354 263 251 110 94 95 
319 202 267 92 84 85 
211 636 323 152 154 163 
192 885 239 94 72 55 
224 668 205 86 88 93 
331 166 229 96 32 29 
201 610 282 144 143 149 
213 96 248 82 62 45 
391 415 202 116 129 156 
270 94 280 119 96 72 
298 130 241 94 74 52 
406 166 192 112 71 62 
412 282 218 93 117 140 
268 925 267 96 81 69 
202 781 215 194 140 103 
322 562 306 150 154 165 
264 12 307 93 82 75 
188 725 163 171 139 100 
206 455 284 85 103 132 
281 370 279 109 97 88 
353 456 294 112 135 166 
154 465 216 136 138 147 
240 818 367 196 29 65 
212 100 248 81 62 45 
392 353 207 182 138 86 
270 695 352 97 122 152 
182 310 187 105 116 129 
156 495 234 67 96 126 
212 102 248 78 61 42 
350 192 234 124 55 66 
219 288 236 83 114 143 
366 164 209 145 45 30 
213 102 248 77 59 40 
357 212 236 84 81 87 
262 134 287 120 96 68 
297 335 262 81 94 108 
287 312 248 73 99 122 
272 890 287 152 118 87 
329 427 181 174 169 175 
239 979 292 120 87 60 
163 740 146 145 111 68 
154 696 108 180 44 51 
211 108 247 69 55 38 
404 394 207 91 125 156 
132 746 171 160 135 109 
188 498 292 129 134 146 
211 111 245 61 50 37 
254 399 274 65 90 114 
284 12 300 122 99 77 
174 535 149 106 133 163 
176 585 237 176 166 163 
313 408 156 96 83 70 
319 223 276 129 82 85 
213 105 246 68 54 40 
257 714 435 141 144 198 
188 332 176 84 106 129 
186 651 101 93 113 148 
289 536 176 140 167 211 
219 776 221 196 144 109 
192 275 257 140 135 137 
353 270 206 81 69 81 
193 851 300 169 124 94 
234 215 246 95 44 44 
356 472 191 75 105 149 
248 945 327 106 86 74 
302 520 180 112 133 179 
286 750 383 108 121 176 
199 118 257 87 72 57 
255 185 273 38 37 43 
318 573 241 141 167 202 
308 572 280 77 61 79 
388 402 202 96 119 145 
229 633 327 80 102 124 
189 654 232 138 136 142 
338 166 228 123 29 30 
380 303 252 139 71 66 
277 657 202 164 99 38 
147 519 206 121 127 139 
279 645 194 100 121 145 
314 669 261 172 183 201 
197 215 265 94 44 45 
193 627 216 135 132 136 
335 423 291 140 128 121 
263 917 334 187 143 118 
153 747 276 143 118 93 
356 352 199 103 120 139 
252 463 322 158 157 163 
184 572 170 97 122 148 
285 208 152 147 60 61 
237 368 257 91 107 126 
227 815 256 153 109 79 
216 371 250 52 74 97 
212 558 317 176 166 165 
275 635 191 132 94 80 
426 150 181 164 75 11 
240 70 309 146 107 101 
176 791 325 161 121 80 
201 574 158 79 85 96 
209 656 118 176 191 216 
266 645 173 56 58 80 
313 184 214 113 51 37 
255 904 339 174 130 106 
262 831 349 66 50 102 
167 685 255 122 134 149 
155 382 227 94 121 145 
294 605 226 180 177 186 
176 678 119 100 72 145 
283 597 380 107 92 80 
254 844 307 148 113 88 
273 426 312 151 149 152 
259 537 332 139 148 164 
214 343 246 154 124 92 
320 556 314 46 59 78 
400 139 180 141 96 64 
233 937 333 153 119 102 
432 364 231 139 124 121 
239 547 163 111 126 148 
306 596 254 73 103 134 
210 107 249 76 61 46 
405 350 247 163 141 118 
226 906 337 180 141 114 
164 820 246 219 162 127 
185 495 274 60 88 114 
248 636 329 49 46 91 
185 539 145 40 85 166 
261 853 283 140 115 95 
272 362 258 84 75 69 
265 675 342 62 88 129 
258 85 295 140 107 88 
225 600 320 98 47 64 
307 223 177 95 87 85 
318 253 200 111 105 105 
176 681 233 105 106 112 
368 145 195 182 67 12 
158 266 213 100 59 50 
347 157 221 127 59 62 
184 900 289 90 73 59 
184 628 143 18 54 111 
289 468 322 174 169 172 
367 533 274 190 198 214 
212 106 248 73 58 42 
261 314 156 114 92 101 
321 262 200 116 114 117 
272 509 329 79 104 134 
384 507 250 142 149 197 
317 533 196 134 156 204 
260 749 239 102 137 168 
148 733 210 59 64 70 
377 356 268 166 140 114 
149 763 161 151 151 159 
168 443 138 94 113 139 
308 684 397 107 124 146 
377 152 183 171 72 14 
393 492 256 135 151 187 
278 785 372 156 169 188 
278 929 298 131 103 82 
349 457 187 128 140 159 
184 314 265 141 87 108 
188 516 141 96 120 171 
146 503 216 154 153 159 
221 953 319 111 89 72 
257 881 263 152 116 78 
279 281 153 145 141 141 
190 486 264 149 144 144 
251 257 243 90 109 130 
201 353 169 103 109 118 
179 763 337 108 45 47 
276 663 348 114 132 160 
242 718 386 36 66 92 
216 100 247 71 55 40 
216 101 246 67 53 39 
216 101 247 69 53 39 
161 797 208 247 173 130 
428 216 213 93 98 109 
275 775 389 159 171 187 
267 190 285 48 53 93 
311 203 277 132 68 68 
214 870 252 84 65 42 
256 304 159 119 51 70 
313 587 344 163 115 102 
340 355 281 139 49 61 
273 608 347 14 46 130 
161 794 197 248 163 123 
269 28 290 79 69 65 
429 250 221 151 148 152 
274 718 239 24 23 39 
302 700 312 128 144 164 
218 100 246 66 52 37 
434 315 228 124 136 155 
223 487 154 110 127 146 
186 744 339 148 144 148 
261 131 165 160 144 129 
378 294 255 165 144 122 
221 99 243 62 53 45 
250 528 167 94 118 145 
281 754 396 173 173 189 
295 625 323 105 126 154 
175 737 157 137 122 110 
195 669 296 75 114 147 
193 582 163 142 146 159 
239 426 152 161 69 0 
196 894 235 79 58 39 
257 739 422 181 187 210 
178 921 274 81 63 49 
262 877 330 183 132 112 
248 665 434 117 97 78 
334 227 263 130 124 123 
270 418 143 158 117 56 
407 138 178 151 104 77 
360 401 196 84 107 135 
282 254 274 125 130 143 
177 405 171 55 84 111 
276 675 346 92 109 149 
280 172 287 124 40 50 
305 569 338 98 88 81 
256 204 158 115 35 48 
266 674 185 182 59 18 
195 668 296 79 122 155 
221 98 244 64 55 46 
144 680 146 87 99 114 
290 652 395 115 78 70 
266 132 165 158 142 128 
182 366 179 130 130 136 
257 178 160 89 85 89 
231 429 154 115 104 94 
184 339 265 169 60 100 
266 621 338 63 81 114 
203 682 330 141 141 148 
188 786 211 200 148 109 
306 551 322 95 116 139 
346 387 282 155 111 53 
238 689 350 74 91 118 
253 879 256 153 106 72 
289 14 289 114 87 61 
410 329 234 104 112 123 
222 100 241 60 52 44 
154 788 189 210 139 111 
222 101 241 59 51 43 
172 696 292 114 123 136 
147 263 230 101 30 39 
256 755 238 198 174 154 
197 665 136 93 128 169 
162 563 192 62 107 143 
308 148 229 87 78 79 
403 425 276 108 130 157 
276 280 251 100 114 130 
317 568 293 84 75 72 
240 925 236 89 70 54 
165 207 272 113 116 136 
316 671 265 141 159 181 
390 490 275 116 137 176 
381 293 248 113 124 138 
142 677 142 45 75 100 
169 645 265 166 166 175 
393 463 283 109 124 161 
146 508 217 98 118 140 
185 640 240 49 79 109 
168 805 299 148 130 115 
325 243 220 71 87 102 
197 675 313 82 113 138 
167 802 219 246 178 138 
191 80 320 126 112 102 
226 271 237 138 142 153 
372 518 222 118 133 187 
303 586 239 174 179 192 
405 312 205 144 157 177 
169 444 161 71 106 141 
306 648 259 69 84 100 
216 576 318 137 136 145 
180 936 308 141 121 102 
152 670 134 70 84 98 
272 755 265 205 196 192 
185 808 233 193 139 102 
227 986 295 151 118 93 
195 625 154 103 121 141 
245 610 166 107 95 86 
183 933 316 91 72 57 
223 555 324 174 169 173 
282 572 192 67 110 164 
185 604 240 69 98 121 
326 553 267 186 189 202 
233 839 325 166 128 100 
133 768 227 161 133 117 
291 627 227 67 47 50 
186 696 159 118 120 130 
155 365 219 99 115 138 
217 111 241 57 47 36 
199 497 149 112 121 136 
180 710 175 95 106 119 
236 46 317 118 103 90 
259 541 332 111 131 154 
368 255 206 84 92 104 
300 714 384 193 188 193 
228 329 167 115 114 116 
343 207 245 127 91 71 
382 451 291 114 136 161 
283 383 289 114 101 91 
325 542 314 117 136 167 
310 330 273 157 137 117 
399 480 247 199 195 200 
303 172 172 99 56 56 
309 340 277 156 136 114 
146 714 182 80 62 39 
204 377 163 148 126 105 
194 686 321 135 137 144 
232 535 158 117 131 154 
158 793 193 235 156 120 
341 232 258 115 32 53 
336 202 226 98 38 53 
124 647 108 48 87 116 
318 409 300 145 127 110 
317 275 278 175 167 168 
257 24 222 140 117 110 
176 586 239 169 161 160 
301 651 282 68 67 104 
158 724 193 75 35 33 
291 221 156 110 102 103 
290 17 301 135 107 87 
158 412 166 126 141 161 
273 915 276 76 61 51 
141 697 104 155 178 207 
190 867 243 151 109 76 
313 347 282 158 136 115 
240 947 244 115 78 57 
346 199 240 124 60 68 
201 936 322 104 88 74 
265 783 295 184 150 110 
321 265 201 111 111 115 
143 788 257 138 142 152 
352 199 222 84 49 69 
277 908 281 66 54 40 
213 116 224 96 80 62 
379 239 229 80 97 116 
278 684 374 40 69 153 
267 437 317 140 143 153 
165 723 291 147 16 36 
252 377 151 121 26 34 
163 415 180 85 102 138 
260 267 159 138 134 134 
258 916 337 180 135 108 
269 898 265 144 116 90 
250 828 359 204 164 129 
287 137 268 84 66 52 
289 636 418 125 97 63 
355 341 275 179 155 132 
191 929 322 126 106 87 
304 719 351 124 145 169 
298 759 349 134 153 175 
215 117 226 92 77 60 
278 432 316 105 118 136 
311 725 296 155 108 121 
355 144 221 145 60 10 
265 873 266 156 122 88 
144 625 94 120 132 147 
233 637 143 101 105 112 
141 780 257 57 104 137 
272 189 287 101 62 94 
284 758 380 143 154 183 
338 443 295 67 95 144 
234 778 392 111 139 192 
256 48 321 153 112 106 
227 953 320 102 82 68 
196 799 347 124 52 78 
322 571 214 135 165 203 
397 137 180 139 90 58 
132 640 78 58 57 75 
171 484 162 129 133 142 
178 889 272 68 54 44 
212 120 225 97 79 59 
124 687 106 159 185 213 
275 895 295 143 115 88 
342 229 256 85 80 93 
347 343 195 127 50 68 
318 163 230 92 71 61 
209 819 250 167 116 84 
232 263 239 149 149 156 
213 122 225 92 73 54 
276 353 254 93 96 103 
178 355 184 70 69 80 
308 559 205 108 120 161 
264 83 269 115 96 76 
185 607 213 96 108 124 
270 687 206 141 124 110 
391 293 204 98 89 112 
326 516 192 177 181 199 
168 290 203 116 120 127 
304 517 324 85 124 155 
239 340 241 112 115 123 
276 192 288 93 62 98 
277 905 314 166 123 98 
175 261 203 68 94 117 
232 928 233 81 62 50 
206 831 330 157 126 105 
147 260 234 96 31 43 
132 715 182 62 45 43 
177 503 263 124 131 142 
374 506 213 125 142 174 
429 375 243 156 42 89 
267 60 294 106 84 59 
200 584 312 156 159 171 
210 636 319 148 149 156 
273 256 261 159 71 9 
279 706 245 180 53 34 
265 691 388 57 78 126 
209 448 162 91 97 105 
269 523 330 87 103 125 
432 362 232 129 122 122 
266 97 271 91 77 64 
189 699 201 82 90 101 
231 971 242 96 74 51 
217 844 257 138 107 75 
379 165 199 65 88 109 
280 593 349 51 41 46 
229 234 244 135 21 69 
218 112 226 94 78 61 
291 472 152 55 95 193 
179 666 254 100 115 133 
286 18 310 147 116 102 
219 112 227 90 73 53 
290 743 378 123 147 171 
373 522 282 78 105 166 
280 360 267 108 94 80 
324 368 171 151 129 107 
244 660 340 106 113 125 
192 469 142 89 113 141 
359 241 242 86 86 100 
172 541 153 108 126 159 
280 789 365 156 173 194 
361 414 283 140 76 88 
294 180 156 68 77 96 
311 693 343 52 66 96 
312 586 350 166 119 107 
325 363 285 172 147 121 
178 817 311 178 161 149 
140 736 245 123 99 73 
172 672 99 75 124 202 
281 486 166 98 120 165 
311 410 155 120 109 103 
233 657 336 55 91 117 
350 430 189 122 130 147 
297 174 159 111 83 75 
383 435 287 87 117 151 
157 544 199 104 120 145 
244 946 243 105 81 55 
211 822 347 116 110 116 
292 639 382 107 82 76 
171 619 247 56 93 123 
403 465 231 139 156 179 
408 337 210 142 160 182 
183 929 316 101 83 66 
240 593 175 80 77 76 
271 649 385 45 77 118 
281 770 309 31 54 134 
222 381 254 48 90 123 
210 441 268 85 108 136 
254 727 428 152 153 204 
223 112 227 91 69 49 
292 752 293 172 144 146 
232 741 369 68 93 122 
413 369 210 174 167 167 
173 419 247 98 111 140 
354 420 284 141 139 143 
245 810 377 122 110 130 
391 278 220 141 142 149 
296 221 159 106 108 116 
221 117 225 130 90 77 
220 116 226 120 82 67 
181 188 272 148 44 73 
214 296 238 139 138 143 
266 737 237 176 140 109 
214 923 332 104 85 71 
358 386 196 111 120 133 
175 783 182 206 153 116 
188 307 263 115 17 41 
349 377 280 181 153 124 
170 711 144 98 68 54 
227 763 381 105 117 157 
410 354 246 154 109 74 
229 812 271 159 104 84 
216 764 371 63 88 138 
279 651 204 182 133 68 
281 502 169 75 101 163 
250 956 253 95 77 66 
256 826 329 166 149 136 
219 112 239 76 70 64 
288 744 390 166 176 198 
219 113 239 73 66 60 
218 114 239 61 55 49 
266 779 289 185 154 124 
241 476 325 157 157 163 
283 332 249 130 130 135 
419 356 210 129 145 167 
341 476 298 110 130 162 
233 489 159 56 86 121 
219 116 239 100 96 94 
243 54 315 127 90 77 
299 728 322 133 160 188 
252 723 430 126 149 201 
159 361 243 155 154 160 
307 215 178 76 87 100 
388 194 199 116 66 75 
203 688 202 77 83 93 
279 786 321 165 154 145 
188 492 281 77 99 122 
356 301 261 153 116 98 
409 250 203 120 127 137 
230 390 157 159 138 118 
124 743 206 156 133 111 
252 406 279 63 87 113 
201 590 162 71 100 126 
167 535 181 92 106 123 
169 812 298 129 124 125 
165 736 146 159 135 115 
281 605 391 105 90 75 
177 860 263 127 95 67 
312 142 233 123 83 48 
266 586 188 105 134 166 
301 662 288 98 113 141 
328 533 314 129 153 182 
305 625 251 167 159 159 
322 142 244 122 108 96 
203 928 238 81 62 47 
283 458 323 93 115 140 
297 133 245 89 68 45 
180 528 286 98 111 129 
215 562 317 184 177 178 
323 376 290 172 146 119 
223 115 237 130 129 131 
248 608 175 76 70 66 
204 247 254 67 106 136 
362 437 289 110 133 160 
171 681 117 122 160 199 
154 704 252 116 66 56 
143 774 187 189 130 100 
186 744 338 143 141 146 
186 931 254 119 91 58 
294 375 143 166 140 112 
195 369 167 111 120 132 
159 702 261 65 70 98 
262 328 237 123 121 124 
234 26 299 105 96 90 
234 660 145 126 183 225 
199 459 254 73 98 133 
307 646 270 75 115 149 
328 158 230 127 40 24 
217 123 224 96 71 53 
168 467 148 155 161 173 
197 600 168 82 117 169 
169 581 217 79 97 117 
201 856 304 149 108 84 
335 536 202 216 209 221 
226 824 287 138 98 70 
389 162 187 105 77 84 
335 370 187 78 98 120 
176 737 327 138 135 139 
255 962 277 101 80 66 
205 659 313 84 128 162 
122 668 93 128 144 167 
311 214 195 67 48 58 
298 475 316 151 154 163 
254 662 154 133 174 212 
233 135 260 114 89 59 
358 219 217 118 36 19 
170 658 129 49 32 76 
303 226 169 122 95 91 
163 631 128 53 83 130 
328 227 269 138 91 79 
193 583 164 124 137 155 
186 133 265 132 60 28 
335 354 188 115 65 48 
400 306 228 135 138 145 
244 361 249 118 123 133 
226 801 249 209 147 117 
255 74 302 137 107 86 
251 647 157 101 114 132 
303 174 179 93 57 60 
222 122 224 128 93 79 
223 122 224 128 94 79 
277 450 322 149 152 161 
209 113 247 68 56 43 
177 787 330 63 65 86 
166 822 246 216 161 128 
413 273 215 112 124 140 
244 649 334 108 116 128 
313 575 338 144 114 95 
286 275 263 107 92 108 
415 337 235 160 146 135 
185 73 266 140 101 88 
226 990 257 150 114 83 
261 441 316 132 137 147 
342 471 298 114 132 161 
175 325 264 153 85 70 
197 575 309 124 140 161 
263 178 152 46 71 106 
259 545 331 159 160 167 
200 744 355 62 91 139 
342 433 185 103 119 141 
356 253 208 83 109 133 
192 89 258 97 75 54 
290 643 386 109 80 71 
211 116 245 59 49 38 
349 472 188 138 148 168 
391 274 219 143 142 147 
230 510 334 118 132 154 
246 961 257 110 92 73 
236 92 296 145 116 93 
405 174 189 63 86 131 
304 331 267 142 130 121 
237 343 161 129 31 48 
263 392 279 67 94 118 
340 483 300 176 171 175 
282 133 275 91 77 62 
212 114 243 58 48 37 
204 503 312 152 153 160 
254 703 190 192 173 158 
213 114 243 58 48 38 
196 733 171 145 122 101 
191 433 253 89 107 127 
267 821 332 137 126 138 
426 317 210 83 126 168 
418 207 198 174 72 61 
275 354 254 89 91 95 
327 155 241 140 68 8 
331 470 182 162 164 180 
377 166 188 91 38 50 
314 390 159 137 64 5 
358 535 259 114 138 183 
283 13 311 129 109 96 
224 526 332 111 130 163 
362 438 290 86 119 153 
230 732 363 139 138 144 
242 14 306 63 54 46 
247 656 150 84 112 136 
212 115 244 58 48 38 
190 560 296 200 188 183 
196 483 292 144 142 146 
306 439 311 112 127 146 
206 441 163 25 55 78 
312 427 306 64 101 141 
403 438 276 116 136 158 
258 467 156 151 158 174 
178 516 141 125 144 183 
199 295 250 98 109 124 
400 333 209 110 130 153 
151 710 176 43 55 75 
197 820 246 166 121 90 
152 716 236 89 23 27 
179 752 166 110 82 62 
166 702 131 145 123 105 
213 117 245 58 48 38 
403 323 233 107 116 128 
241 374 154 121 19 38 
212 118 246 58 49 38 
295 598 216 132 151 183 
231 320 166 136 132 133 
170 388 251 64 96 149 
363 199 229 103 51 53 
202 927 237 84 64 44 
198 527 312 69 91 126 
301 410 148 131 88 49 
261 324 156 173 145 115 
364 227 236 111 49 69 
178 559 272 121 141 165 
251 902 340 129 108 86 
304 613 348 87 105 137 
290 631 219 49 41 58 
200 586 308 165 166 174 
180 696 150 147 122 102 
208 113 248 73 58 42 
357 158 214 94 55 48 
353 536 212 126 157 191 
209 113 248 71 58 44 
178 569 182 139 133 134 
208 115 248 73 59 44 
214 485 312 107 118 132 
303 614 268 172 165 166 
191 984 270 130 107 86 
211 434 287 135 141 153 
290 366 282 124 104 82 
221 63 317 145 129 118 
316 677 278 136 152 173 
252 929 335 205 152 131 
161 726 284 114 42 73 
214 922 332 102 84 70 
401 275 205 159 160 167 
211 668 147 134 49 95 
227 519 334 82 110 158 
315 396 298 131 97 53 
180 561 161 106 129 154 
350 211 240 120 86 70 
370 524 286 63 83 165 
240 398 272 65 94 119 
214 369 163 121 90 51 
313 529 317 59 59 69 
198 396 256 83 105 129 
232 830 268 156 112 87 
211 119 248 60 50 40 
211 581 161 98 97 99 
281 754 270 247 246 246 
263 855 293 138 109 78 
207 942 324 103 85 70 
305 512 182 102 128 161 
157 394 160 100 120 141 
310 687 355 142 156 179 
196 482 291 144 142 145 
147 666 130 64 85 104 
398 448 281 162 166 176 
179 209 273 94 97 114 
310 481 169 103 115 166 
127 713 130 186 23 59 
145 511 210 106 120 139 
277 20 285 116 92 66 
155 373 229 56 101 138 
248 690 349 78 101 129 
303 690 415 141 154 174 
221 86 301 164 128 104 
160 723 193 85 34 30 
179 373 258 97 118 162 
278 704 243 156 71 26 
272 655 179 119 103 101 
186 704 198 99 102 109 
156 700 250 118 27 30 
235 40 324 138 125 116 
374 396 201 66 97 130 
213 481 310 78 97 121 
284 651 210 177 132 68 
329 333 278 112 92 118 
430 219 214 69 103 131 
185 313 184 94 107 121 
369 213 230 38 64 92 
181 463 136 164 164 171 
226 681 202 81 82 87 
311 406 155 96 84 75 
271 694 208 40 47 64 
414 195 195 133 49 65 
336 547 267 225 224 235 
171 545 159 149 152 160 
226 927 235 81 55 40 
286 727 411 153 168 188 
194 649 108 158 156 189 
184 568 164 136 141 153 
241 935 239 102 80 58 
161 619 106 109 120 134 
429 336 234 146 149 158 
205 856 311 152 113 86 
214 427 262 128 135 149 
148 509 231 86 106 131 
270 823 337 126 105 84 
318 180 222 111 47 25 
227 657 133 82 129 196 
267 256 155 85 100 116 
331 553 308 189 197 216 
164 438 176 98 114 134 
126 683 100 195 198 212 
253 66 309 143 108 96 
270 632 380 73 100 132 
215 120 253 60 50 42 
329 411 181 138 144 157 
214 121 254 61 51 43 
182 506 283 187 173 165 
411 263 204 148 156 171 
238 402 276 72 94 118 
371 507 295 108 138 170 
237 502 158 120 135 162 
255 328 158 164 137 108 
165 472 234 145 144 149 
180 588 197 86 74 88 
233 870 336 176 132 107 
291 151 155 139 68 2 
410 358 211 118 134 153 
368 152 194 175 60 9 
187 205 271 94 75 103 
175 655 133 47 52 95 
222 620 326 125 127 136 
341 509 194 81 114 180 
422 313 227 111 128 149 
317 568 294 77 68 72 
306 298 166 112 118 127 
241 357 158 161 137 112 
357 537 219 80 114 179 
271 613 392 116 98 81 
201 363 167 99 109 122 
273 776 393 127 149 186 
294 744 332 124 107 106 
260 218 261 115 23 38 
269 747 414 179 183 208 
257 636 403 126 102 79 
217 117 243 68 61 56 
218 116 240 69 64 61 
231 832 344 154 139 133 
323 283 197 92 88 95 
219 116 240 96 92 91 
132 718 186 70 66 64 
269 888 312 145 113 92 
320 467 174 170 170 178 
175 641 139 49 72 130 
301 157 174 103 56 14 
187 648 144 56 92 129 
261 866 315 156 113 94 
232 28 314 98 83 68 
213 475 153 105 122 143 
195 449 253 78 101 131 
207 849 307 131 89 66 
250 773 400 161 170 215 
151 793 209 226 161 130 
384 369 205 141 146 158 
328 484 306 113 129 153 
253 955 258 93 70 59 
273 23 286 130 117 109 
202 756 198 191 136 101 
124 660 87 112 135 164 
281 674 370 40 70 135 
186 652 101 86 111 168 
132 742 160 161 142 126 
368 168 207 138 42 36 
180 64 264 106 97 90 
294 619 306 90 108 152 
253 782 396 184 197 214 
235 34 261 103 86 74 
145 262 244 105 36 31 
169 743 308 122 30 49 
336 367 285 185 155 122 
259 731 211 167 150 134 
305 635 307 132 135 145 
180 591 204 122 117 118 
312 654 321 133 139 157 
303 135 249 88 64 30 
334 398 291 165 64 8 
397 409 276 89 117 145 
195 321 178 97 111 125 
275 453 153 126 102 82 
185 641 243 37 65 96 
223 751 370 148 145 149 
297 403 144 157 74 0 
205 624 190 112 100 103 
184 352 177 130 133 141 
340 451 184 124 134 156 
382 218 205 110 41 41 
150 493 203 126 127 134 
220 117 244 124 123 123 
220 117 245 124 123 124 
266 31 289 131 119 112 
272 896 280 85 67 49 
321 445 303 134 149 168 
274 632 188 135 95 82 
243 396 271 72 92 113 
151 717 263 118 18 38 
353 165 226 89 72 75 
325 193 256 78 103 124 
208 491 311 113 126 144 
291 584 196 87 135 173 
255 748 416 105 134 199 
256 617 335 34 66 139 
333 526 312 141 158 179 
190 939 257 152 120 88 
183 775 184 173 136 99 
210 628 179 61 122 168 
223 118 246 144 150 158 
208 564 317 175 172 177 
313 429 156 128 119 126 
216 118 248 65 58 52 
206 517 153 89 107 136 
216 119 249 62 54 46 
220 786 372 162 172 189 
257 671 448 160 115 97 
286 537 176 99 134 193 
209 560 150 113 133 168 
204 517 152 79 90 124 
394 475 220 129 142 174 
289 666 235 167 116 48 
218 118 248 75 70 66 
168 456 168 54 88 126 
250 130 287 133 103 77 
261 630 176 136 99 81 
368 327 268 178 150 120 
214 407 254 55 80 121 
209 973 292 109 88 67 
185 278 263 129 133 143 
175 427 147 149 153 163 
264 500 330 107 121 150 
221 118 248 136 139 144 
367 530 262 120 142 192 
243 796 271 196 135 114 
168 691 272 133 143 157 
180 910 256 85 68 57 
297 496 160 136 156 200 
312 591 297 82 61 60 
204 604 300 96 123 152 
295 143 267 106 97 91 
319 328 278 117 85 94 
222 809 252 183 131 101 
267 657 439 119 95 70 
322 292 187 62 81 98 
216 120 252 62 52 43 
216 845 257 137 107 75 
180 266 267 169 166 170 
216 959 243 112 84 49 
217 121 253 67 56 47 
130 743 188 136 115 96 
181 640 99 85 80 76 
281 232 283 30 70 123 
366 502 204 176 179 192 
289 138 268 92 72 59 
314 233 193 66 50 53 
326 153 241 140 67 5 
208 635 189 58 101 132 
300 554 328 46 97 138 
306 642 302 120 131 154 
382 346 259 169 145 121 
178 670 237 64 91 116 
218 871 332 166 120 100 
299 406 147 145 68 6 
253 715 194 137 109 76 
302 622 388 146 105 74 
281 432 148 143 62 14 
286 458 153 62 101 156 
412 167 187 139 64 91 
242 497 327 129 140 158 
250 547 169 106 127 153 
187 625 238 79 95 122 
377 480 295 132 146 169 
317 361 164 150 129 108 
227 932 236 88 61 49 
186 494 276 54 87 117 
175 687 137 191 157 113 
245 460 153 93 123 165 
297 513 167 148 159 197 
212 387 160 159 136 113 
217 476 154 102 118 135 
433 353 236 110 131 154 
393 299 204 169 162 162 
247 954 320 98 81 70 
276 900 313 164 129 100 
263 657 173 146 200 247 
155 786 279 141 137 138 
169 618 246 68 110 145 
219 127 254 105 95 87 
177 659 264 48 85 113 
207 954 247 96 75 53 
221 120 250 132 132 136 
157 294 257 175 172 176 
304 564 324 53 80 115 
230 666 200 62 77 90 
278 707 245 144 40 47 
222 978 297 142 114 86 
184 901 296 118 94 75 
167 358 190 81 68 60 
310 648 322 92 119 157 
291 203 287 136 32 57 
223 753 209 174 127 89 
186 678 291 127 131 140 
414 397 210 72 116 154 
363 161 207 147 25 11 
434 345 220 135 141 153 
359 151 208 161 69 30 
314 665 320 93 115 160 
428 376 228 140 150 166 
434 337 232 163 160 163 
126 701 118 163 92 96 
221 123 253 103 100 98 
307 336 272 150 129 108 
211 643 323 136 140 150 
260 738 422 129 141 199 
177 699 218 84 94 106 
366 337 204 123 49 79 
121 666 93 159 166 181 
304 566 270 58 102 138 
191 906 235 95 75 55 
223 122 252 126 124 125 
226 246 243 74 121 154 
193 393 256 53 83 132 
250 838 293 100 81 60 
253 691 399 93 99 109 
159 702 239 102 42 46 
192 810 337 136 120 115 
344 138 220 160 84 40 
275 381 147 125 6 37 
225 109 271 83 68 52 
308 475 313 63 95 136 
256 9 239 97 80 66 
272 667 198 166 112 62 
326 563 297 161 166 180 
277 488 171 107 127 174 
223 124 253 96 88 82 
222 124 254 92 83 76 
203 836 246 126 91 56 
153 542 243 115 130 151 
173 835 257 201 151 121 
359 397 280 148 133 125 
181 813 320 209 168 121 
271 99 280 116 93 68 
259 773 267 173 157 148 
174 797 212 233 173 133 
258 866 268 150 116 80 
224 65 218 110 92 73 
386 139 181 121 90 61 
186 963 271 142 115 87 
206 613 161 63 91 133 
202 649 295 112 68 92 
245 761 407 147 155 201 
174 396 173 62 94 120 
305 736 304 192 84 88 
201 619 279 101 23 37 
184 824 316 159 118 94 
204 958 309 108 85 66 
290 633 219 80 65 51 
209 740 359 148 146 151 
311 356 161 149 129 107 
278 480 165 85 114 172 
162 803 220 243 175 130 
226 778 382 104 121 161 
185 933 318 120 98 78 
227 65 220 109 91 71 
150 631 116 87 104 123 
313 658 274 131 118 122 
224 702 182 161 148 143 
251 344 239 98 115 134 
157 812 262 199 149 120 
423 211 213 119 96 96 
292 379 290 116 102 90 
239 273 236 76 96 116 
210 310 178 149 143 143 
190 696 162 91 103 122 
160 696 118 134 30 61 
150 770 167 216 151 109 
263 877 319 161 114 95 
309 655 308 101 121 158 
306 522 187 102 116 194 
219 518 327 90 110 147 
244 458 320 161 157 160 
227 68 220 109 90 71 
383 223 218 95 67 69 
282 244 280 136 15 53 
226 71 220 106 88 67 
148 508 228 89 108 132 
186 893 312 169 116 92 
285 495 323 164 160 163 
358 531 291 127 147 193 
275 663 204 165 107 35 
231 417 286 77 101 133 
284 281 257 108 122 141 
130 739 171 144 118 103 
276 767 285 204 186 172 
311 724 292 191 95 98 
161 705 127 109 99 89 
169 535 268 121 133 151 
216 855 255 121 96 67 
186 774 194 168 127 92 
230 64 220 106 88 69 
402 468 266 154 164 180 
281 669 438 158 112 87 
354 368 196 153 147 146 
236 738 412 177 178 195 
233 777 391 153 172 202 
120 666 123 78 106 131 
317 227 210 95 36 46 
166 300 262 137 148 165 
157 314 211 98 92 87 
283 486 325 177 170 170 
267 630 382 71 97 144 
255 843 298 134 109 82 
258 278 159 138 138 144 
373 327 206 144 79 86 
329 313 198 116 97 82 
194 668 293 71 114 149 
228 69 220 107 89 71 
185 571 165 131 137 150 
225 602 320 100 59 64 
229 69 221 105 88 69 
220 259 181 105 82 60 
181 525 288 181 172 170 
288 148 282 123 105 85 
171 641 265 133 140 153 
263 47 312 116 92 70 
299 716 267 105 56 61 
229 352 163 121 32 53 
417 188 205 98 67 72 
270 12 240 116 101 93 
272 663 187 188 156 121 
231 68 223 105 86 66 
231 69 223 105 86 66 
233 592 169 104 101 101 
256 251 160 105 68 78 
416 185 203 86 82 91 
259 861 273 162 125 91 
158 633 108 85 78 72 
262 857 309 148 114 87 
383 169 188 100 58 54 
271 943 288 116 91 67 
257 217 258 135 31 23 
226 883 241 84 68 51 
157 376 213 50 98 132 
202 827 332 192 161 129 
224 75 219 108 88 67 
245 290 232 81 125 160 
205 376 163 158 138 119 
192 941 318 156 133 114 
188 648 144 63 94 131 
356 523 302 112 139 177 
195 792 221 182 132 95 
174 346 262 169 81 118 
151 710 254 122 30 37 
213 275 183 107 45 51 
228 700 353 72 94 119 
314 194 214 94 49 59 
361 363 273 169 143 117 
297 761 342 148 81 103 
288 637 419 126 99 68 
306 707 306 135 154 176 
409 205 199 132 74 79 
159 330 207 69 60 56 
186 429 162 18 60 99 
282 479 325 97 118 149 
346 543 260 201 208 223 
160 375 193 78 100 148 
431 301 211 121 136 155 
319 541 314 46 58 71 
153 714 124 125 99 95 
280 454 152 142 126 118 
224 79 220 108 87 66 
348 234 217 109 52 70 
262 678 184 194 64 33 
234 735 411 188 183 187 
213 656 208 93 97 104 
376 206 210 100 44 55 
340 245 218 75 99 121 
268 125 236 107 95 83 
220 536 153 148 151 161 
137 633 105 116 122 133 
246 146 280 167 64 10 
158 351 243 109 126 146 
295 572 340 97 85 77 
353 184 231 92 51 63 
285 625 410 123 100 75 
249 496 163 169 170 185 
230 486 327 134 141 155 
167 494 169 169 166 170 
155 212 262 130 33 22 
198 692 165 93 106 129 
349 320 266 173 150 127 
335 379 289 173 144 114 
239 657 337 44 74 115 
201 456 155 105 122 141 
346 290 203 120 121 125 
228 75 222 104 87 69 
206 848 306 135 96 75 
194 661 285 79 116 146 
170 728 311 153 38 45 
191 892 314 165 102 84 
224 866 334 163 119 96 
354 401 194 65 98 130 
349 248 252 82 113 139 
165 550 260 109 134 163 
236 707 420 138 141 156 
222 845 324 150 113 87 
176 270 267 163 169 183 
374 317 205 152 126 97 
262 562 179 116 127 157 
179 624 139 84 119 152 
296 376 145 151 127 102 
195 462 151 64 96 132 
401 435 209 129 142 163 
262 380 147 126 40 52 
158 210 269 88 94 105 
189 445 252 62 91 123 
154 807 261 194 146 118 
304 663 279 103 101 103 
150 662 127 45 73 97 
259 185 279 43 38 44 
320 282 277 162 166 177 
243 583 331 71 122 166 
213 571 317 155 152 157 
333 559 282 123 97 122 
402 402 272 58 95 141 
169 566 252 155 156 167 
247 733 423 208 205 214 
218 788 231 199 139 109 
234 755 402 175 188 205 
195 686 321 131 133 142 
202 534 314 206 192 184 
324 303 194 79 88 101 
225 104 289 159 122 103 
244 144 281 154 81 19 
275 821 350 153 108 85 
325 397 175 114 104 98 
197 128 265 108 96 88 
286 324 248 131 131 135 
236 36 325 110 91 70 
255 783 273 189 175 170 
282 321 245 111 90 90 
147 749 267 111 95 90 
166 441 151 157 161 172 
312 150 229 97 89 84 
275 897 291 143 114 85 
156 419 197 83 97 116 
330 187 228 95 48 28 
186 639 237 61 85 112 
185 494 266 94 107 122 
257 688 185 211 117 22 
227 79 224 97 79 60 
368 166 216 81 81 88 
175 652 94 187 184 191 
363 330 272 165 138 110 
205 758 201 188 136 101 
223 861 333 160 118 93 
392 440 285 131 144 163 
269 133 164 153 137 124 
153 268 219 95 45 44 
212 440 293 83 106 130 
415 411 218 125 142 165 
228 77 224 98 81 63 
414 402 211 113 140 167 
154 745 276 105 91 81 
157 299 211 130 63 5 
384 390 272 143 126 108 
233 738 202 154 101 77 
346 210 223 93 44 63 
247 549 167 120 138 164 
222 664 341 48 54 63 
265 954 294 106 85 67 
212 419 157 135 86 45 
174 429 144 119 129 142 
275 704 220 62 68 85 
277 460 324 98 109 144 
265 263 248 105 113 125 
140 742 228 91 80 74 
230 76 226 98 81 64 
312 544 315 59 95 127 
167 449 168 158 160 170 
164 619 122 130 136 147 
259 145 287 137 115 85 
151 779 178 202 136 104 
290 690 252 158 77 45 
201 650 114 96 107 164 
190 956 296 164 134 112 
421 244 207 155 44 73 
193 824 242 172 126 94 
231 77 228 96 80 64 
367 433 195 85 113 143 
234 738 203 182 137 101 
164 693 121 154 42 42 
208 813 247 181 129 96 
255 731 205 174 84 90 
286 714 258 126 122 114 
326 564 287 100 149 189 
387 479 287 114 129 160 
178 873 279 116 86 66 
165 775 297 142 134 131 
168 717 203 56 58 66 
255 743 223 152 132 122 
239 23 321 86 73 60 
250 51 320 154 113 107 
224 468 309 34 67 108 
280 889 275 112 84 67 
412 427 224 88 117 163 
208 507 317 150 152 162 
225 447 157 141 134 136 
230 79 238 88 75 62 
296 624 303 133 139 150 
181 667 234 64 90 114 
309 248 177 91 83 89 
431 317 212 87 125 161 
214 77 293 118 88 49 
232 66 224 105 87 67 
160 391 179 76 109 152 
297 335 151 123 78 68 
291 579 195 74 135 185 
242 819 309 113 100 93 
265 820 330 138 120 110 
211 642 323 151 151 159 
252 737 210 161 151 148 
266 113 285 124 100 72 
339 428 292 101 120 146 
164 789 293 171 144 118 
333 394 292 176 70 9 
422 294 222 83 120 150 
332 561 291 205 203 211 
303 182 184 87 69 60 
192 294 188 139 135 136 
146 496 209 149 148 154 
200 734 176 121 121 124 
253 382 150 126 36 47 
158 673 92 99 131 198 
217 825 347 188 150 115 
220 624 134 98 86 75 
189 675 117 138 159 179 
350 427 190 137 142 153 
269 132 195 127 115 106 
217 656 205 100 101 107 
413 405 211 81 113 150 
364 533 233 87 109 159 
256 919 338 185 138 112 
258 502 330 155 158 168 
394 420 203 138 151 170 
280 879 270 120 93 60 
236 53 310 102 85 71 
423 287 221 83 120 151 
222 243 245 76 112 144 
301 342 155 138 125 115 
214 698 348 158 154 156 
343 545 258 120 157 194 
200 262 253 72 111 142 
325 344 283 124 49 81 
347 316 265 146 111 79 
123 730 197 112 100 90 
244 132 283 114 93 73 
355 540 220 122 149 197 
308 147 258 123 107 87 
388 484 284 128 143 168 
251 350 242 98 114 133 
394 483 275 108 132 176 
235 68 227 102 83 65 
149 289 251 80 123 159 
210 790 360 160 173 192 
243 827 321 101 85 69 
199 299 251 125 115 114 
370 221 232 88 63 73 
305 641 230 82 66 53 
193 960 257 91 72 51 
311 405 156 100 88 74 
156 378 235 56 105 140 
246 47 276 97 78 57 
255 569 177 129 148 175 
200 469 284 127 131 141 
250 361 247 120 123 132 
196 618 264 129 130 139 
145 670 135 96 103 114 
185 664 103 132 147 191 
152 492 224 124 132 146 
187 882 246 89 70 53 
182 874 254 95 72 53 
240 897 339 139 109 81 
265 889 317 118 85 69 
340 234 259 118 54 76 
268 739 249 149 125 117 
372 146 199 138 65 6 
292 371 285 140 62 9 
239 456 313 56 85 114 
319 511 189 100 127 186 
130 704 114 186 26 65 
272 599 341 45 82 121 
217 295 178 82 109 134 
210 930 235 109 78 48 
285 138 165 131 98 78 
259 868 269 145 111 74 
289 139 208 136 104 76 
367 515 297 176 181 193 
200 947 251 153 123 98 
162 726 140 188 171 161 
177 729 156 139 112 85 
247 275 235 116 92 94 
282 629 367 62 88 138 
326 522 194 143 157 196 
157 554 238 135 136 164 
151 269 258 138 133 136 
237 49 285 78 66 55 
132 732 145 159 133 107 
398 360 253 147 106 61 
184 657 245 138 138 145 
418 421 253 80 106 156 
427 274 221 155 155 160 
293 460 319 98 120 150 
419 371 211 153 155 165 
378 449 291 132 143 161 
283 778 319 142 136 141 
201 367 166 152 136 121 
230 831 346 177 142 118 
138 765 186 106 137 165 
289 140 163 130 92 69 
202 697 164 143 119 129 
298 610 388 125 100 71 
159 440 228 91 113 150 
235 68 236 82 68 54 
390 454 205 122 138 162 
227 940 330 135 107 86 
407 288 219 87 112 136 
218 320 172 140 136 138 
234 69 238 76 64 52 
401 384 264 140 126 114 
235 68 238 77 64 50 
203 252 254 75 113 143 
178 588 204 131 124 125 
266 813 371 186 41 73 
399 398 271 144 145 151 
234 71 237 78 67 56 
155 787 187 213 142 112 
165 602 227 87 121 157 
281 640 374 89 110 143 
359 370 199 90 109 132 
259 949 321 94 80 68 
224 44 313 98 85 70 
234 71 239 75 64 54 
357 298 260 131 115 109 
235 480 161 92 104 120 
247 75 270 96 78 56 
286 413 308 119 129 144 
133 630 99 109 117 130 
232 260 239 145 146 153 
285 134 258 83 62 45 
140 625 97 125 134 146 
180 534 286 129 142 159 
176 551 152 135 144 162 
268 685 204 59 53 58 
327 296 273 101 123 146 
242 508 160 130 142 162 
236 699 423 79 99 157 
171 613 117 121 136 153 
211 636 325 156 156 164 
283 11 289 103 79 54 
177 690 297 104 116 132 
300 540 328 90 125 156 
365 218 234 51 71 102 
198 465 255 97 114 136 
173 553 165 109 130 154 
175 159 263 92 63 41 
341 557 238 128 148 198 
209 775 364 143 144 161 
219 637 128 110 104 101 
149 295 223 72 85 100 
194 312 181 130 129 132 
213 647 191 56 104 139 
255 12 304 62 54 48 
272 15 243 137 131 129 
211 227 192 118 84 88 
281 646 202 197 166 134 
258 870 265 153 118 86 
147 787 202 207 145 113 
228 67 297 113 91 68 
191 965 256 93 69 44 
236 68 235 87 72 57 
139 693 162 103 33 34 
312 663 347 61 82 140 
252 641 164 79 86 96 
128 641 105 75 98 120 
277 370 147 139 60 52 
399 139 178 142 94 61 
284 684 242 191 129 25 
368 196 215 108 40 44 
287 485 323 167 162 164 
258 494 329 100 116 151 
393 301 229 124 129 139 
259 718 363 77 104 131 
165 541 262 49 88 147 
285 139 156 132 107 93 
291 737 385 129 134 179 
255 557 331 166 163 168 
313 645 350 104 123 154 
253 259 242 71 99 128 
292 591 204 34 73 109 
263 660 339 90 109 132 
298 438 315 89 112 136 
262 385 270 52 81 106 
200 303 181 138 135 137 
341 321 269 144 107 66 
267 887 265 158 124 91 
179 932 288 79 60 49 
155 357 222 115 129 145 
266 828 342 144 89 70 
349 527 203 119 133 180 
177 287 265 94 134 170 
263 589 187 72 109 144 
315 654 355 38 62 121 
191 153 268 91 60 75 
234 73 230 96 80 65 
181 631 141 45 101 140 
148 272 226 146 27 38 
295 658 232 228 176 107 
253 858 270 124 99 68 
195 345 262 97 123 150 
211 427 256 99 115 134 
199 358 168 93 105 118 
216 880 239 65 53 41 
169 591 212 112 125 146 
255 426 300 69 94 116 
275 135 156 132 119 108 
189 231 269 131 24 64 
344 551 250 118 152 201 
245 743 416 71 116 189 
233 786 243 203 145 119 
278 625 370 75 96 135 
352 532 303 141 165 193 
319 234 215 93 63 69 
263 782 285 157 137 117 
346 210 243 131 96 69 
317 469 172 104 130 165 
179 709 173 80 88 98 
176 614 241 99 114 132 
212 436 162 81 87 96 
199 667 145 114 120 138 
152 290 221 107 114 125 
162 359 248 137 146 161 
145 684 93 181 205 240 
273 812 367 130 160 189 
390 433 284 80 107 143 
259 425 302 95 110 128 
187 628 252 121 127 139 
312 709 294 118 145 172 
235 72 234 89 74 60 
297 603 230 161 162 172 
166 575 216 171 157 149 
324 546 314 96 109 135 
245 626 150 153 115 90 
230 737 198 140 96 66 
125 744 216 125 112 102 
263 25 281 128 117 115 
193 648 272 71 111 142 
203 900 325 121 91 72 
244 889 334 61 46 44 
159 181 257 116 62 7 
303 157 211 119 78 64 
131 747 188 166 138 109 
261 94 290 119 96 71 
416 197 205 100 71 86 
286 698 251 180 68 47 
221 383 159 131 100 68 
197 474 264 139 140 146 
236 372 259 92 109 130 
350 413 191 86 110 136 
147 314 236 157 159 168 
165 509 256 152 148 149 
176 680 116 161 185 212 
257 647 166 43 70 93 
126 725 171 165 129 91 
145 680 89 123 140 215 
402 160 184 136 117 120 
256 542 174 87 104 148 
124 648 82 95 112 153 
228 875 245 86 68 48 
430 212 207 134 92 61 
267 538 331 84 101 129 
179 252 269 150 149 155 
398 475 228 145 160 185 
161 721 209 66 32 31 
232 76 235 88 74 61 
275 742 262 77 69 67 
271 430 314 86 107 127 
224 612 323 123 124 131 
402 401 271 43 86 134 
188 609 201 91 115 143 
164 690 251 115 128 143 
144 303 222 85 107 135 
242 494 164 87 103 126 
308 300 169 81 100 120 
303 731 275 183 114 122 
297 729 330 132 155 181 
347 233 250 100 90 101 
206 456 290 98 110 131 
198 356 168 132 132 136 
226 261 240 157 152 154 
160 380 242 76 117 155 
204 176 261 111 36 47 
304 696 319 140 153 171 
340 556 290 209 208 217 
221 345 242 150 111 64 
204 267 248 142 131 126 
141 731 248 95 112 129 
368 529 238 51 80 167 
231 65 246 74 61 47 
249 492 327 95 111 141 
361 535 223 131 161 207 
191 258 197 112 93 83 
227 827 277 137 100 72 
137 716 122 231 107 33 
205 452 156 89 105 122 
237 560 164 100 121 148 
289 380 141 188 150 110 
197 881 238 85 60 39 
168 526 177 78 91 127 
228 69 247 86 71 59 
207 446 258 86 109 137 
226 635 135 101 78 57 
385 245 205 112 42 54 
217 99 291 160 118 107 
303 155 216 117 79 68 
200 587 307 157 162 173 
294 193 285 135 64 52 
169 595 225 57 74 97 
229 83 301 156 123 108 
199 393 164 156 134 113 
157 481 187 119 125 139 
141 785 249 137 126 118 
297 360 281 142 111 68 
397 326 207 139 156 178 
266 875 309 173 130 107 
345 303 265 164 150 137 
213 310 241 106 110 120 
156 341 239 140 135 135 
266 555 333 113 128 151 
379 188 196 107 50 57 
312 455 307 54 83 129 
276 803 368 142 63 61 
230 70 246 84 68 59 
207 674 151 118 92 115 
408 438 222 168 169 178 
262 51 310 120 95 73 
193 854 240 155 117 81 
218 392 263 72 100 130 
305 364 288 154 134 114 
308 548 321 64 94 141 
237 47 313 92 76 64 
254 644 409 132 108 82 
219 588 164 68 75 83 
175 650 94 199 200 212 
191 699 169 54 82 114 
207 535 153 43 81 118 
304 585 364 131 108 86 
227 66 249 90 75 60 
301 644 277 74 72 79 
183 541 290 115 132 158 
172 756 162 161 141 123 
335 201 227 94 39 50 
175 459 242 85 105 137 
278 881 276 115 86 61 
275 345 150 169 143 117 
261 918 254 82 65 56 
346 496 305 100 126 163 
335 564 226 147 167 210 
368 499 299 113 131 175 
236 611 170 81 77 74 
227 81 302 150 119 102 
148 724 265 118 70 60 
238 492 161 105 125 151 
324 416 178 66 75 100 
418 304 206 94 141 180 
390 263 203 145 143 147 
205 625 290 136 124 125 
202 762 201 188 137 104 
305 234 173 126 93 74 
243 30 329 147 135 128 
326 473 307 86 104 151 
165 311 260 112 136 162 
238 925 235 91 74 59 
218 501 152 106 116 135 
204 458 284 128 133 144 
412 162 185 69 100 138 
227 69 248 89 74 59 
314 255 282 147 146 153 
352 236 214 113 45 49 
282 802 347 147 39 60 
202 868 245 95 67 45 
284 259 273 125 100 101 
301 282 272 137 76 87 
318 189 223 86 34 35 
282 658 371 45 119 165 
272 756 407 118 140 187 
252 613 163 106 97 90 
422 409 245 96 118 158 
228 64 249 84 69 54 
156 385 216 79 106 132 
349 233 217 97 79 87 
397 343 245 159 137 115 
139 628 105 132 135 143 
235 34 260 104 86 69 
418 363 247 131 104 89 
206 568 156 152 148 149 
196 664 116 82 114 152 
251 746 219 202 177 158 
229 66 248 84 69 54 
230 747 380 35 70 119 
230 64 248 72 58 42 
277 724 253 121 108 102 
261 828 357 175 133 78 
163 456 232 78 99 140 
179 929 271 97 71 54 
171 708 309 108 131 155 
307 202 184 76 67 67 
151 248 262 97 125 152 
380 367 204 128 142 160 
312 718 300 143 163 187 
258 287 236 129 107 103 
206 656 152 71 94 138 
309 561 206 153 154 181 
225 78 247 90 73 59 
309 642 317 123 133 155 
208 573 157 90 101 120 
172 554 168 132 137 149 
178 464 243 123 132 146 
309 667 310 87 111 158 
226 76 247 92 73 59 
168 569 194 64 116 154 
195 448 253 74 97 131 
310 297 269 98 54 66 
290 609 393 118 97 76 
227 77 246 90 73 58 
316 240 200 76 72 77 
244 821 316 153 136 123 
194 357 261 98 120 154 
321 212 223 27 62 86 
248 883 251 128 76 35 
425 332 233 140 143 152 
363 382 198 77 103 129 
226 78 247 89 73 58 
351 316 198 111 17 28 
163 793 193 245 157 121 
410 170 189 74 104 140 
317 424 159 101 67 71 
381 245 227 82 101 121 
205 620 173 112 87 102 
122 658 91 42 91 148 
178 169 273 42 75 104 
289 595 200 164 181 206 
367 428 287 105 124 148 
162 445 233 109 124 153 
280 23 291 138 105 80 
398 178 190 83 73 94 
229 276 172 122 115 112 
287 254 279 173 167 167 
231 74 242 93 76 61 
193 271 257 124 122 126 
348 542 293 103 138 176 
227 520 335 98 123 162 
228 72 246 84 68 53 
394 305 205 151 159 173 
142 744 146 194 156 117 
291 765 336 151 115 127 
184 473 136 89 116 154 
279 627 415 122 99 74 
257 716 196 186 148 101 
281 572 190 103 132 164 
207 94 281 137 89 77 
157 386 238 93 120 150 
270 865 268 158 130 105 
231 119 269 104 81 65 
247 404 276 56 84 112 
319 373 290 176 149 120 
298 490 159 176 177 193 
313 661 348 59 83 135 
187 637 249 78 89 111 
186 637 250 88 96 115 
197 637 202 106 113 123 
265 659 338 83 105 133 
292 308 253 77 110 136 
229 77 241 88 73 59 
262 853 299 143 115 84 
156 631 122 43 80 120 
185 218 271 103 51 58 
292 663 239 192 133 83 
238 610 169 91 85 81 
321 134 243 106 83 61 
370 157 191 115 101 95 
169 688 266 116 133 152 
199 515 144 130 140 161 
306 599 328 165 114 101 
305 688 260 97 83 77 
154 424 200 85 101 125 
210 850 318 150 113 85 
222 486 318 101 114 131 
353 313 200 119 27 34 
221 364 163 113 38 36 
146 258 245 84 36 45 
293 661 235 236 174 100 
158 556 213 92 112 149 
271 580 188 131 143 160 
227 563 157 127 138 158 
265 543 331 112 134 157 
399 359 253 149 108 69 
372 251 206 83 85 97 
311 201 202 75 48 60 
264 170 149 37 70 111 
226 313 235 116 124 136 
369 352 204 140 61 78 
334 413 290 110 93 78 
183 926 315 102 84 66 
195 537 146 102 129 169 
300 502 167 106 126 153 
225 72 251 97 79 62 
170 505 258 140 138 140 
280 576 189 106 128 156 
251 728 361 51 90 125 
274 619 337 70 88 140 
200 848 242 130 92 56 
280 23 313 156 142 137 
266 737 422 135 156 206 
303 625 270 177 123 114 
245 493 326 103 122 149 
204 664 316 78 121 155 
249 427 297 86 104 123 
345 154 229 115 118 125 
227 72 248 88 72 55 
227 73 248 89 72 55 
411 178 198 90 87 92 
175 671 99 109 140 205 
415 434 240 185 180 183 
258 655 158 78 116 148 
326 554 275 218 211 212 
216 571 318 164 161 165 
241 621 148 105 89 72 
183 561 281 118 127 156 
175 714 181 111 120 133 
357 531 300 133 160 205 
421 394 255 86 111 146 
202 861 309 155 117 88 
329 279 274 166 160 161 
293 533 175 97 123 197 
187 268 197 54 84 109 
387 497 277 85 110 172 
287 748 386 124 130 176 
176 524 143 118 145 183 
424 192 208 132 67 81 
147 331 217 175 179 192 
260 451 152 177 150 122 
216 494 317 90 111 135 
242 389 152 156 133 105 
361 499 304 178 180 190 
235 64 241 77 64 50 
182 785 198 195 145 110 
252 767 250 179 142 111 
190 820 240 194 136 100 
