ply
format ascii 1.0
comment Created by CloudCompare v2.11.1 (Anoia)
comment Created 2/28/22 9:41 PM
obj_info Generated by CloudCompare!
element vertex 2007
property float x
property float y
property float z
property uchar red
property uchar green
property uchar blue
end_header
230 687 179 140 155 173 
224 259 247 137 137 143 
244 718 189 176 141 104 
341 223 261 62 98 127 
306 300 149 140 140 146 
235 525 158 78 104 145 
177 843 255 193 145 116 
297 517 334 111 135 166 
192 637 256 140 141 148 
251 128 248 99 84 71 
252 646 431 119 96 70 
267 955 297 91 73 60 
192 376 177 113 118 126 
341 546 265 118 145 186 
155 437 206 145 147 156 
224 879 248 86 70 53 
280 667 204 167 118 36 
252 264 168 84 118 147 
316 232 194 59 43 55 
249 362 255 120 124 132 
222 512 155 160 155 156 
292 399 313 102 92 84 
324 191 215 108 46 42 
148 317 230 171 170 177 
181 816 324 160 141 125 
268 898 265 141 108 87 
157 502 231 80 101 125 
201 747 168 111 116 126 
238 814 283 154 103 81 
304 617 290 100 83 72 
264 131 299 119 95 66 
268 601 368 87 82 79 
315 139 248 91 71 52 
282 507 180 69 95 155 
152 728 224 91 84 79 
186 623 242 102 125 149 
180 743 331 154 151 155 
259 505 167 105 124 170 
277 760 274 215 188 174 
181 349 263 168 109 125 
206 615 321 72 115 148 
193 212 269 100 47 54 
312 649 242 96 86 147 
263 216 165 74 42 44 
250 646 143 77 130 169 
248 934 338 202 149 125 
314 560 291 66 121 161 
284 422 153 150 47 9 
366 179 208 105 51 49 
219 719 355 91 102 117 
368 489 206 90 115 169 
153 758 146 212 174 133 
282 860 278 125 107 90 
152 495 208 147 148 155 
219 303 245 91 113 135 
128 750 186 137 119 104 
169 755 141 146 137 144 
313 362 169 138 121 104 
217 361 255 102 118 135 
183 572 188 64 107 140 
224 163 194 115 87 69 
259 933 245 129 103 76 
212 596 317 61 99 129 
258 97 267 100 84 66 
131 756 199 113 102 92 
167 717 281 127 143 162 
227 160 192 97 83 68 
322 548 205 104 138 184 
310 423 156 127 108 83 
167 569 227 146 150 161 
224 331 247 156 115 70 
278 901 313 127 105 81 
215 857 249 115 89 61 
235 568 335 140 145 157 
173 819 301 170 143 122 
318 219 204 63 45 59 
227 681 415 51 78 114 
305 527 332 74 112 147 
265 125 264 90 76 63 
170 790 314 151 105 59 
224 872 254 106 82 53 
272 273 157 151 147 150 
217 410 263 98 117 144 
373 263 219 164 164 172 
167 809 216 242 176 132 
317 248 200 73 63 68 
179 701 114 136 42 53 
238 766 219 196 146 111 
230 657 175 52 70 124 
296 747 300 202 152 124 
313 303 286 135 126 123 
208 279 185 106 46 46 
249 741 424 173 185 216 
261 280 164 149 149 156 
322 399 313 170 66 7 
394 352 219 103 75 52 
187 475 138 164 171 192 
168 813 222 237 172 130 
256 565 335 98 113 140 
199 341 265 101 124 148 
247 732 197 153 143 144 
326 226 290 130 90 60 
262 456 157 141 85 73 
331 547 207 64 101 179 
228 487 155 149 156 170 
299 674 372 152 167 187 
294 684 406 160 161 169 
380 498 257 122 147 177 
289 419 322 80 103 130 
150 650 108 83 107 130 
232 811 265 165 98 77 
278 133 184 155 138 124 
221 44 309 113 100 90 
308 230 170 119 96 72 
349 300 222 131 130 134 
373 309 278 148 31 70 
249 634 418 110 91 71 
227 670 205 93 94 100 
233 825 300 118 93 72 
330 484 182 86 113 173 
291 248 150 134 60 67 
160 651 115 75 105 143 
219 732 179 142 113 92 
174 646 82 101 92 85 
228 968 242 118 91 63 
217 678 204 83 88 97 
194 648 138 34 65 113 
280 254 289 157 145 131 
205 630 299 148 147 153 
305 639 325 108 120 145 
192 605 254 75 108 148 
273 928 277 112 94 80 
317 286 192 75 76 87 
291 188 154 83 78 91 
197 656 280 142 131 128 
373 467 202 95 124 164 
218 765 399 136 147 192 
223 964 246 109 82 56 
199 383 259 96 117 145 
240 699 395 96 104 115 
280 255 155 90 117 141 
230 167 193 126 109 92 
231 166 192 143 125 107 
181 240 271 104 61 72 
264 865 279 167 133 106 
240 501 157 105 124 166 
224 161 200 63 70 79 
202 892 234 67 51 41 
142 712 158 108 27 33 
194 831 327 154 130 106 
206 487 314 86 103 129 
285 390 305 116 105 94 
326 354 302 153 141 133 
284 622 401 134 104 70 
321 175 263 121 83 70 
211 65 261 92 78 66 
312 353 163 120 61 58 
297 630 345 55 89 123 
172 421 245 142 148 159 
302 599 345 172 118 101 
159 714 231 101 34 37 
186 154 270 101 66 58 
158 336 232 93 133 173 
159 775 162 205 144 109 
166 700 258 121 134 150 
243 156 264 110 33 29 
307 731 302 109 37 105 
287 756 359 148 163 183 
315 344 299 119 55 42 
281 698 220 110 95 81 
195 71 321 166 149 138 
191 493 289 75 99 124 
293 305 267 78 117 147 
173 281 204 112 51 56 
271 619 351 52 85 155 
265 51 307 114 91 65 
398 326 254 141 132 127 
281 442 152 148 129 113 
381 258 227 81 116 145 
343 237 269 101 59 68 
217 779 212 201 147 111 
380 226 221 121 81 75 
137 720 130 198 65 48 
145 752 213 100 90 84 
160 390 233 93 115 141 
212 614 165 50 89 122 
192 289 189 119 115 113 
222 531 155 97 116 140 
204 680 327 138 139 146 
296 664 385 99 126 169 
252 876 333 168 121 108 
225 172 195 120 102 88 
219 879 333 166 123 101 
312 289 175 99 109 122 
309 539 326 53 73 107 
345 211 226 90 31 54 
201 782 361 178 176 182 
210 396 161 159 135 108 
255 626 335 36 57 134 
358 240 247 106 49 69 
254 705 381 56 107 143 
189 667 129 21 45 92 
139 677 86 140 159 185 
272 947 293 112 91 69 
237 92 279 98 74 40 
256 683 444 167 117 94 
224 174 196 137 112 80 
283 222 302 55 44 63 
182 52 256 100 94 90 
180 508 267 96 111 128 
225 175 196 141 95 30 
364 521 268 136 160 209 
284 758 287 129 120 118 
285 23 291 113 86 72 
352 217 218 128 30 22 
217 724 419 176 175 181 
311 602 297 178 121 116 
194 876 301 145 111 81 
234 56 293 82 70 59 
293 713 261 141 63 72 
205 624 300 150 150 156 
194 783 351 172 18 46 
183 907 303 131 97 79 
330 150 240 141 66 6 
282 495 170 60 94 155 
162 375 174 108 134 165 
131 728 154 68 56 41 
316 221 193 63 45 61 
192 627 113 82 78 77 
295 666 390 101 121 156 
273 103 286 105 87 68 
313 249 179 90 41 56 
359 499 312 121 135 176 
422 341 227 141 143 150 
193 756 356 96 119 144 
158 330 240 163 154 149 
206 864 246 107 77 46 
207 650 321 138 126 133 
402 439 266 104 121 165 
229 173 193 157 87 0 
301 639 334 121 137 158 
190 957 281 119 86 61 
289 455 154 48 92 144 
305 409 149 152 73 4 
193 638 224 80 96 114 
183 557 293 115 129 153 
213 742 177 124 111 102 
228 175 194 158 78 0 
265 661 175 106 149 180 
264 132 299 118 93 64 
187 665 84 107 116 162 
229 977 300 158 131 104 
206 612 131 18 55 95 
309 214 174 82 96 111 
320 370 188 72 67 75 
231 173 192 152 68 0 
285 680 228 170 133 93 
341 366 303 153 108 68 
133 730 171 92 89 89 
176 163 264 86 57 41 
297 609 236 142 140 146 
412 173 174 96 84 76 
287 754 353 136 154 176 
262 899 334 150 117 87 
221 669 151 166 76 26 
291 713 369 76 126 173 
289 749 277 101 134 171 
207 697 166 68 94 118 
230 325 167 136 134 137 
142 758 210 124 110 100 
379 266 257 78 89 103 
165 509 186 131 129 132 
222 695 185 43 45 49 
234 448 157 154 129 99 
353 382 292 176 147 115 
213 318 172 141 139 142 
227 177 195 159 66 0 
232 972 302 109 80 51 
318 446 316 80 109 161 
323 173 208 124 58 44 
304 277 295 124 146 171 
272 877 294 150 117 86 
295 747 289 131 26 65 
299 652 373 75 55 113 
278 771 308 133 132 136 
185 324 266 154 64 103 
227 941 240 124 92 67 
234 750 417 137 156 211 
273 910 326 184 138 114 
280 23 298 123 93 78 
271 674 430 154 110 83 
271 298 251 84 59 76 
146 313 230 152 156 167 
329 188 256 85 81 87 
370 515 265 80 84 175 
260 340 249 125 127 136 
312 206 181 71 76 85 
248 397 272 50 78 102 
280 322 151 182 150 115 
187 712 326 125 140 159 
272 605 394 111 94 77 
244 816 308 143 87 75 
303 144 177 136 96 75 
266 455 157 172 147 113 
182 388 178 27 66 94 
313 570 318 58 83 104 
288 314 263 102 120 141 
300 154 276 125 68 19 
178 401 158 49 93 138 
227 182 195 154 65 0 
240 826 367 237 192 133 
194 486 288 113 120 132 
413 333 240 145 143 146 
316 238 301 132 78 83 
262 495 163 123 143 186 
180 596 226 53 97 128 
222 42 322 100 86 73 
150 689 86 142 144 189 
280 186 302 96 80 103 
254 443 320 81 99 118 
177 521 171 73 96 130 
189 910 241 90 73 59 
227 908 339 180 141 114 
186 278 196 95 49 64 
394 388 287 152 142 140 
261 603 335 88 76 71 
169 713 109 182 23 70 
219 107 286 115 71 63 
229 176 192 163 77 0 
242 935 338 199 152 129 
183 946 288 125 96 70 
252 553 336 135 144 157 
390 361 217 133 117 102 
298 162 289 126 65 3 
198 481 137 165 169 180 
238 823 370 139 63 114 
257 585 334 64 100 129 
188 379 260 81 109 157 
219 646 164 88 109 158 
149 276 237 112 61 59 
251 979 266 150 123 96 
254 579 179 102 116 134 
363 515 304 147 164 188 
228 178 194 158 70 0 
236 943 240 135 108 79 
230 176 192 157 76 1 
213 258 249 79 104 125 
293 503 165 48 83 184 
263 925 253 82 64 51 
153 737 263 45 52 75 
276 881 276 110 86 59 
206 379 164 158 136 114 
214 748 389 104 127 160 
284 133 241 86 59 22 
260 937 251 106 87 71 
307 642 273 87 117 145 
286 679 411 56 79 122 
423 291 206 125 147 172 
255 461 330 155 156 163 
209 957 315 107 88 74 
229 71 285 105 81 50 
287 448 329 177 172 174 
215 48 315 90 80 70 
304 613 303 152 111 94 
266 957 296 110 89 74 
317 172 270 128 87 80 
208 378 258 87 107 134 
314 215 186 86 58 60 
226 961 250 87 64 37 
205 451 284 87 112 135 
408 328 212 143 145 153 
234 887 243 95 78 61 
297 156 157 143 67 2 
227 692 193 62 66 72 
221 994 291 142 117 97 
413 168 168 63 61 61 
345 495 193 146 158 184 
210 315 252 121 58 90 
201 975 253 161 121 82 
205 954 251 107 82 64 
243 893 247 91 70 47 
227 187 195 137 73 26 
263 748 231 128 117 115 
363 306 224 113 110 110 
217 388 159 166 141 114 
179 722 319 100 114 132 
248 586 338 60 99 131 
302 588 366 140 106 85 
395 174 186 116 88 81 
375 259 216 142 146 156 
371 303 281 143 29 69 
195 632 259 146 144 150 
299 367 142 134 22 57 
258 30 285 118 103 91 
226 189 195 117 95 75 
394 311 244 122 129 139 
315 548 201 69 100 162 
279 713 237 120 99 82 
273 774 372 158 172 192 
260 664 169 82 32 123 
179 379 182 63 83 100 
290 399 153 192 157 117 
203 617 308 101 126 152 
152 796 207 214 154 123 
207 476 142 84 120 162 
144 303 227 83 122 155 
219 681 426 47 82 141 
222 688 169 99 92 115 
351 292 223 137 136 140 
420 361 236 143 143 149 
249 252 252 145 143 147 
185 282 195 101 80 83 
269 656 165 112 168 212 
145 643 83 113 122 135 
264 824 346 146 135 131 
186 769 165 176 130 97 
338 320 299 161 32 75 
421 345 230 156 155 161 
151 522 213 110 122 140 
290 337 270 132 132 137 
180 534 156 120 127 139 
358 176 214 106 45 44 
270 802 332 116 101 99 
216 82 304 130 95 43 
293 435 147 151 134 128 
218 740 385 85 111 135 
160 238 268 167 165 170 
413 377 264 139 123 105 
205 65 319 164 146 134 
186 489 142 112 134 173 
320 367 190 83 81 83 
151 721 239 107 83 50 
369 177 204 117 48 41 
203 917 230 68 54 40 
168 461 185 80 105 136 
268 497 336 161 159 164 
193 192 270 138 54 48 
159 399 219 93 114 138 
200 433 256 46 75 120 
204 461 269 62 91 129 
207 523 144 108 129 177 
299 439 148 155 122 113 
216 59 322 155 138 126 
195 615 205 61 84 119 
281 744 267 123 106 98 
215 817 247 176 125 92 
192 626 249 135 137 145 
157 694 87 127 179 232 
255 814 325 155 130 109 
148 778 257 170 155 145 
159 728 182 107 94 80 
231 363 161 114 95 93 
224 163 254 75 45 53 
225 162 254 75 43 38 
266 894 322 110 85 60 
258 178 294 143 25 36 
308 257 167 63 93 116 
276 742 394 135 131 174 
168 699 288 100 119 142 
260 765 250 128 128 132 
226 163 254 98 46 45 
185 549 298 138 143 156 
156 304 222 86 92 99 
130 745 170 151 138 132 
321 386 187 58 59 71 
230 568 156 125 134 160 
209 618 171 146 147 155 
198 605 187 82 108 134 
232 807 256 170 111 85 
206 241 256 105 80 86 
279 400 308 85 97 110 
180 676 231 60 90 116 
222 629 124 100 87 74 
299 169 292 43 72 93 
314 303 179 74 88 103 
263 58 310 120 97 74 
260 81 275 101 84 65 
205 599 166 51 108 173 
277 413 149 171 140 103 
343 376 207 93 107 123 
250 718 368 36 70 132 
169 835 265 184 138 110 
177 786 334 162 8 45 
182 586 248 96 124 157 
213 373 257 74 97 124 
251 377 155 119 30 44 
228 162 254 85 37 28 
322 359 196 121 120 124 
229 162 254 92 41 31 
258 639 163 65 74 85 
350 236 221 109 35 51 
281 764 341 114 135 154 
188 339 176 84 114 141 
238 555 162 80 102 125 
268 198 156 109 39 54 
230 162 254 97 39 26 
193 265 262 131 126 130 
179 337 187 85 116 143 
202 464 280 134 136 144 
200 262 196 128 107 94 
206 334 170 129 130 136 
152 330 220 152 165 185 
260 909 338 183 138 110 
322 253 221 114 110 109 
218 652 200 106 66 78 
382 302 250 137 138 144 
228 167 254 105 42 50 
185 716 191 116 125 139 
346 338 216 106 90 98 
263 639 346 67 97 157 
248 810 305 175 159 149 
194 980 289 154 119 87 
304 600 337 179 121 113 
207 454 275 98 115 134 
266 678 437 165 117 92 
266 713 196 166 148 135 
271 601 195 55 75 95 
314 333 178 113 118 128 
220 258 184 114 81 61 
272 227 154 117 85 86 
234 472 329 132 140 154 
277 271 266 105 92 81 
289 119 229 109 101 95 
198 668 137 47 81 134 
190 66 269 108 83 49 
167 338 254 182 135 83 
289 616 198 95 89 85 
175 296 198 108 118 131 
249 419 292 66 90 116 
377 507 238 111 124 179 
247 695 187 144 106 81 
204 564 155 82 97 114 
238 123 276 83 72 64 
229 656 415 78 105 131 
175 681 253 108 120 135 
214 661 150 96 106 142 
352 421 194 63 97 128 
285 120 237 108 100 93 
214 363 163 66 97 123 
225 173 253 91 40 71 
222 767 207 181 131 92 
202 461 294 109 123 143 
225 174 253 95 46 70 
325 221 289 132 108 90 
301 734 281 158 28 25 
144 294 231 78 103 126 
308 347 293 154 133 113 
384 489 260 69 101 167 
249 881 262 97 61 28 
169 534 266 107 125 146 
159 346 220 104 117 145 
181 87 256 130 93 83 
173 612 236 101 117 135 
281 698 221 133 107 92 
296 648 377 139 156 176 
182 654 263 67 108 139 
257 126 205 139 125 114 
290 692 252 193 77 17 
304 703 273 84 117 144 
247 622 146 103 89 74 
340 431 305 68 91 144 
214 660 133 149 184 219 
260 302 165 124 108 92 
360 318 291 162 134 101 
155 722 175 71 40 27 
364 280 274 92 107 123 
407 317 216 151 158 170 
308 567 206 110 136 167 
387 477 233 130 145 173 
263 446 327 88 111 136 
136 670 102 61 97 131 
392 457 230 148 159 176 
266 658 435 138 102 73 
281 735 263 146 119 91 
313 381 165 126 120 117 
291 686 411 63 98 142 
248 283 244 83 123 158 
229 174 254 90 48 67 
191 804 345 144 112 77 
234 116 280 77 62 46 
230 173 254 85 42 67 
178 516 173 86 104 130 
195 663 284 70 112 142 
186 890 287 100 73 59 
269 882 281 122 95 66 
381 261 228 86 106 125 
211 702 177 54 70 90 
391 368 215 132 132 137 
361 488 198 81 106 165 
245 763 223 198 146 111 
197 676 99 97 134 167 
307 576 208 163 173 190 
340 511 195 115 136 183 
159 269 217 100 56 53 
369 426 200 82 108 136 
169 628 245 144 155 171 
359 142 208 167 84 27 
234 163 255 124 36 22 
224 986 245 228 202 167 
292 699 408 186 188 199 
295 632 232 111 87 65 
232 165 255 124 33 19 
418 311 226 96 127 155 
301 602 227 107 127 163 
232 166 254 123 31 23 
240 419 286 41 73 102 
176 608 222 44 79 143 
386 475 274 78 114 166 
228 893 337 181 141 115 
180 898 265 69 56 45 
294 182 155 68 82 101 
284 730 263 102 106 117 
309 343 149 102 86 93 
251 807 311 189 147 112 
259 643 158 82 100 118 
280 23 292 128 94 73 
240 655 402 70 92 128 
232 169 255 115 37 34 
306 143 262 91 83 76 
308 280 159 120 117 117 
239 641 406 123 100 78 
216 407 267 77 104 131 
232 171 254 98 44 52 
175 504 174 99 111 127 
269 712 421 117 140 169 
379 268 260 125 116 114 
202 954 254 92 69 52 
293 694 379 112 125 177 
296 687 401 154 166 186 
373 206 225 90 50 59 
228 688 198 75 76 81 
342 133 226 136 103 81 
302 582 359 132 110 89 
168 803 204 244 172 128 
199 631 267 106 54 79 
221 810 374 88 96 148 
325 436 313 93 67 92 
286 279 271 103 100 98 
219 986 246 165 132 103 
184 945 311 132 109 91 
187 197 272 140 66 70 
216 641 165 82 105 162 
286 383 300 121 112 106 
183 865 284 174 134 101 
279 493 334 183 174 173 
156 799 208 222 160 125 
189 679 118 187 20 58 
347 366 300 192 161 126 
340 511 317 79 102 148 
184 920 249 88 69 53 
236 173 255 113 41 39 
318 169 267 121 62 68 
167 560 185 102 50 60 
227 830 286 130 94 66 
255 67 314 143 110 95 
228 711 355 75 97 122 
186 512 293 195 178 166 
272 232 155 118 55 56 
225 177 253 99 53 65 
370 417 201 81 107 133 
185 419 252 85 106 136 
226 680 445 158 115 97 
253 164 292 100 38 77 
198 751 358 140 140 146 
378 256 252 79 106 131 
365 355 217 131 86 86 
190 741 345 68 98 138 
347 268 283 83 111 137 
203 199 264 90 56 86 
157 762 273 77 66 71 
301 706 265 77 76 111 
184 346 264 165 61 102 
251 165 289 99 50 85 
189 364 180 137 137 141 
220 485 155 164 160 164 
155 505 229 75 98 125 
187 390 258 75 101 151 
157 259 263 163 157 158 
311 652 273 76 120 154 
165 558 207 132 138 150 
261 943 256 100 84 73 
256 604 184 70 72 76 
227 493 333 152 155 163 
234 643 126 69 91 136 
226 181 253 96 47 67 
294 302 268 70 115 149 
241 620 324 138 141 151 
181 476 245 144 146 154 
252 91 272 96 79 59 
275 680 361 100 122 164 
248 21 261 134 119 119 
227 182 254 96 50 60 
255 789 279 172 161 156 
272 653 374 66 130 173 
222 380 257 41 81 121 
174 681 282 117 130 146 
249 50 282 92 74 55 
360 405 201 61 93 123 
212 454 157 127 130 139 
191 407 256 70 94 127 
249 293 243 81 123 156 
239 78 279 95 77 54 
330 383 193 71 101 128 
249 873 332 159 113 100 
250 399 275 39 73 100 
321 165 206 135 71 47 
165 701 255 121 130 142 
286 576 195 58 104 145 
182 470 142 166 169 180 
327 223 234 45 54 85 
182 688 116 62 65 130 
315 343 178 126 118 114 
215 723 403 176 171 173 
167 467 184 51 87 122 
242 652 432 111 91 69 
159 335 237 87 131 175 
151 262 235 101 29 42 
230 180 254 100 47 59 
231 767 212 186 136 100 
251 970 273 109 80 59 
243 120 261 97 85 75 
137 659 96 92 115 138 
275 136 251 86 59 32 
204 809 355 159 31 50 
269 606 195 66 74 82 
183 64 265 90 75 57 
214 57 312 150 133 120 
225 184 254 97 52 65 
194 963 300 116 96 80 
323 149 222 159 88 64 
304 142 204 146 102 62 
225 186 254 50 57 84 
270 81 286 99 82 66 
233 677 450 176 125 109 
158 267 262 129 121 122 
184 924 254 96 74 54 
258 782 397 137 164 193 
226 186 254 47 59 92 
226 187 254 34 53 89 
212 557 318 186 170 161 
295 750 302 243 195 189 
191 718 149 76 67 68 
191 527 307 144 150 163 
268 783 379 152 167 187 
403 205 191 99 66 82 
349 334 217 114 105 106 
246 772 233 204 148 116 
252 622 333 38 57 96 
225 191 254 54 64 89 
202 466 274 115 122 134 
295 611 232 133 135 143 
275 595 351 96 76 64 
219 600 318 72 108 138 
377 271 264 139 135 137 
194 794 210 188 138 102 
380 459 209 167 168 178 
206 68 329 147 133 125 
319 204 204 96 49 51 
206 474 309 153 152 158 
264 66 308 123 96 75 
178 311 191 77 100 121 
216 651 332 112 117 126 
199 143 264 132 69 50 
217 502 153 113 118 134 
214 558 153 100 119 143 
264 889 318 131 98 88 
314 300 181 75 90 106 
289 626 203 68 45 55 
236 694 447 171 123 102 
276 794 355 154 136 136 
183 670 237 71 71 80 
300 696 356 44 63 102 
160 383 227 80 113 140 
309 244 169 113 53 65 
158 533 201 98 109 140 
196 122 265 112 100 91 
253 712 360 103 128 155 
230 187 254 36 62 101 
283 494 169 118 134 171 
196 612 194 136 144 159 
251 676 182 186 60 51 
289 715 382 102 123 183 
139 669 83 104 121 159 
192 684 310 119 107 101 
257 440 154 142 124 107 
280 196 302 157 56 49 
277 871 265 148 121 95 
282 132 197 150 134 120 
175 749 325 127 139 154 
181 618 111 102 123 144 
183 777 165 191 141 104 
364 372 212 90 101 117 
180 332 265 149 59 96 
322 427 315 127 112 97 
296 266 296 110 128 158 
323 317 297 98 123 149 
285 436 153 109 75 55 
230 191 253 40 58 84 
178 844 255 190 144 114 
250 412 152 179 150 120 
218 573 158 73 83 97 
188 715 329 102 113 129 
258 888 260 154 111 67 
247 647 138 84 136 177 
294 618 336 98 118 166 
211 954 246 154 124 97 
362 261 222 85 117 145 
156 423 207 101 117 138 
239 298 242 151 150 156 
277 666 414 93 100 119 
234 177 254 85 46 58 
413 392 231 76 120 155 
230 661 199 58 75 100 
273 949 300 85 66 48 
209 595 165 69 105 136 
344 351 213 126 26 35 
297 698 316 136 150 169 
212 992 266 139 110 78 
307 568 273 115 90 106 
350 541 225 137 159 193 
264 216 280 102 30 71 
185 905 310 176 108 88 
194 932 322 107 88 70 
256 688 391 58 91 130 
151 342 200 90 119 171 
237 417 286 53 81 109 
327 424 181 151 148 152 
200 719 345 93 117 142 
380 495 273 93 119 167 
214 743 394 93 116 158 
200 638 206 118 121 128 
253 668 165 103 156 198 
280 636 414 139 104 71 
305 702 307 123 144 168 
246 719 374 10 50 77 
235 24 260 105 97 93 
244 296 242 95 72 82 
417 296 221 85 104 122 
315 155 206 143 88 50 
267 628 175 168 123 103 
312 711 298 128 150 173 
261 800 320 180 157 138 
259 776 265 168 161 162 
162 354 209 104 119 157 
237 178 255 93 46 53 
291 306 264 69 106 139 
193 594 187 80 121 153 
265 920 258 88 72 64 
218 997 296 134 101 68 
186 514 294 188 177 172 
205 706 184 67 77 88 
374 201 220 109 58 67 
191 924 240 83 63 47 
237 182 255 30 55 99 
322 568 217 138 164 197 
226 434 157 149 133 128 
201 409 257 19 58 109 
229 550 334 166 165 172 
240 13 317 65 56 46 
313 460 320 88 112 144 
200 430 257 63 87 129 
141 651 90 99 114 132 
207 867 247 109 80 50 
210 323 254 115 93 110 
240 478 163 104 125 148 
232 186 254 28 58 102 
144 743 235 124 110 100 
327 527 197 138 154 179 
261 595 333 72 85 108 
260 27 245 129 115 125 
230 685 183 31 40 50 
303 596 224 107 117 169 
231 467 321 47 77 116 
276 755 268 176 151 130 
270 718 204 156 115 86 
235 186 254 28 58 100 
173 439 241 111 124 145 
312 592 305 142 102 102 
282 634 383 102 75 82 
207 449 264 130 136 149 
307 565 204 110 134 174 
190 657 270 70 108 140 
374 425 296 161 163 173 
270 361 152 169 143 114 
272 362 264 93 89 89 
314 266 299 176 170 172 
310 594 293 126 95 84 
323 151 221 151 90 70 
287 140 266 83 62 48 
314 156 203 144 84 47 
240 836 348 177 148 121 
169 572 211 167 154 148 
332 461 181 89 114 157 
309 723 291 73 132 173 
180 775 162 203 144 109 
216 924 232 74 57 42 
171 843 273 209 162 137 
293 696 411 160 164 191 
169 623 97 99 113 129 
188 838 307 193 151 117 
389 476 256 182 184 193 
273 687 199 140 63 36 
166 563 242 136 146 164 
220 694 436 144 157 184 
167 826 246 219 164 131 
300 653 223 213 144 55 
280 673 419 84 109 133 
231 837 334 142 117 91 
232 735 364 51 73 114 
165 693 88 178 193 213 
239 185 255 34 61 100 
249 657 397 107 107 130 
170 631 243 135 144 159 
241 694 398 66 83 101 
375 485 211 158 165 180 
266 712 196 174 155 141 
341 177 217 87 48 45 
256 517 338 125 138 159 
262 249 262 131 131 137 
211 624 173 91 64 85 
279 762 282 97 103 110 
152 488 208 87 106 134 
212 699 163 127 134 143 
360 507 308 182 185 195 
233 833 306 86 70 58 
236 33 328 146 135 127 
183 584 260 124 136 160 
251 82 276 95 76 54 
195 551 146 148 157 175 
232 739 365 41 61 111 
168 413 242 100 119 148 
177 390 166 91 120 147 
312 183 284 103 105 110 
390 243 212 113 94 101 
302 669 356 81 112 160 
159 419 225 160 153 153 
314 259 181 76 68 81 
216 53 306 127 113 102 
274 623 363 45 108 151 
320 319 296 97 123 148 
192 498 301 150 147 151 
229 991 257 158 118 88 
271 922 269 84 69 58 
161 789 280 174 153 138 
197 643 142 80 111 151 
252 924 340 192 142 117 
298 287 280 152 143 143 
210 719 167 126 127 133 
209 297 179 90 109 128 
197 703 334 64 111 146 
263 906 336 174 132 106 
259 945 327 103 80 68 
357 420 197 78 101 126 
303 704 313 113 138 163 
278 138 268 87 72 61 
188 592 258 108 125 150 
295 713 344 108 139 170 
222 226 191 87 86 90 
183 558 169 142 140 146 
280 23 307 143 120 111 
219 637 180 63 113 153 
201 821 345 135 123 119 
191 584 290 115 136 165 
265 569 182 78 117 169 
242 823 319 154 138 128 
136 670 96 60 97 132 
273 309 251 102 122 144 
165 503 246 122 128 139 
274 669 425 152 107 84 
250 427 303 61 90 116 
301 640 334 120 135 157 
271 664 377 52 117 161 
213 967 300 82 61 43 
222 229 190 89 79 79 
224 691 442 109 140 176 
177 467 174 126 133 144 
229 500 334 139 147 163 
333 537 315 92 114 160 
400 338 219 115 128 145 
164 450 225 99 121 148 
153 659 63 203 214 239 
205 627 320 103 128 154 
190 461 160 146 149 159 
204 324 261 110 104 118 
152 694 147 90 65 65 
219 239 191 89 84 84 
418 216 187 140 82 81 
253 701 383 79 109 137 
174 493 246 123 127 135 
249 303 243 114 87 89 
163 695 89 189 205 229 
280 582 341 100 88 78 
226 672 444 138 103 80 
198 498 310 144 147 157 
258 719 432 140 144 187 
179 745 329 160 155 159 
236 833 316 87 63 53 
217 651 200 117 93 101 
224 859 257 126 97 65 
220 441 300 98 116 138 
264 12 309 118 106 98 
162 772 287 114 105 101 
378 223 227 108 87 81 
268 931 266 94 78 68 
264 923 257 74 59 48 
182 698 215 69 83 96 
335 485 309 166 162 165 
241 489 331 142 149 162 
242 624 325 140 143 152 
223 234 188 108 77 60 
227 508 336 101 125 155 
228 991 293 153 122 92 
223 237 187 104 78 60 
209 629 113 96 85 76 
275 250 280 157 137 119 
295 546 185 108 128 193 
300 627 296 64 63 69 
254 632 159 120 85 71 
291 655 391 101 124 152 
257 644 155 120 131 146 
414 261 196 187 71 10 
347 306 290 142 30 49 
393 228 204 123 99 84 
379 492 286 110 134 166 
288 625 379 131 92 80 
184 924 252 93 73 56 
174 635 99 83 78 75 
181 921 263 92 72 53 
239 843 263 148 120 92 
174 329 194 131 130 134 
177 379 180 47 79 103 
292 698 410 164 168 188 
232 442 157 122 106 90 
234 495 332 159 159 166 
311 598 280 172 125 114 
141 733 141 151 159 172 
247 601 179 61 54 54 
148 748 141 179 157 139 
263 156 163 152 60 12 
283 902 258 119 92 72 
150 797 253 179 159 144 
241 526 336 169 167 173 
300 144 266 93 83 73 
262 597 332 79 93 116 
215 250 191 93 99 106 
213 58 258 78 66 55 
169 688 278 54 85 115 
213 873 250 85 63 39 
259 679 442 169 119 91 
133 767 212 152 133 118 
245 909 241 69 58 50 
305 651 337 120 142 166 
407 347 261 149 119 78 
271 781 371 119 142 168 
213 617 163 56 91 126 
313 489 326 134 143 158 
237 930 339 204 167 145 
128 750 189 112 103 98 
325 242 229 69 86 104 
227 552 333 171 165 167 
423 307 215 114 139 164 
255 15 283 94 80 71 
215 254 190 97 101 109 
309 423 319 132 58 55 
162 354 205 145 156 174 
208 385 258 69 94 119 
276 915 273 86 70 57 
251 982 272 129 98 65 
314 572 306 115 88 81 
218 555 326 190 175 168 
334 492 186 190 188 196 
295 123 234 113 104 95 
218 243 191 99 83 77 
295 398 314 106 96 88 
254 515 167 60 95 147 
249 293 168 144 144 149 
213 56 307 132 118 106 
273 727 221 149 107 66 
217 245 191 96 94 97 
326 242 228 67 87 106 
191 613 128 77 110 139 
217 246 190 98 101 108 
187 708 140 96 95 101 
217 247 190 99 104 112 
207 652 212 104 106 113 
297 140 174 129 107 93 
189 949 311 127 107 92 
189 691 309 147 145 149 
325 141 244 110 98 87 
218 244 191 95 85 82 
199 669 96 140 147 191 
393 330 223 109 128 149 
168 569 206 137 131 131 
261 203 279 110 50 67 
338 207 254 120 65 60 
357 366 212 90 104 121 
176 663 260 47 79 105 
186 623 110 57 73 101 
159 295 217 131 66 1 
243 622 143 96 88 82 
350 545 239 139 172 210 
262 528 175 107 121 167 
296 704 363 121 143 182 
205 611 131 7 47 92 
192 716 335 115 128 146 
185 446 250 97 119 142 
277 718 240 65 62 72 
348 511 199 84 111 178 
374 259 217 159 159 165 
365 449 301 110 136 164 
161 372 181 98 129 169 
306 507 178 175 179 193 
171 806 210 249 181 136 
179 825 236 229 168 129 
276 456 332 172 169 174 
314 489 326 149 151 161 
378 180 206 113 96 91 
212 865 326 164 123 97 
339 138 234 117 103 92 
159 346 211 110 133 171 
150 295 246 77 126 164 
190 96 258 130 106 82 
186 658 267 69 109 142 
270 244 276 113 47 74 
270 548 338 158 158 165 
306 691 270 111 131 151 
249 42 283 95 76 55 
253 709 191 156 135 118 
247 135 296 116 102 89 
284 762 306 90 82 105 
260 47 319 129 100 84 
145 735 236 89 93 99 
159 460 211 110 125 145 
150 271 234 135 20 43 
275 775 312 160 140 123 
294 353 143 171 145 116 
278 696 211 95 80 65 
309 225 175 91 84 80 
368 157 212 91 91 99 
211 421 288 92 111 136 
258 664 341 80 104 133 
262 589 333 80 96 121 
223 247 185 84 85 96 
280 16 317 142 129 122 
381 200 207 93 76 86 
259 695 351 86 108 145 
228 987 298 143 107 85 
220 245 188 98 98 102 
391 403 212 56 95 143 
180 898 261 73 55 44 
261 741 216 104 100 101 
291 695 420 143 157 177 
313 285 178 103 107 115 
165 227 272 112 88 109 
282 304 257 99 120 143 
419 358 250 142 132 126 
159 790 184 209 140 109 
181 556 170 132 133 141 
413 214 193 120 86 70 
324 459 319 163 165 174 
356 533 281 189 198 217 
238 799 259 193 134 108 
223 344 165 111 118 128 
282 723 260 155 146 142 
365 243 247 73 95 114 
180 585 248 121 139 161 
307 659 251 170 119 163 
317 280 197 77 73 84 
195 587 178 65 105 136 
291 707 397 170 177 192 
149 659 65 143 153 201 
234 837 343 77 61 64 
231 134 260 134 72 35 
189 974 273 144 110 81 
197 741 353 113 118 137 
227 783 396 126 158 202 
246 576 168 117 129 147 
387 241 211 134 41 74 
300 731 277 175 78 69 
414 407 246 60 96 145 
166 645 81 95 84 75 
293 615 327 75 94 153 
263 205 286 100 32 27 
179 326 186 136 133 134 
183 453 151 153 158 170 
251 321 166 125 124 128 
265 226 160 97 63 70 
238 694 399 62 81 100 
381 322 278 122 115 115 
182 700 214 67 81 95 
305 588 276 134 104 106 
150 265 246 88 55 50 
297 646 373 48 69 141 
202 459 290 152 152 159 
174 382 252 70 112 152 
354 429 194 78 100 131 
138 758 183 174 149 129 
189 955 285 140 106 78 
251 417 152 177 144 104 
202 633 279 64 103 139 
228 954 247 115 89 64 
141 760 178 171 154 142 
206 631 301 153 150 155 
203 917 231 69 52 36 
275 559 340 80 113 140 
270 128 200 155 143 132 
222 574 157 87 105 125 
273 184 153 53 41 62 
225 701 439 107 132 184 
221 248 187 83 86 95 
299 134 238 90 63 24 
221 251 185 96 94 103 
220 250 186 89 89 100 
221 393 158 172 147 122 
323 195 214 108 45 43 
319 168 202 128 61 42 
209 873 324 170 127 101 
286 279 270 109 107 107 
291 258 297 174 167 169 
219 760 199 179 128 90 
319 288 205 96 105 119 
266 359 156 157 133 110 
303 232 303 86 49 60 
299 713 321 118 138 160 
184 477 144 144 160 180 
239 493 157 126 140 162 
238 640 129 65 96 142 
204 502 140 69 114 176 
329 189 236 93 45 30 
220 253 185 89 88 96 
368 269 264 121 121 126 
166 560 251 207 192 184 
316 220 296 95 94 106 
292 513 336 116 134 158 
178 334 188 77 82 94 
203 950 250 144 107 75 
287 287 149 154 150 153 
163 697 148 91 102 115 
235 159 257 72 27 23 
222 252 184 84 82 90 
289 179 154 59 82 105 
307 167 278 107 107 110 
307 643 274 76 113 144 
223 252 184 89 90 98 
315 357 176 150 130 110 
222 674 421 45 91 130 
404 363 214 134 140 158 
391 376 212 110 120 134 
387 483 249 131 145 167 
343 154 233 155 60 11 
184 448 157 104 126 151 
200 616 275 142 141 148 
290 690 418 87 106 126 
354 244 253 79 101 121 
241 167 259 124 33 24 
204 951 250 135 99 71 
270 392 295 33 77 105 
242 325 167 108 116 127 
162 559 227 110 121 140 
184 728 141 167 150 139 
263 938 328 160 121 110 
329 411 311 133 109 78 
226 989 249 144 112 82 
289 592 377 125 104 84 
321 229 225 93 44 59 
185 384 179 52 82 105 
164 320 207 96 90 85 
321 224 226 83 50 70 
150 697 149 83 28 35 
317 333 187 70 73 79 
312 580 299 107 89 81 
208 577 158 81 91 104 
256 925 338 194 142 119 
216 706 424 107 121 162 
327 568 253 133 164 206 
397 149 167 159 91 65 
263 209 283 99 39 61 
219 649 158 120 137 168 
356 512 206 105 127 180 
184 894 307 161 106 81 
191 496 298 85 109 133 
220 921 336 131 107 87 
281 412 317 100 112 127 
366 166 205 138 35 35 
308 308 280 148 142 141 
267 482 336 106 120 150 
168 700 274 123 138 156 
231 397 276 91 111 134 
213 771 383 129 138 168 
253 568 335 164 160 163 
380 271 258 93 77 77 
307 666 334 137 154 177 
195 614 198 116 125 141 
210 992 274 130 107 81 
190 837 311 202 169 136 
162 636 82 61 67 75 
316 312 289 125 134 149 
276 133 163 125 115 106 
319 204 287 94 83 84 
307 159 271 126 67 3 
253 297 166 156 157 166 
175 545 165 113 129 149 
271 128 201 155 142 131 
307 622 286 166 120 106 
307 273 158 71 95 115 
298 602 343 150 100 82 
230 199 188 60 86 108 
388 222 205 143 89 72 
163 189 261 115 54 14 
415 203 185 192 36 41 
160 718 263 86 62 73 
257 631 167 115 86 72 
335 290 300 166 163 167 
177 421 162 127 145 168 
232 538 156 124 135 157 
217 705 350 59 85 124 
206 836 332 195 156 113 
193 104 256 102 77 53 
213 744 396 157 162 174 
292 753 318 202 95 101 
197 584 174 112 119 131 
324 555 276 162 166 179 
193 299 186 137 133 133 
231 200 187 67 95 118 
218 512 154 77 96 119 
231 202 185 69 95 118 
309 285 163 121 121 127 
265 547 336 139 151 168 
190 902 236 105 82 60 
274 182 153 56 72 95 
286 706 414 105 123 188 
183 658 248 94 114 136 
383 263 211 177 172 175 
304 219 165 104 70 83 
163 801 284 138 125 116 
361 141 208 162 85 39 
216 788 383 94 110 166 
219 51 310 136 121 109 
307 613 255 159 158 165 
387 481 238 156 165 180 
183 912 301 108 86 72 
299 606 239 169 170 180 
335 541 207 194 200 215 
303 552 331 108 127 152 
177 627 118 96 112 131 
155 267 222 101 50 50 
261 88 302 142 107 87 
243 836 307 107 80 53 
165 763 294 136 119 105 
244 581 338 111 140 169 
216 974 243 138 103 55 
344 537 304 122 148 182 
241 797 260 195 137 111 
226 668 205 89 93 100 
254 417 299 91 109 130 
204 623 315 95 125 153 
140 719 164 110 92 74 
256 618 387 113 95 78 
334 228 231 105 38 36 
156 442 208 106 124 146 
220 909 230 47 41 37 
355 407 198 97 113 134 
335 219 271 106 106 112 
264 927 254 90 74 61 
379 474 213 137 148 168 
253 766 407 166 170 205 
294 720 329 134 151 172 
413 272 212 83 113 140 
230 206 186 99 94 94 
210 334 256 131 60 86 
199 439 151 109 129 152 
246 695 395 90 106 124 
228 204 188 80 96 113 
404 434 266 107 124 162 
252 674 446 159 109 81 
221 795 384 167 182 203 
294 329 144 125 51 45 
349 149 218 167 68 7 
220 46 322 102 88 74 
277 137 270 88 75 64 
163 354 192 85 93 122 
146 277 246 142 139 141 
228 206 189 91 96 104 
219 699 186 42 47 56 
217 105 294 137 90 83 
221 103 298 152 112 99 
156 727 181 82 64 46 
274 901 270 100 78 60 
269 277 157 151 148 150 
184 594 243 120 132 153 
235 195 183 66 99 127 
189 927 322 116 95 74 
279 865 266 135 114 94 
312 169 172 107 45 52 
228 802 244 199 137 109 
153 695 148 98 26 44 
202 123 264 111 98 87 
198 855 240 170 121 82 
183 941 279 89 68 51 
198 62 266 89 71 48 
297 684 322 180 180 188 
265 662 343 84 107 144 
294 693 318 144 156 174 
301 127 235 107 87 68 
227 137 256 132 63 6 
219 612 147 53 85 114 
218 395 158 169 145 121 
274 170 301 153 46 52 
167 727 288 146 14 30 
180 342 187 81 111 139 
135 744 185 106 91 77 
239 192 180 80 98 117 
250 194 260 102 41 26 
267 921 262 76 62 54 
164 429 234 62 86 144 
292 687 253 197 84 18 
242 594 172 97 94 92 
134 685 108 103 118 137 
389 376 212 116 125 139 
239 195 180 90 97 110 
314 323 180 79 93 109 
316 364 178 149 129 108 
404 415 278 113 131 151 
233 709 182 148 131 117 
370 499 214 172 177 190 
313 711 289 103 152 191 
176 461 240 115 126 142 
294 746 285 190 161 135 
146 306 235 118 62 73 
385 457 216 113 125 156 
215 772 388 141 152 183 
236 199 182 83 102 123 
211 268 249 151 146 148 
194 970 257 108 83 59 
201 786 208 200 146 108 
314 684 288 146 161 181 
193 339 266 113 119 146 
239 196 180 90 95 107 
375 155 189 156 129 113 
218 299 175 87 111 136 
181 367 260 120 137 164 
246 280 169 77 102 130 
227 805 245 202 139 112 
229 490 154 127 138 157 
233 284 171 84 113 139 
135 686 118 99 121 143 
241 55 283 111 96 83 
141 743 154 165 146 131 
186 902 299 152 119 97 
208 491 316 84 108 135 
221 423 158 119 100 79 
223 701 174 139 129 126 
263 687 349 59 94 144 
233 192 186 66 93 116 
311 669 262 99 83 78 
328 555 288 150 71 95 
270 669 351 113 133 168 
256 130 180 166 151 138 
379 280 240 141 141 147 
245 656 439 111 91 69 
169 386 190 79 98 145 
362 418 198 72 99 127 
391 360 218 133 111 87 
311 528 326 72 77 88 
248 15 293 93 81 71 
352 222 218 78 44 37 
239 698 184 120 105 94 
167 730 309 117 112 133 
184 495 259 67 91 115 
209 218 258 133 16 40 
161 402 235 118 126 142 
274 892 296 144 116 85 
381 159 186 165 48 30 
283 638 408 155 109 77 
313 571 319 69 97 122 
182 352 187 73 103 128 
400 345 266 153 133 114 
156 528 244 175 163 160 
423 268 204 141 127 118 
298 634 245 59 68 77 
264 168 164 77 59 91 
218 342 166 132 133 138 
192 356 173 104 120 139 
279 347 263 123 125 131 
243 145 286 156 56 8 
271 141 301 132 116 104 
339 316 299 149 0 60 
269 448 330 118 128 143 
183 650 252 44 65 98 
223 73 293 112 84 47 
379 502 241 148 163 185 
313 254 180 98 27 52 
398 193 189 105 72 78 
235 200 183 78 98 119 
337 249 287 87 118 145 
234 202 183 92 95 104 
268 334 158 179 151 120 
218 536 150 99 122 152 
181 264 202 74 99 123 
196 66 326 130 126 126 
277 690 428 129 145 165 
263 39 289 86 70 52 
220 490 325 106 121 139 
253 969 275 113 89 67 
249 496 165 52 90 126 
199 643 145 89 108 156 
202 616 125 59 90 113 
174 714 303 74 101 126 
286 228 154 72 104 131 
212 621 184 142 143 149 
175 168 268 70 64 60 
235 791 242 202 143 118 
279 646 396 113 84 75 
274 23 288 137 120 112 
166 695 247 117 130 147 
230 955 324 104 86 75 
295 712 363 116 139 165 
180 623 241 79 107 132 
206 623 121 100 91 84 
166 806 289 127 114 104 
169 549 183 135 136 143 
287 761 333 162 63 60 
238 201 182 112 94 88 
155 773 164 190 140 104 
403 313 241 120 128 140 
298 372 142 144 93 68 
163 712 101 95 89 135 
312 699 277 160 182 207 
147 725 175 106 93 81 
287 301 261 78 53 78 
269 150 154 140 61 0 
301 136 241 89 61 29 
420 355 231 165 163 168 
252 895 332 112 87 67 
172 180 270 92 72 62 
236 206 183 135 90 54 
134 725 166 63 70 81 
217 743 385 57 77 138 
230 684 201 83 82 87 
214 379 161 149 123 98 
187 770 167 174 128 95 
400 349 217 139 135 135 
158 489 220 150 148 151 
199 751 169 116 84 53 
211 896 328 169 124 102 
401 351 268 161 140 119 
192 678 114 182 96 97 
225 682 344 86 102 121 
271 541 336 78 106 135 
243 321 244 154 152 156 
372 250 216 93 122 147 
279 713 240 125 116 110 
157 789 185 208 142 110 
230 760 207 178 131 95 
138 655 93 57 91 119 
390 461 228 129 149 179 
263 39 291 87 71 54 
304 647 258 83 69 75 
233 202 184 82 96 111 
140 748 188 105 90 77 
221 672 427 99 120 142 
177 660 258 50 75 104 
221 677 435 110 131 152 
228 670 339 64 94 124 
163 789 177 202 133 103 
216 801 230 182 128 99 
195 738 349 54 91 138 
376 337 284 121 119 132 
243 39 325 96 70 52 
173 489 243 144 142 146 
210 424 288 66 96 129 
221 730 422 105 117 183 
234 29 299 101 90 81 
195 838 317 179 165 158 
325 570 249 144 158 197 
340 543 212 98 117 177 
221 647 172 137 141 155 
258 11 244 89 71 60 
243 115 297 131 100 82 
358 332 293 179 151 125 
335 291 219 100 111 125 
187 734 336 48 75 107 
181 588 244 91 113 146 
355 525 293 129 146 191 
231 509 155 132 141 166 
304 656 354 120 133 167 
236 48 309 103 86 72 
177 530 281 121 126 137 
246 665 404 84 96 127 
179 175 275 104 52 66 
267 614 359 38 90 149 
225 37 311 87 75 63 
263 223 274 83 34 26 
180 915 275 68 54 44 
206 992 255 118 90 63 
197 677 131 141 65 72 
234 810 268 185 125 103 
233 831 313 84 69 60 
326 166 238 111 92 90 
153 507 203 93 107 128 
185 518 158 64 88 116 
287 607 390 122 97 70 
233 28 325 108 92 76 
328 340 303 128 133 151 
221 683 423 114 128 146 
272 890 284 145 112 83 
368 309 285 152 123 89 
327 408 185 106 115 128 
227 212 190 99 98 101 
226 214 189 97 95 96 
202 615 291 151 149 155 
389 477 245 179 182 193 
289 738 269 195 178 176 
264 416 306 34 74 110 
359 531 255 201 202 211 
298 168 291 63 88 108 
264 305 248 71 113 145 
324 525 319 126 140 161 
229 209 187 96 92 93 
321 307 207 96 107 122 
150 734 216 70 85 99 
311 368 157 153 134 116 
357 449 192 79 105 141 
375 248 249 80 107 132 
170 493 243 136 138 147 
178 695 292 112 120 133 
262 672 183 141 49 72 
339 436 306 55 85 137 
291 666 221 159 62 83 
244 78 311 143 110 91 
332 554 290 204 204 213 
244 151 274 109 96 101 
330 250 226 82 75 82 
339 550 293 211 210 220 
394 318 222 185 179 182 
283 363 283 103 81 53 
234 844 256 142 111 79 
196 637 264 93 52 72 
292 528 175 102 123 196 
195 434 150 95 119 143 
228 210 188 96 93 94 
190 719 148 18 26 45 
210 621 174 110 78 86 
312 349 163 114 23 48 
311 278 172 122 123 127 
342 546 287 211 211 223 
265 50 306 113 89 64 
421 332 221 110 99 109 
208 624 191 133 135 144 
194 810 227 198 143 105 
312 168 177 112 78 79 
303 643 280 141 139 144 
215 740 388 95 116 148 
307 645 275 78 121 155 
258 766 247 121 98 81 
263 215 165 77 40 40 
334 214 270 86 88 93 
271 417 314 95 112 130 
224 728 359 107 116 129 
159 414 221 86 101 131 
302 272 150 80 112 139 
213 719 170 170 154 143 
221 725 357 79 98 121 
262 46 317 116 92 70 
207 925 330 90 72 58 
309 717 306 137 157 180 
208 642 100 132 134 140 
280 772 353 106 126 155 
206 845 311 153 101 78 
172 431 185 87 106 133 
315 241 190 64 42 47 
400 279 222 132 138 148 
361 185 225 121 61 46 
226 218 187 95 81 75 
226 861 331 158 117 92 
159 808 222 222 163 132 
251 370 157 147 127 109 
150 272 240 105 48 45 
255 843 299 125 103 81 
253 688 347 50 80 131 
235 300 170 82 110 136 
259 380 266 107 115 129 
222 494 155 141 146 157 
187 581 278 148 153 165 
200 607 308 155 156 164 
195 595 284 123 137 157 
158 295 219 124 65 20 
330 365 199 126 124 127 
263 257 261 82 109 135 
317 429 161 89 86 103 
198 353 170 109 122 138 
297 571 339 37 49 60 
300 289 281 80 93 110 
226 482 155 124 136 156 
163 359 205 133 148 169 
226 217 189 96 93 93 
239 909 343 183 148 124 
372 395 291 158 146 139 
301 655 288 57 51 60 
251 845 288 109 86 59 
368 290 225 92 119 146 
268 27 324 161 143 138 
168 701 229 82 32 40 
208 216 259 132 23 41 
232 26 323 102 86 70 
259 391 277 70 90 111 
195 642 216 81 98 120 
214 798 375 177 188 207 
322 414 316 158 147 143 
220 431 164 115 103 92 
242 785 246 205 151 124 
162 263 213 88 86 91 
404 205 193 104 68 67 
137 699 104 194 211 234 
291 741 357 151 166 186 
356 534 252 127 150 175 
172 311 196 108 112 119 
282 700 423 149 161 181 
189 431 253 49 79 126 
304 602 247 112 140 174 
255 117 264 93 78 64 
262 128 190 158 145 133 
239 59 282 112 99 89 
304 657 243 154 138 139 
281 167 153 107 59 55 
288 353 279 77 100 122 
227 433 157 151 134 128 
226 220 188 89 72 70 
251 639 153 43 60 86 
155 724 113 201 115 39 
196 697 152 101 107 118 
408 220 197 102 98 100 
227 326 245 153 108 53 
268 635 181 72 60 51 
234 733 428 101 126 194 
305 570 283 63 109 142 
331 239 228 67 93 115 
191 832 321 144 135 131 
296 628 242 138 94 84 
260 692 385 135 138 146 
260 676 184 192 72 37 
280 644 185 78 74 78 
172 607 224 72 108 148 
223 694 412 119 118 122 
178 804 326 173 124 80 
171 405 161 121 141 167 
326 164 238 113 105 107 
137 682 120 130 135 146 
280 717 249 133 101 92 
320 241 215 93 90 95 
235 665 174 54 103 134 
397 367 281 154 81 7 
205 837 245 133 98 59 
185 557 165 130 138 153 
204 957 250 102 79 53 
316 274 189 76 49 58 
199 644 214 132 136 147 
153 471 205 115 126 143 
417 346 221 164 165 173 
278 132 189 159 142 128 
214 57 257 74 63 52 
185 685 289 133 133 139 
238 652 403 37 80 137 
358 495 312 104 122 168 
310 309 153 92 107 123 
385 326 275 112 105 110 
230 220 184 135 70 63 
278 274 264 138 119 99 
260 904 252 180 127 96 
208 645 152 80 102 149 
194 961 302 109 85 67 
303 357 144 132 20 53 
276 129 205 151 138 128 
246 670 405 87 100 115 
163 639 80 78 75 74 
235 208 183 138 91 59 
235 209 183 140 91 61 
274 686 201 103 76 39 
291 748 283 82 38 110 
224 589 319 67 98 127 
318 440 164 82 107 134 
277 544 180 110 130 182 
164 441 228 81 107 146 
194 829 330 168 143 119 
271 765 271 176 142 131 
214 708 169 61 73 98 
247 707 189 118 106 99 
299 305 273 73 116 149 
392 467 253 126 135 172 
352 529 302 147 166 205 
407 287 213 128 102 119 
322 371 304 177 147 115 
212 327 253 127 57 81 
283 431 326 143 143 149 
203 602 171 128 140 158 
175 765 150 161 147 140 
194 887 237 98 75 56 
218 611 319 88 56 67 
293 714 341 137 158 181 
398 433 227 170 167 174 
194 696 205 76 86 97 
215 968 299 105 88 74 
184 691 102 102 121 141 
163 424 193 62 88 117 
288 752 334 205 202 207 
244 474 162 170 166 176 
334 426 183 147 147 153 
196 123 266 118 106 96 
231 951 327 116 96 83 
168 649 73 93 87 83 
267 223 284 41 44 79 
170 383 167 61 98 134 
134 707 133 124 129 132 
264 435 321 88 108 128 
260 417 305 52 87 116 
303 432 149 141 126 112 
181 264 269 175 171 175 
338 186 223 59 45 67 
197 282 258 127 123 126 
150 325 224 178 179 189 
168 388 191 78 98 144 
193 314 265 125 118 126 
223 384 158 155 133 108 
232 208 185 119 88 65 
196 195 269 143 43 44 
231 62 297 103 85 64 
300 621 243 163 155 154 
214 350 255 138 83 97 
296 691 387 134 150 180 
190 727 337 96 113 147 
141 686 88 151 161 184 
282 729 390 131 149 183 
369 386 207 114 123 135 
288 160 298 147 74 8 
169 343 201 76 65 72 
319 168 264 122 56 70 
319 162 258 131 76 30 
305 586 250 122 147 176 
220 410 157 117 110 115 
147 324 211 152 151 156 
176 702 295 80 111 138 
286 279 150 140 136 136 
258 538 337 90 114 141 
186 633 240 131 129 135 
238 906 343 138 112 96 
352 254 264 75 102 127 
192 829 325 128 105 86 
258 707 440 104 89 109 
139 657 100 89 105 122 
236 645 127 31 87 125 
348 289 289 155 149 150 
269 636 422 125 99 69 
280 642 414 152 108 77 
263 643 386 89 106 137 
277 441 328 141 144 153 
235 218 183 130 53 49 
375 202 219 105 56 66 
192 794 348 147 20 41 
267 129 194 159 145 134 
252 186 264 110 37 47 
163 335 249 155 97 24 
168 477 234 60 88 130 
191 638 256 133 135 142 
272 659 370 40 43 85 
172 704 153 56 58 62 
199 987 257 111 84 64 
240 635 139 96 72 52 
168 715 112 209 159 146 
154 520 239 132 139 152 
233 664 193 46 80 106 
200 471 278 123 126 133 
147 752 149 161 137 116 
296 685 397 127 143 172 
223 653 195 47 99 136 
369 249 252 76 98 119 
360 331 222 120 107 107 
348 449 188 127 138 156 
247 843 286 107 85 59 
184 365 185 93 93 95 
292 698 377 103 132 182 
319 472 173 145 154 171 
181 675 86 111 140 197 
236 985 295 129 92 63 
162 789 282 96 83 71 
171 393 181 49 87 148 
241 329 167 108 114 123 
320 161 237 120 120 120 
241 648 332 36 43 96 
177 697 144 44 72 96 
137 707 114 176 191 211 
158 525 198 55 80 122 
381 460 211 123 135 155 
240 438 303 73 94 115 
202 722 349 145 144 149 
205 127 263 108 96 88 
297 393 313 104 95 87 
222 648 165 102 118 156 
232 453 308 107 115 126 
237 223 182 128 50 55 
246 43 284 97 79 59 
174 681 238 81 109 132 
194 858 296 129 82 58 
191 941 318 144 124 106 
198 602 296 102 127 158 
288 258 151 85 112 136 
381 166 193 116 80 85 
354 470 192 113 131 157 
330 555 212 129 154 182 
237 874 257 115 88 60 
238 871 257 127 97 66 
160 659 117 82 99 134 
370 507 220 99 120 176 
232 837 338 136 117 100 
290 445 328 149 157 170 
189 635 102 103 91 78 
184 607 230 60 103 137 
398 441 278 116 137 166 
236 31 297 80 63 49 
290 454 155 54 95 141 
173 799 319 140 118 100 
286 679 221 92 83 87 
154 456 205 103 121 145 
231 119 289 151 114 92 
302 397 317 104 89 75 
376 164 203 88 86 93 
233 341 165 91 103 116 
367 325 284 170 141 108 
308 681 266 102 90 81 
211 655 105 53 70 142 
251 193 175 94 79 93 
134 727 167 68 78 89 
180 640 127 84 114 149 
301 213 158 97 83 91 
329 187 221 101 50 48 
297 604 368 165 113 95 
212 544 323 124 136 153 
285 676 410 75 95 130 
223 653 331 86 92 102 
233 849 326 162 120 98 
238 15 309 72 61 50 
374 438 202 27 70 126 
227 405 280 98 113 133 
352 289 283 99 111 126 
229 707 396 95 101 111 
234 561 335 159 165 178 
190 821 234 200 147 109 
174 526 175 67 88 127 
252 195 174 78 67 83 
289 761 322 176 126 86 
367 503 211 199 192 196 
253 195 174 81 65 80 
213 490 147 96 117 142 
228 692 445 60 99 157 
243 989 267 169 138 108 
200 899 319 153 116 91 
241 87 306 148 116 93 
286 521 173 92 126 192 
282 634 387 124 88 73 
288 559 340 93 118 144 
267 340 160 153 125 93 
320 482 177 108 127 168 
307 587 243 132 158 186 
207 737 359 83 102 135 
289 672 223 168 145 119 
160 557 234 131 136 159 
247 761 412 171 171 199 
195 362 171 142 139 142 
298 343 282 149 131 114 
217 401 158 160 134 106 
196 642 267 73 116 149 
192 584 298 92 121 157 
287 304 262 67 112 145 
268 71 289 101 83 65 
272 881 259 151 125 99 
219 715 427 152 162 191 
256 790 282 162 136 139 
252 197 174 95 69 78 
262 741 413 134 139 175 
298 638 343 81 110 143 
253 197 174 90 66 76 
199 668 306 77 118 150 
283 487 167 116 133 167 
385 317 259 126 122 123 
262 579 184 140 146 159 
230 733 427 213 209 215 
231 791 236 206 148 121 
244 634 413 115 95 75 
292 677 246 200 144 68 
336 216 268 97 98 103 
265 161 161 123 104 92 
154 321 237 151 159 174 
189 762 164 158 123 85 
218 669 338 65 94 118 
135 696 105 172 193 219 
252 184 265 115 48 47 
183 485 167 125 134 150 
368 391 206 89 107 128 
345 363 210 125 125 130 
198 947 317 102 84 74 
173 456 181 34 66 100 
301 665 294 94 87 121 
200 817 238 187 135 102 
225 979 301 148 126 105 
251 900 338 125 101 76 
323 202 219 91 47 51 
286 278 150 141 136 138 
415 229 191 101 61 44 
