ply
format ascii 1.0
comment Created by CloudCompare v2.11.1 (Anoia)
comment Created 2/28/22 9:41 PM
obj_info Generated by CloudCompare!
element vertex 2014
property float x
property float y
property float z
property uchar red
property uchar green
property uchar blue
end_header
261 795 288 124 93 87 
295 582 334 74 123 161 
223 702 414 146 153 167 
263 195 213 77 73 79 
394 296 312 102 92 89 
275 131 260 96 70 46 
289 764 144 165 131 90 
225 721 398 117 150 185 
383 250 312 87 60 66 
258 412 180 60 63 77 
200 492 277 120 121 126 
275 767 108 105 83 87 
198 560 332 100 112 126 
264 800 194 181 137 101 
182 532 283 143 143 149 
357 202 306 83 71 62 
222 255 265 53 80 104 
292 578 359 92 97 113 
260 865 321 149 118 92 
316 693 58 143 157 222 
259 192 211 117 69 38 
274 924 266 184 126 95 
286 654 148 80 106 133 
344 167 328 119 61 0 
214 530 158 106 137 177 
191 570 221 135 142 176 
274 498 181 86 103 123 
379 460 342 105 127 177 
242 615 175 190 184 193 
191 314 258 86 112 136 
233 433 170 83 104 124 
335 443 349 101 98 134 
145 747 399 148 169 201 
197 374 249 91 112 140 
227 406 270 39 76 134 
302 242 339 102 107 119 
285 200 183 84 60 52 
162 809 282 94 99 106 
268 11 245 136 123 116 
275 790 227 191 138 106 
221 1009 281 183 145 100 
190 656 420 131 101 72 
228 850 288 129 94 65 
365 297 336 140 140 145 
277 623 369 186 133 122 
298 719 267 161 115 56 
209 763 396 127 129 174 
348 221 258 92 54 53 
338 303 239 105 106 110 
236 775 354 67 59 123 
346 269 255 87 88 93 
217 561 352 139 147 162 
138 742 388 141 153 183 
300 144 191 120 96 87 
243 237 269 90 83 93 
298 624 169 98 91 87 
236 257 264 64 96 123 
295 316 166 86 111 135 
250 208 269 98 35 30 
224 456 328 82 104 129 
214 621 222 84 117 144 
161 762 315 141 141 148 
212 659 311 94 113 134 
216 641 210 118 134 153 
327 363 363 180 148 113 
228 27 325 89 76 63 
196 874 274 174 129 99 
257 572 370 69 86 129 
180 695 429 77 105 131 
195 697 234 86 112 136 
284 718 337 113 136 159 
313 626 264 168 118 107 
270 638 152 122 152 180 
225 635 327 112 140 170 
207 450 251 76 100 135 
215 231 271 93 29 55 
309 655 85 74 77 82 
179 725 312 139 142 151 
219 86 304 93 76 58 
231 24 327 97 82 68 
231 25 327 99 84 70 
184 559 224 138 135 160 
270 214 197 125 86 35 
227 861 230 184 133 90 
315 248 254 86 85 88 
259 227 340 49 40 61 
368 368 321 147 68 16 
360 487 346 85 100 168 
235 708 394 111 137 177 
248 587 166 88 104 120 
232 664 353 87 102 129 
389 223 302 97 82 78 
230 25 328 100 86 72 
226 517 154 95 119 147 
390 425 292 82 112 153 
354 347 238 115 87 45 
321 567 234 76 105 148 
309 613 182 115 105 98 
194 694 423 48 79 128 
313 720 78 149 171 202 
195 340 219 137 143 161 
251 450 359 54 87 126 
271 528 166 63 98 170 
195 905 254 83 66 55 
324 207 231 79 48 38 
261 318 304 76 114 144 
197 787 387 200 210 228 
188 947 277 83 69 58 
288 750 94 152 53 64 
330 514 232 155 161 175 
263 974 324 95 77 59 
328 248 240 68 69 73 
246 472 363 117 128 145 
236 561 166 114 129 151 
219 441 307 76 93 113 
323 665 94 91 85 82 
211 654 237 76 106 132 
198 973 296 89 70 57 
237 677 346 82 104 142 
215 655 405 168 116 91 
231 29 330 95 81 66 
257 233 340 49 40 61 
316 631 153 129 111 96 
232 1010 291 145 117 91 
286 155 269 99 65 52 
316 636 199 50 67 82 
187 860 261 192 142 115 
189 309 255 133 147 164 
189 942 317 94 76 62 
386 369 327 147 136 130 
255 789 315 205 184 168 
247 225 296 124 32 28 
341 261 255 86 86 91 
305 605 309 60 114 150 
212 998 297 98 75 59 
308 645 269 86 83 90 
345 528 328 74 95 153 
333 553 320 134 152 173 
258 13 254 125 112 104 
260 780 322 180 152 138 
195 592 246 215 198 189 
287 676 151 129 150 175 
198 587 226 157 162 176 
239 137 293 108 98 88 
251 438 354 93 114 138 
355 340 241 100 73 58 
216 643 218 142 143 150 
161 673 425 123 96 66 
217 528 354 108 125 153 
173 844 313 181 165 155 
339 220 248 86 55 54 
275 323 329 81 122 154 
253 167 333 158 71 9 
400 356 291 103 78 45 
207 602 224 166 158 159 
229 894 339 173 132 108 
285 700 116 56 69 104 
236 785 351 154 97 72 
279 653 95 79 112 157 
234 184 268 88 41 51 
217 700 375 67 92 127 
352 320 354 132 141 156 
190 489 214 125 137 152 
254 273 319 170 62 4 
235 16 326 89 74 58 
322 515 213 94 123 154 
197 647 415 125 100 74 
311 649 171 161 179 203 
298 754 222 140 119 109 
214 753 178 69 72 76 
222 628 180 191 188 194 
306 438 358 125 105 79 
278 14 286 157 110 88 
167 836 301 163 148 140 
257 548 371 159 166 179 
350 283 253 89 95 103 
258 639 369 164 160 164 
274 697 179 64 69 79 
201 653 292 148 148 156 
385 257 315 139 136 138 
258 288 183 85 108 131 
282 216 178 83 42 35 
293 410 177 186 158 130 
235 118 305 77 65 52 
218 551 167 163 167 184 
275 520 373 103 123 156 
312 597 291 154 157 169 
224 836 194 242 173 132 
279 709 121 45 45 47 
232 22 326 93 79 64 
237 387 300 70 87 113 
306 705 218 77 73 72 
195 529 195 87 107 158 
180 654 417 115 92 68 
376 318 266 107 99 96 
276 771 184 81 57 51 
266 720 103 108 114 124 
201 590 317 187 177 177 
212 627 307 124 38 72 
314 206 169 129 47 60 
253 630 377 152 97 83 
244 475 363 133 142 158 
240 726 378 87 52 115 
287 194 220 76 76 84 
299 676 314 170 166 170 
300 755 249 133 139 147 
284 491 366 115 131 152 
211 83 308 125 85 62 
168 838 305 137 107 96 
244 368 179 141 150 166 
289 634 104 88 114 138 
194 709 198 137 149 165 
354 194 191 105 101 101 
282 898 299 135 103 74 
197 588 234 133 155 181 
209 875 231 155 112 78 
197 856 291 170 118 89 
286 686 73 104 130 160 
292 909 289 129 95 71 
188 509 290 103 110 121 
324 501 212 86 119 155 
318 254 167 86 116 144 
263 775 119 183 139 90 
326 638 165 67 88 105 
391 294 290 91 82 77 
183 935 296 78 62 52 
326 574 252 106 127 154 
193 477 221 101 119 141 
186 573 268 123 130 157 
212 645 203 131 147 168 
206 598 219 174 167 166 
131 712 401 123 129 169 
255 286 183 79 107 130 
349 349 197 134 13 55 
209 631 248 127 131 141 
236 17 330 98 82 65 
220 516 354 97 121 150 
385 243 308 85 81 80 
271 376 340 153 116 69 
358 240 268 81 53 54 
258 642 178 138 109 126 
310 470 200 80 102 126 
309 138 264 107 82 55 
217 485 159 76 102 125 
186 859 270 195 143 114 
238 323 292 131 131 138 
341 206 255 96 64 47 
237 18 332 102 86 70 
344 393 202 173 75 9 
206 675 405 82 67 80 
258 611 182 64 78 93 
210 666 231 138 139 145 
357 335 243 92 67 56 
238 690 351 116 127 141 
196 595 290 151 150 159 
238 18 333 99 84 70 
270 10 294 157 122 106 
186 165 268 85 71 57 
271 233 185 67 46 48 
354 531 284 118 138 177 
351 384 227 77 61 39 
166 692 428 153 112 90 
321 548 346 144 160 180 
385 202 296 89 47 59 
268 803 237 186 133 105 
201 336 263 144 60 93 
388 432 338 69 95 144 
178 727 311 142 144 152 
280 761 313 123 114 138 
254 800 297 151 144 142 
249 656 198 110 105 107 
282 706 168 137 86 74 
190 305 261 148 156 170 
249 215 279 66 53 78 
262 87 326 116 95 73 
237 954 343 181 145 127 
196 878 275 171 128 97 
287 252 344 127 88 76 
260 734 155 109 27 24 
310 668 289 93 60 61 
385 303 311 80 118 148 
276 790 170 169 129 96 
307 626 158 109 99 91 
147 762 359 127 139 165 
238 310 268 98 97 100 
247 326 294 122 122 126 
287 773 127 198 174 154 
340 384 198 186 156 125 
207 686 194 79 120 152 
209 230 273 116 10 56 
293 355 170 211 169 115 
195 772 183 94 81 68 
187 648 414 117 96 73 
380 276 317 139 138 143 
258 804 141 210 176 147 
155 792 337 104 130 154 
375 408 259 77 105 138 
218 92 258 88 69 49 
307 717 261 151 129 110 
316 400 362 188 153 114 
367 500 309 186 183 188 
233 644 390 149 103 83 
206 454 296 106 115 127 
294 365 172 211 173 129 
269 241 183 60 79 97 
230 751 376 155 174 198 
376 215 283 120 39 28 
185 725 322 110 120 140 
192 322 255 160 107 27 
284 398 354 141 138 143 
263 875 325 140 115 87 
350 347 201 125 29 56 
232 28 330 97 82 67 
277 776 180 131 99 67 
189 751 415 73 106 193 
273 630 120 79 120 157 
204 707 372 60 85 123 
232 30 331 116 105 97 
231 920 348 124 95 79 
371 181 263 104 26 48 
363 308 334 100 123 147 
341 401 201 170 76 8 
350 268 355 77 105 131 
327 253 173 126 119 117 
199 758 184 98 89 82 
205 629 294 69 119 155 
308 701 119 157 108 122 
259 638 367 140 137 141 
392 374 331 151 140 134 
400 223 286 113 74 96 
184 309 238 158 163 174 
378 299 276 117 120 126 
269 812 174 195 143 111 
236 25 332 122 108 98 
322 205 251 66 56 53 
237 24 333 134 121 114 
255 989 293 105 85 64 
350 404 228 121 107 94 
213 432 187 51 78 100 
320 616 214 133 102 82 
192 761 410 192 201 217 
316 631 227 152 113 95 
237 27 332 142 132 127 
314 652 201 143 176 211 
291 571 194 90 103 118 
222 810 354 103 94 98 
312 701 229 159 63 23 
280 593 362 58 97 152 
184 852 259 195 144 119 
338 306 181 141 141 146 
261 646 180 126 93 108 
204 603 302 121 128 145 
389 317 278 106 109 115 
233 589 358 108 122 155 
273 687 339 124 134 172 
344 305 244 73 81 91 
208 983 254 101 78 53 
262 802 270 199 144 123 
379 406 334 86 111 147 
133 710 414 94 133 173 
272 171 218 87 85 89 
212 95 314 143 94 84 
314 407 187 191 161 129 
217 849 216 236 169 127 
320 626 175 147 108 90 
309 625 275 150 136 133 
190 731 204 99 58 69 
299 197 165 104 33 43 
325 197 255 81 63 52 
253 269 187 120 90 69 
160 720 374 71 94 115 
284 159 263 94 69 58 
239 31 332 81 60 46 
240 12 320 87 74 61 
163 824 339 176 28 48 
273 669 201 86 86 90 
345 458 349 150 154 164 
228 765 163 93 76 56 
337 193 341 105 85 73 
275 270 175 112 73 71 
226 378 181 42 75 109 
175 845 279 178 151 133 
379 358 266 125 68 85 
293 162 323 120 108 100 
266 327 312 67 105 138 
250 754 114 118 48 50 
258 873 331 111 66 57 
215 75 328 125 94 50 
179 847 270 194 159 127 
227 650 341 43 52 119 
192 525 323 63 97 143 
181 840 350 222 181 132 
252 793 314 164 140 126 
190 283 266 130 101 100 
237 582 169 121 148 177 
321 471 359 152 157 169 
272 691 336 83 98 151 
274 239 341 66 92 115 
282 526 375 141 160 181 
295 694 321 152 168 189 
242 12 324 98 85 74 
182 827 236 123 120 122 
325 696 63 96 123 195 
357 294 354 143 142 147 
198 627 282 86 121 152 
318 618 184 152 112 90 
230 376 281 96 106 121 
209 468 255 115 128 145 
356 158 266 101 79 62 
317 193 172 99 46 48 
355 227 332 59 82 100 
300 605 200 86 85 87 
349 435 223 141 149 163 
208 514 179 83 100 143 
259 171 242 98 88 83 
371 491 301 137 148 170 
289 658 319 72 69 75 
151 787 367 77 115 186 
193 912 252 91 74 62 
289 659 126 49 62 97 
194 691 219 106 66 81 
205 379 260 82 107 137 
289 153 314 60 47 32 
280 701 170 150 112 85 
311 331 184 203 160 109 
233 978 323 88 75 66 
272 734 90 156 42 64 
301 156 304 88 79 73 
247 858 304 109 86 57 
217 239 269 63 69 84 
354 364 218 168 142 113 
255 824 179 221 158 129 
305 704 65 121 139 199 
226 659 391 79 94 123 
306 354 175 154 132 108 
326 508 364 180 176 180 
218 366 269 74 88 113 
289 172 324 146 75 4 
217 613 200 138 143 154 
347 326 196 129 128 132 
320 658 281 95 95 119 
202 696 378 48 82 130 
224 882 336 154 112 88 
187 694 425 50 90 130 
282 901 300 138 105 76 
219 769 379 152 171 195 
291 377 353 181 150 114 
268 601 372 96 88 84 
259 166 227 64 70 80 
278 140 220 137 74 33 
177 200 271 108 103 102 
163 808 274 120 108 101 
206 481 162 120 131 147 
264 633 172 96 115 170 
223 916 343 157 126 100 
356 277 351 83 117 144 
284 697 77 99 119 140 
298 710 283 201 97 59 
341 513 342 131 142 166 
243 12 329 117 105 97 
289 669 119 47 53 96 
345 394 339 166 64 2 
400 331 291 93 107 123 
292 742 138 127 107 96 
267 803 245 194 138 113 
261 69 329 113 93 73 
257 762 113 84 83 110 
366 348 321 165 140 115 
188 931 282 77 64 56 
183 555 296 126 139 160 
180 822 243 137 112 95 
316 232 166 61 95 122 
304 592 308 164 153 153 
169 809 257 155 138 125 
196 943 253 118 92 65 
214 435 304 100 114 131 
325 662 254 153 112 48 
227 404 271 46 80 134 
237 703 180 64 90 113 
257 945 344 192 139 116 
308 158 309 91 80 72 
317 598 235 114 139 173 
311 506 204 74 101 127 
149 749 359 94 107 126 
197 164 276 44 65 92 
289 756 144 141 120 102 
283 700 108 75 88 104 
275 956 278 94 77 64 
271 690 341 103 115 174 
359 245 274 73 56 64 
178 735 262 86 108 129 
161 819 336 181 13 69 
255 991 275 124 98 72 
205 600 232 116 135 173 
259 162 227 66 70 79 
196 579 314 183 168 159 
324 588 257 124 149 184 
301 527 200 121 130 144 
219 918 341 162 129 104 
366 408 329 74 101 130 
207 862 291 152 106 80 
308 718 256 99 87 77 
244 833 257 183 127 102 
244 15 334 131 118 110 
184 533 311 129 133 145 
245 15 334 134 121 114 
246 779 348 167 67 70 
276 688 191 59 61 71 
182 755 223 134 75 51 
247 13 332 129 118 113 
240 851 279 137 100 69 
300 708 124 161 23 45 
189 825 210 184 135 109 
354 308 217 59 75 89 
247 14 334 134 123 117 
262 671 204 89 93 101 
271 180 205 127 69 27 
363 456 258 101 126 154 
353 324 216 97 97 101 
377 168 275 104 63 36 
205 161 274 39 53 79 
388 343 320 140 139 145 
246 426 168 92 112 130 
328 283 238 65 86 104 
325 541 355 74 113 160 
252 822 254 195 138 114 
198 719 365 76 100 128 
189 421 217 136 141 151 
231 312 184 107 117 130 
227 495 161 93 117 155 
322 570 320 121 145 172 
252 864 327 138 100 79 
140 740 400 149 152 188 
170 653 392 95 84 76 
213 380 189 105 130 158 
259 741 146 49 56 64 
314 408 359 171 134 88 
229 402 176 101 118 136 
200 774 178 95 86 79 
190 711 320 60 92 133 
209 412 203 55 83 111 
288 740 329 89 147 190 
331 480 207 61 91 135 
250 11 326 123 113 108 
282 139 211 138 89 54 
193 978 276 85 66 43 
239 154 325 153 69 7 
303 182 210 89 61 59 
318 555 222 69 87 111 
249 12 327 124 113 108 
217 802 360 158 120 89 
266 27 322 170 151 146 
286 933 291 99 71 56 
296 728 131 106 32 65 
209 619 302 70 123 161 
257 480 365 127 138 160 
391 227 290 111 36 41 
254 737 120 75 20 28 
379 470 299 116 121 166 
287 543 192 82 100 125 
332 331 183 143 0 59 
289 153 187 155 62 0 
190 703 378 81 101 141 
318 196 258 77 57 52 
255 11 322 125 116 111 
191 835 223 198 150 117 
355 461 252 78 105 143 
232 595 354 115 128 149 
274 310 173 89 81 88 
239 826 170 243 161 122 
187 219 273 39 71 107 
251 266 303 80 102 125 
273 587 184 84 84 86 
407 223 293 92 81 85 
162 819 353 202 38 90 
303 314 175 120 109 120 
249 912 342 119 95 74 
304 518 201 77 102 126 
196 775 397 127 135 183 
217 891 240 130 93 67 
212 612 323 72 115 150 
236 159 311 117 81 71 
403 294 316 154 158 169 
187 962 287 138 108 81 
270 871 305 138 109 78 
270 810 162 208 149 117 
238 257 264 65 98 124 
288 627 178 59 62 67 
359 276 347 83 114 140 
237 349 295 138 112 85 
305 671 208 79 119 150 
213 558 175 164 167 177 
296 158 274 103 70 48 
250 12 328 126 116 111 
390 360 327 106 127 149 
154 803 355 143 163 187 
328 161 283 95 85 77 
301 747 216 181 159 141 
370 225 280 97 47 45 
342 228 350 62 39 40 
317 666 244 158 118 64 
320 342 182 204 166 120 
206 304 204 159 68 0 
192 382 230 89 114 138 
195 326 215 173 173 182 
189 159 265 97 78 57 
204 397 211 82 104 126 
244 229 304 73 24 25 
150 721 422 61 98 161 
275 689 332 107 128 163 
249 14 334 135 125 121 
241 388 179 104 112 122 
402 285 307 118 140 162 
246 100 301 101 76 41 
190 795 192 171 155 143 
240 736 370 161 178 202 
207 922 230 113 92 74 
275 774 286 121 90 72 
191 837 223 199 151 121 
244 672 396 49 73 119 
245 173 281 132 37 29 
228 533 360 95 113 156 
284 688 160 147 86 87 
281 152 321 72 64 58 
220 826 319 161 129 99 
273 20 237 161 116 92 
218 290 192 148 144 146 
221 378 181 53 89 117 
229 398 272 39 82 132 
255 11 328 128 119 115 
261 235 196 113 68 42 
186 272 220 138 43 46 
197 849 309 145 120 106 
136 702 419 168 120 98 
207 715 365 76 99 123 
152 713 378 54 81 104 
335 676 115 79 104 142 
346 432 212 94 114 139 
282 754 325 192 54 82 
150 690 388 58 95 134 
249 392 325 126 110 113 
168 664 387 79 79 82 
192 662 283 85 92 119 
289 756 271 188 139 64 
278 138 264 96 69 48 
282 653 157 62 80 135 
274 297 339 162 159 162 
192 798 383 176 185 202 
266 782 120 188 166 148 
291 922 290 126 101 74 
264 153 228 93 82 81 
260 407 346 134 124 120 
206 560 195 168 163 168 
260 733 105 129 36 51 
231 652 348 76 92 124 
271 437 180 75 87 99 
332 241 181 109 96 99 
280 197 191 84 82 82 
294 343 168 163 26 57 
321 597 278 123 143 181 
266 466 170 69 89 113 
303 275 169 160 161 170 
253 856 323 148 114 93 
292 740 270 189 171 160 
247 503 168 100 113 131 
196 587 304 203 184 171 
288 776 143 135 91 67 
237 174 315 136 35 21 
241 17 333 121 109 101 
320 621 177 130 105 80 
216 475 338 116 126 141 
202 502 341 89 115 141 
240 19 334 126 116 110 
276 748 341 103 150 185 
201 700 326 79 102 131 
371 347 318 144 132 125 
181 852 270 196 148 116 
328 542 243 87 107 133 
355 267 214 82 67 71 
203 746 413 99 113 178 
256 510 366 186 184 192 
267 585 367 66 107 142 
286 698 116 43 66 102 
239 838 229 183 130 97 
333 276 176 78 105 129 
283 914 280 134 112 89 
372 470 271 140 151 174 
240 21 334 130 119 113 
275 749 94 135 149 183 
304 750 227 135 134 134 
240 22 334 140 128 121 
216 756 390 137 146 178 
195 702 217 75 95 114 
201 782 176 134 113 92 
279 271 350 151 148 147 
237 856 288 105 81 54 
216 785 159 126 102 72 
378 378 261 51 86 119 
318 187 213 89 44 29 
275 261 347 122 18 57 
321 683 58 79 88 102 
213 734 404 97 116 181 
218 413 187 70 87 106 
243 23 335 130 121 117 
287 636 332 151 111 93 
237 446 169 126 133 146 
241 840 268 161 113 86 
201 845 314 166 154 148 
304 512 366 159 156 161 
193 70 272 112 85 58 
286 316 166 153 153 161 
321 670 143 67 90 139 
182 562 259 128 146 167 
160 806 290 150 118 76 
200 645 380 57 53 51 
185 241 270 133 134 141 
188 317 227 173 171 178 
315 187 328 117 123 132 
247 17 335 135 126 123 
204 900 317 156 116 89 
275 247 178 50 77 98 
239 401 175 115 125 140 
250 207 335 130 48 46 
377 321 266 108 112 117 
295 755 132 122 122 125 
359 277 204 153 149 152 
243 835 258 179 125 99 
158 778 320 169 164 167 
338 190 209 81 42 40 
241 25 333 63 44 35 
217 784 374 163 116 123 
254 640 374 139 139 146 
307 699 239 83 77 82 
164 779 276 126 31 42 
222 821 345 119 102 86 
230 640 367 35 42 100 
241 26 333 73 46 38 
191 142 275 83 53 30 
313 522 367 115 132 176 
183 530 303 153 152 159 
251 790 319 188 174 168 
195 130 277 110 66 34 
202 577 207 202 188 181 
266 28 325 152 133 129 
278 376 355 176 150 123 
201 654 381 60 79 102 
306 192 327 130 79 90 
389 281 310 145 142 146 
243 26 334 79 55 37 
339 519 354 128 138 191 
338 211 217 75 33 41 
332 343 366 187 158 128 
344 476 355 111 130 156 
213 245 271 57 87 112 
241 29 332 86 63 48 
321 559 325 109 136 167 
309 629 290 142 143 152 
341 477 356 109 124 160 
281 639 103 118 127 140 
167 751 286 143 144 151 
302 278 349 82 119 149 
271 16 231 134 97 63 
234 71 333 139 115 99 
305 442 194 127 112 102 
242 28 334 87 64 42 
220 828 313 102 96 101 
246 751 156 92 64 50 
243 29 334 96 76 56 
214 491 157 134 136 143 
330 537 231 78 101 152 
318 567 224 52 88 118 
349 368 232 67 75 90 
241 832 220 205 153 118 
243 30 334 98 78 59 
243 30 335 103 84 64 
192 932 264 85 68 53 
290 127 275 98 90 83 
219 410 287 93 107 125 
359 475 261 103 125 156 
350 350 349 151 146 147 
248 503 166 125 132 146 
261 663 376 118 124 150 
394 384 331 143 146 160 
256 122 241 89 80 74 
193 552 206 126 138 166 
268 321 315 111 125 143 
227 704 352 72 101 125 
266 770 327 105 68 79 
189 710 254 86 113 139 
211 557 190 180 172 174 
270 109 314 99 82 64 
265 388 339 117 60 33 
219 433 178 94 107 124 
187 732 216 113 114 121 
251 16 334 133 124 122 
251 16 335 132 124 121 
204 715 185 108 85 84 
249 229 292 127 31 24 
250 414 171 137 139 147 
252 16 334 128 119 117 
190 147 259 108 87 63 
330 684 89 126 142 163 
278 600 364 55 70 84 
213 92 323 146 105 94 
353 322 352 128 134 146 
403 373 322 152 155 165 
373 481 317 110 127 154 
224 454 326 78 101 129 
259 27 242 182 164 157 
226 494 160 102 126 162 
187 714 317 65 96 134 
295 458 185 149 156 175 
311 245 248 74 73 76 
227 623 366 53 62 72 
256 431 353 112 92 109 
201 917 232 121 97 78 
353 203 319 107 73 62 
183 559 290 126 140 160 
245 989 304 95 71 48 
261 90 300 96 79 60 
278 137 263 96 70 49 
241 293 270 85 95 117 
177 818 248 162 137 114 
357 335 346 144 49 59 
378 343 265 121 65 78 
197 932 243 79 61 45 
205 353 197 110 129 153 
284 683 174 84 56 91 
241 738 363 156 173 195 
211 666 219 148 149 156 
267 364 174 155 138 123 
244 825 279 177 117 95 
306 721 218 91 94 101 
287 898 301 136 107 81 
201 467 180 70 101 139 
247 346 296 119 121 127 
319 624 241 107 101 142 
301 709 289 165 128 92 
275 645 115 178 194 217 
245 25 336 81 62 40 
193 717 194 133 130 131 
284 484 185 170 171 182 
218 669 400 132 131 136 
291 557 367 101 127 163 
319 652 228 82 76 73 
250 248 284 91 46 63 
243 157 288 87 58 52 
312 634 197 69 69 72 
377 227 288 71 51 62 
216 617 204 146 148 156 
237 891 252 116 87 62 
241 132 285 106 93 83 
399 322 292 125 127 134 
245 28 336 106 87 66 
245 29 336 108 88 67 
216 440 178 119 123 131 
241 896 256 100 74 52 
206 280 272 89 110 132 
297 316 353 116 132 152 
255 515 166 144 152 168 
320 630 168 148 115 89 
317 614 181 130 109 88 
307 197 265 79 62 55 
161 789 282 116 103 102 
169 746 284 111 127 147 
261 733 128 90 98 107 
220 390 292 73 108 137 
295 370 352 145 32 69 
299 715 208 57 61 65 
284 680 170 126 143 165 
228 353 293 102 68 43 
195 506 191 100 119 159 
166 709 436 104 93 118 
294 673 65 145 152 170 
254 891 344 199 155 138 
247 982 320 129 106 83 
268 901 268 160 108 79 
313 683 295 87 119 145 
272 165 332 145 65 3 
316 157 292 86 78 72 
250 519 365 145 157 177 
301 691 213 139 32 55 
370 185 289 85 72 58 
335 259 366 106 77 89 
165 754 347 46 74 96 
366 439 338 98 116 151 
254 414 172 111 121 133 
236 418 325 81 101 122 
218 623 331 83 117 162 
170 764 405 117 131 192 
215 387 266 58 86 126 
398 202 280 118 39 63 
194 915 271 62 50 43 
251 22 337 122 113 109 
208 593 333 61 115 155 
225 870 330 146 112 86 
275 784 180 174 126 94 
343 498 248 111 128 149 
252 20 336 120 110 105 
285 710 334 121 136 155 
409 248 297 124 11 63 
321 181 174 56 81 104 
235 688 347 84 95 130 
287 140 197 129 108 94 
302 356 353 117 118 128 
199 545 341 73 93 143 
295 547 366 119 137 167 
197 307 265 68 98 126 
266 866 308 139 111 80 
352 378 226 93 86 81 
197 373 227 76 116 146 
254 22 336 120 110 104 
304 347 172 163 138 110 
376 398 329 118 117 124 
255 860 323 165 127 107 
327 638 163 80 98 114 
313 674 273 157 107 51 
189 858 283 194 137 109 
264 819 169 227 163 129 
280 196 191 86 84 86 
410 275 306 122 111 100 
337 338 363 190 161 134 
249 386 317 94 78 102 
195 428 236 81 101 140 
355 211 321 115 83 69 
302 183 210 88 62 60 
297 632 315 111 124 159 
284 666 343 141 149 177 
165 691 428 157 114 93 
376 279 282 111 120 132 
337 487 359 143 151 169 
199 1003 283 133 100 84 
294 626 326 110 103 125 
284 673 75 84 115 148 
203 678 194 86 124 163 
310 155 287 73 63 59 
392 343 323 148 146 151 
185 766 205 130 108 84 
232 662 200 170 164 171 
262 729 106 106 37 55 
249 28 338 115 93 73 
189 779 191 146 126 110 
253 992 267 125 95 71 
167 778 268 126 87 92 
193 971 287 127 100 73 
238 119 300 89 69 45 
193 307 212 92 72 48 
215 744 396 133 147 176 
400 314 319 77 120 153 
343 474 355 151 160 176 
359 226 195 95 71 91 
212 726 418 175 180 193 
187 931 287 70 55 49 
249 820 270 189 129 109 
343 555 274 133 151 181 
222 459 324 74 99 126 
223 832 186 244 170 127 
158 776 307 124 139 163 
275 697 334 144 144 151 
147 738 366 91 109 130 
181 550 285 118 135 159 
275 315 330 82 118 147 
264 100 326 108 89 69 
349 353 224 102 92 85 
335 177 207 100 61 48 
249 463 361 162 157 160 
212 696 419 164 163 169 
222 684 194 110 116 126 
313 566 329 181 176 180 
184 937 314 113 94 76 
312 299 174 121 141 164 
180 825 368 104 77 114 
287 152 270 101 66 50 
347 152 201 114 83 64 
323 700 67 127 151 207 
192 968 282 142 112 82 
223 359 272 90 102 121 
253 31 337 138 99 91 
181 538 225 107 129 153 
312 696 254 138 122 109 
220 834 191 242 171 128 
253 31 338 137 100 91 
207 436 198 63 90 114 
211 127 280 83 74 67 
213 609 209 76 123 158 
299 616 327 151 109 95 
254 30 337 137 98 88 
309 649 194 98 134 166 
258 171 227 79 78 81 
251 264 323 182 151 117 
186 573 262 164 165 173 
246 256 192 95 97 102 
215 571 179 62 122 165 
304 260 166 151 130 122 
238 1006 257 165 133 103 
227 93 303 91 73 51 
256 808 275 192 136 116 
185 727 431 139 153 195 
334 253 235 73 68 69 
284 705 72 69 106 147 
238 463 168 131 134 143 
348 367 229 76 61 42 
370 452 345 78 108 140 
276 773 284 190 158 127 
212 450 175 85 102 117 
257 299 298 92 66 83 
208 651 194 81 119 154 
231 596 177 125 137 155 
225 34 328 101 87 73 
313 632 261 115 81 102 
334 443 352 142 145 157 
262 21 226 126 100 77 
266 959 257 116 82 57 
210 91 319 154 106 97 
202 493 271 135 134 137 
281 945 296 114 97 83 
250 583 174 71 87 103 
374 441 342 68 98 144 
240 604 172 147 148 156 
190 428 207 105 117 135 
216 983 304 118 91 66 
271 726 147 106 109 117 
261 980 271 86 64 53 
284 768 271 197 180 169 
295 755 100 180 52 62 
328 156 273 99 68 15 
313 162 326 116 102 88 
195 467 222 142 144 152 
240 225 266 87 37 55 
314 735 98 170 188 213 
299 648 175 127 160 192 
258 159 334 153 69 7 
289 626 353 158 109 99 
200 174 275 45 38 53 
231 836 198 229 174 137 
224 38 330 94 80 66 
297 340 351 111 131 154 
193 920 250 89 74 61 
199 329 202 127 143 163 
302 317 173 100 67 81 
313 267 167 148 125 126 
271 585 365 83 114 148 
206 402 257 66 96 139 
318 232 169 67 100 128 
179 293 236 76 134 176 
344 158 201 116 59 7 
230 974 328 86 68 58 
217 413 300 105 119 136 
199 362 256 121 129 143 
281 658 107 102 134 181 
195 484 308 135 140 151 
227 39 332 134 125 119 
330 438 360 135 52 86 
260 650 359 93 104 137 
261 664 378 134 137 156 
205 430 204 46 76 109 
296 622 335 174 118 104 
180 291 249 91 109 130 
268 798 212 192 142 108 
350 359 234 117 115 117 
212 650 304 86 116 147 
220 305 190 87 104 123 
288 316 355 94 127 157 
339 195 341 74 77 89 
292 603 351 148 104 91 
217 693 378 59 83 116 
261 888 271 123 94 62 
223 262 264 59 89 113 
228 356 293 115 84 54 
281 344 355 157 158 165 
310 680 266 180 125 47 
183 559 227 216 199 190 
272 692 188 54 60 71 
253 783 333 70 63 94 
276 643 151 126 143 171 
276 888 308 148 112 80 
202 473 178 131 137 149 
241 757 157 71 71 73 
213 714 180 126 136 149 
304 708 66 129 146 198 
330 555 321 117 144 176 
228 36 332 129 120 114 
226 456 170 115 119 128 
251 753 113 130 34 54 
262 506 367 185 180 183 
223 841 289 141 95 69 
193 744 349 69 84 103 
242 269 270 127 126 131 
309 562 214 147 152 162 
324 477 207 72 102 136 
267 247 185 59 80 100 
208 594 210 115 101 118 
189 210 274 84 95 115 
250 574 173 62 82 101 
214 287 271 109 114 124 
254 895 264 107 80 47 
287 593 356 56 101 135 
360 235 197 133 106 104 
225 42 327 111 97 87 
163 796 378 130 154 199 
319 509 213 35 63 94 
247 823 271 191 133 111 
297 681 318 160 158 164 
283 151 319 74 60 46 
366 236 318 127 75 64 
213 429 188 66 83 101 
200 309 209 137 75 35 
238 893 340 184 138 115 
189 677 288 81 108 131 
156 750 406 133 141 194 
277 362 343 117 122 133 
218 844 292 126 83 62 
365 352 249 117 52 69 
291 767 230 199 149 112 
239 583 364 135 148 166 
225 970 248 135 111 89 
255 241 339 57 78 107 
257 179 214 124 105 89 
158 773 316 146 146 155 
359 243 195 122 88 83 
370 493 293 173 173 182 
383 331 271 119 78 76 
239 671 202 89 99 113 
136 736 384 113 128 171 
265 11 313 124 113 107 
274 644 346 85 81 113 
326 503 212 70 106 144 
253 677 388 99 125 162 
206 632 294 62 111 148 
211 736 409 164 167 188 
194 375 241 62 105 138 
264 41 303 91 74 54 
232 758 364 151 173 200 
286 393 174 136 136 141 
238 310 289 109 122 139 
210 365 267 128 131 141 
292 702 137 161 47 55 
225 76 257 100 82 65 
226 46 324 99 86 76 
226 47 324 101 88 77 
291 266 165 102 75 58 
166 702 429 116 87 83 
228 599 181 113 127 146 
271 134 323 101 80 57 
273 298 334 139 139 145 
214 1009 296 184 152 123 
238 98 330 123 96 74 
266 120 300 84 70 56 
306 717 219 103 93 86 
305 366 357 116 132 149 
329 211 177 138 86 86 
195 325 215 172 172 181 
327 176 176 104 78 48 
331 497 211 65 100 147 
205 797 376 184 105 109 
283 669 166 103 127 153 
229 42 326 91 75 63 
299 257 344 146 94 90 
230 42 326 92 72 60 
230 42 327 93 75 64 
197 694 210 83 102 130 
227 658 374 54 55 100 
180 737 242 140 150 165 
275 720 141 86 94 107 
343 492 246 137 143 157 
276 779 276 161 141 138 
221 945 237 88 68 50 
375 208 280 127 39 51 
299 746 126 166 152 142 
344 198 327 103 73 48 
356 187 293 94 68 58 
185 548 311 125 129 140 
400 225 287 114 80 102 
305 706 300 85 107 125 
286 782 141 138 126 120 
201 912 237 83 64 52 
376 476 293 159 162 174 
336 163 176 123 118 115 
313 675 220 65 77 92 
222 697 184 80 98 115 
271 142 227 139 76 1 
207 998 293 113 89 72 
343 470 229 151 159 174 
218 1000 250 121 81 59 
290 538 369 107 122 161 
282 683 85 107 123 166 
210 133 263 80 68 55 
280 896 293 137 111 86 
376 297 315 79 113 142 
214 266 195 74 105 133 
236 152 322 152 56 6 
218 409 190 111 125 144 
273 149 255 101 66 58 
331 273 254 68 81 95 
246 259 191 123 99 70 
281 673 328 68 78 110 
354 401 236 100 113 130 
292 126 276 96 83 72 
330 214 178 115 95 107 
322 696 118 138 164 193 
181 813 238 164 151 145 
258 669 203 90 95 103 
301 504 197 68 93 117 
298 193 166 114 39 38 
225 40 332 129 120 113 
400 380 298 95 114 137 
195 692 222 78 92 110 
236 711 175 115 118 125 
239 128 267 117 86 74 
346 207 333 113 48 64 
254 547 168 120 130 150 
313 647 262 69 51 40 
257 479 163 98 123 150 
227 41 332 127 115 108 
291 205 330 112 113 121 
291 656 314 133 129 131 
233 669 359 94 103 142 
225 44 328 111 99 91 
224 44 330 114 101 92 
264 427 180 92 101 111 
365 213 309 63 88 110 
334 513 239 125 138 156 
216 752 178 49 63 74 
207 866 291 156 109 83 
199 986 267 167 136 106 
202 970 267 89 61 47 
263 963 254 155 121 91 
199 863 285 163 115 86 
319 261 244 103 97 94 
246 809 301 131 124 123 
342 163 261 102 81 63 
226 877 334 152 114 90 
234 1004 302 128 93 70 
360 453 343 121 141 164 
215 613 185 83 128 168 
339 240 359 73 79 90 
290 205 331 111 111 118 
321 653 117 103 93 84 
356 261 265 79 78 83 
235 640 393 166 114 94 
281 649 90 110 112 118 
231 40 331 99 83 71 
303 751 242 202 188 184 
230 42 328 97 79 67 
277 10 305 121 96 77 
308 579 319 185 184 193 
234 1010 271 111 93 77 
292 176 325 142 74 6 
276 516 183 61 86 109 
281 943 312 139 107 83 
381 226 290 105 51 44 
288 691 114 46 55 97 
303 137 278 107 73 18 
276 778 182 151 110 74 
187 728 218 116 127 142 
280 485 184 94 117 140 
378 351 318 132 129 132 
374 173 255 124 114 114 
198 691 237 120 127 138 
225 779 143 139 121 106 
330 523 360 121 132 174 
312 667 228 102 90 93 
273 152 254 100 63 54 
384 405 335 101 122 152 
392 239 295 128 17 29 
244 224 322 116 51 72 
260 810 258 195 140 117 
176 812 249 147 115 77 
234 33 332 104 92 83 
335 535 336 64 82 157 
160 791 289 143 18 34 
225 162 269 36 45 64 
290 252 167 98 74 74 
242 200 321 44 45 90 
302 226 253 70 57 57 
193 328 255 169 122 66 
208 489 337 49 87 115 
278 177 255 98 83 75 
209 444 253 77 107 142 
230 916 236 63 50 38 
346 261 222 73 61 67 
234 36 330 98 79 67 
340 330 362 153 10 68 
234 37 330 97 77 64 
357 201 193 97 77 79 
237 390 178 98 117 137 
210 737 408 119 131 173 
327 571 259 156 164 180 
348 511 262 149 160 179 
397 343 285 146 108 62 
228 101 324 145 112 88 
343 203 344 64 39 65 
213 540 162 117 142 177 
340 279 185 78 38 40 
215 831 334 157 126 92 
195 489 315 92 109 130 
291 736 296 147 123 103 
193 502 288 123 127 135 
256 898 343 195 147 129 
340 315 366 104 130 156 
236 35 331 92 69 56 
196 921 244 81 65 53 
347 488 356 101 124 155 
253 918 348 149 120 92 
274 883 298 136 105 73 
202 633 399 99 84 70 
324 697 117 133 164 196 
205 672 308 96 102 112 
230 545 168 142 155 195 
161 820 336 178 10 46 
203 842 317 167 145 128 
247 991 254 114 90 67 
226 291 188 130 127 130 
344 204 183 76 108 136 
328 363 362 182 152 120 
279 634 357 184 122 121 
367 290 332 147 146 152 
333 273 255 68 81 95 
320 713 76 148 165 197 
187 512 288 103 112 125 
181 533 256 76 99 126 
197 587 232 135 155 181 
219 487 158 103 116 132 
231 390 277 47 84 114 
255 709 365 72 114 179 
214 823 355 90 89 99 
324 349 182 214 180 145 
366 310 260 105 55 54 
386 172 267 65 57 54 
253 265 327 186 156 127 
168 722 372 76 94 115 
287 475 362 71 99 142 
141 729 374 124 130 142 
224 623 341 83 127 160 
187 519 261 112 117 125 
232 45 326 95 76 62 
314 620 258 146 149 160 
280 266 169 98 114 128 
170 754 270 140 139 145 
310 662 205 95 135 169 
201 595 306 175 167 168 
143 762 374 141 148 180 
251 573 174 136 133 137 
214 100 259 95 74 55 
154 669 392 65 82 99 
296 686 65 115 129 149 
184 513 229 149 144 144 
209 624 247 139 138 143 
338 210 252 91 60 46 
193 914 263 69 56 45 
345 229 186 150 113 87 
309 720 244 104 113 126 
311 565 344 185 182 189 
233 838 281 166 116 87 
214 807 362 173 64 72 
269 878 286 122 98 75 
281 138 218 132 86 59 
303 157 309 83 72 64 
372 290 276 96 105 116 
238 904 241 71 55 43 
325 705 82 159 175 197 
333 563 312 197 192 196 
234 42 329 97 77 61 
274 965 283 82 67 59 
199 488 190 99 116 143 
158 768 303 148 151 160 
210 876 299 147 108 83 
270 794 188 186 142 104 
186 471 203 117 133 153 
238 83 330 133 109 84 
393 250 302 137 124 118 
230 445 171 136 137 143 
281 732 157 98 68 66 
245 226 314 69 32 64 
234 44 329 97 76 59 
313 625 197 131 95 76 
316 224 244 73 59 48 
235 44 329 95 76 58 
235 45 329 93 74 55 
222 817 350 99 127 154 
276 446 359 126 45 57 
256 287 298 123 125 133 
356 386 237 93 110 130 
211 491 343 107 119 135 
204 947 328 93 78 67 
276 888 300 134 101 70 
378 438 267 96 120 153 
257 367 177 156 139 122 
212 677 197 67 107 139 
362 353 246 120 91 84 
281 353 354 100 122 144 
334 676 112 77 99 150 
185 313 235 149 152 162 
349 430 337 106 123 144 
304 437 359 146 83 33 
216 458 265 115 129 147 
263 316 309 80 110 136 
288 674 160 150 167 193 
338 173 205 103 62 47 
330 241 251 77 73 75 
193 409 228 68 92 132 
220 553 171 189 185 189 
297 583 349 123 32 63 
303 369 173 209 169 120 
330 244 361 62 102 131 
256 977 324 100 79 61 
200 805 374 157 174 196 
212 999 250 137 102 79 
386 305 279 118 122 130 
173 663 385 82 71 61 
296 729 296 170 103 82 
313 625 194 134 99 81 
233 495 169 127 139 162 
299 319 352 104 129 155 
317 710 112 123 152 182 
309 656 84 78 80 84 
290 627 152 58 63 75 
344 466 352 100 125 155 
247 184 288 74 49 68 
312 160 174 101 106 112 
196 831 208 205 152 122 
285 251 169 113 21 54 
326 253 172 117 107 106 
275 723 344 121 141 164 
287 458 187 90 109 135 
149 767 354 139 150 168 
233 310 269 114 95 76 
290 916 279 125 99 77 
231 126 267 98 82 71 
330 237 180 70 91 112 
216 74 261 88 73 58 
181 543 226 169 165 167 
201 406 211 67 94 122 
131 694 410 121 108 129 
300 463 187 74 104 151 
159 794 306 148 83 101 
345 545 271 91 117 159 
275 774 113 199 150 94 
360 239 329 118 100 84 
310 236 257 73 58 59 
246 905 245 90 72 52 
205 687 325 108 120 136 
300 404 182 193 162 130 
230 440 171 164 164 171 
278 323 339 71 114 148 
304 376 356 111 125 139 
301 709 291 198 168 143 
353 319 217 71 73 79 
292 654 73 103 122 143 
217 642 373 54 85 116 
291 367 172 210 174 134 
283 164 261 94 71 61 
195 496 191 91 116 154 
295 696 321 159 170 188 
221 513 354 145 147 156 
219 419 285 96 107 121 
208 360 193 110 125 161 
349 496 258 166 161 165 
235 560 362 89 104 131 
404 340 309 152 150 153 
228 650 373 49 68 85 
386 342 272 126 74 85 
310 359 180 153 129 103 
234 679 343 81 109 137 
309 714 222 163 139 122 
274 793 245 197 144 114 
279 411 356 179 74 8 
328 193 256 90 69 54 
295 568 206 74 95 116 
262 662 374 114 132 156 
285 344 356 110 130 152 
348 197 259 98 62 45 
226 55 323 88 71 56 
190 413 223 82 105 135 
230 686 369 66 94 123 
351 342 204 158 137 116 
229 980 251 108 79 42 
279 303 351 117 109 121 
291 630 118 59 83 108 
233 559 361 114 129 158 
362 482 350 155 171 191 
267 122 298 83 69 54 
284 916 283 145 119 93 
389 262 315 153 150 153 
309 477 198 76 103 128 
277 316 336 82 116 145 
403 363 301 109 121 138 
253 885 267 126 99 71 
233 281 187 103 87 83 
269 369 173 105 124 143 
163 824 342 105 67 77 
380 384 328 141 124 122 
192 930 265 76 60 45 
198 720 333 65 81 102 
370 449 262 72 102 152 
379 225 302 82 81 84 
336 306 180 139 140 147 
158 784 305 153 161 175 
210 711 337 64 83 106 
328 542 239 87 108 139 
225 335 188 92 132 166 
239 601 357 69 114 147 
352 529 272 92 115 159 
191 405 227 132 136 145 
195 631 278 126 139 157 
216 628 377 64 72 81 
318 688 125 113 152 187 
188 537 320 99 110 125 
194 678 293 130 127 130 
405 346 307 96 118 141 
245 824 272 189 129 108 
160 780 386 105 114 189 
270 972 300 87 70 62 
264 363 176 135 130 129 
367 261 280 64 79 93 
229 55 325 90 73 55 
270 419 358 149 133 122 
305 677 139 133 165 198 
321 638 193 60 91 124 
347 289 195 149 149 155 
371 490 306 111 121 169 
230 54 326 91 73 56 
317 610 269 103 124 163 
303 477 370 92 122 154 
219 633 404 124 100 74 
232 465 353 88 111 134 
286 928 283 108 88 71 
231 52 328 93 73 54 
275 712 340 129 141 158 
205 124 269 81 70 60 
274 882 308 149 115 82 
263 183 335 96 48 56 
207 449 294 95 108 124 
372 486 283 92 114 170 
269 954 257 143 116 88 
196 966 302 82 67 60 
302 672 208 91 111 139 
314 210 242 72 59 52 
218 492 157 121 127 137 
268 601 184 84 88 95 
258 469 162 170 171 179 
329 566 260 130 147 171 
383 452 342 104 119 164 
255 144 331 109 94 80 
267 805 147 213 151 108 
208 632 256 88 29 60 
264 807 230 193 138 111 
310 138 270 117 85 41 
273 209 336 151 99 76 
192 703 238 86 110 130 
319 614 222 111 96 82 
208 783 383 166 178 198 
304 584 312 143 161 188 
318 397 358 183 150 113 
281 465 365 101 123 156 
227 56 323 87 72 57 
309 237 253 78 73 75 
333 218 350 119 54 73 
244 834 264 176 122 95 
361 406 329 144 124 103 
286 684 74 159 167 183 
223 423 266 46 80 129 
192 724 364 78 104 137 
272 26 320 160 147 142 
337 383 196 191 161 132 
279 139 264 98 69 48 
319 652 172 189 200 241 
227 59 325 92 74 52 
191 692 272 69 118 154 
237 757 142 55 72 87 
182 530 287 94 108 128 
209 854 223 229 166 126 
340 203 181 79 103 130 
353 161 197 149 85 8 
306 483 194 76 105 134 
340 185 341 60 61 81 
178 242 265 161 158 161 
288 728 191 136 128 125 
314 308 356 134 135 142 
272 129 312 86 72 57 
198 733 339 81 93 107 
256 994 278 131 108 84 
252 729 352 126 153 181 
310 667 63 109 107 109 
332 555 319 109 142 175 
194 685 299 149 148 154 
339 147 182 166 89 44 
228 363 187 64 90 113 
196 953 262 107 75 54 
362 215 315 111 85 86 
227 221 264 109 25 28 
178 952 296 116 92 71 
336 159 322 105 91 76 
226 60 324 95 76 53 
176 841 269 126 108 96 
226 60 326 98 78 54 
290 672 108 86 101 117 
195 506 251 124 126 133 
278 192 205 91 94 101 
216 896 240 105 76 52 
224 391 285 58 90 116 
347 425 337 106 122 142 
264 327 309 75 111 141 
228 56 325 89 73 55 
330 164 339 123 109 97 
308 364 360 180 151 119 
304 620 170 107 98 92 
317 191 217 88 43 28 
296 171 177 42 62 92 
314 557 351 121 145 176 
292 718 325 125 145 168 
285 437 358 117 102 88 
195 585 232 148 164 187 
196 203 275 92 76 90 
273 716 119 41 62 80 
392 291 292 81 100 118 
215 614 332 101 96 123 
230 56 326 94 75 56 
249 461 361 163 156 157 
246 859 328 170 127 110 
284 692 182 129 20 30 
270 919 339 160 121 95 
292 170 274 92 70 59 
218 864 229 224 160 116 
215 679 330 89 103 119 
309 198 166 134 52 56 
212 935 336 106 87 71 
299 450 184 152 134 115 
273 198 206 91 97 107 
143 706 384 92 104 119 
311 635 261 62 67 80 
229 59 328 102 82 59 
338 258 254 85 85 90 
212 474 328 103 112 125 
254 209 337 137 31 37 
303 406 366 183 151 116 
267 725 96 130 141 156 
231 56 329 108 87 66 
209 612 313 76 126 164 
208 469 313 88 106 126 
244 164 288 124 45 27 
296 556 206 56 91 124 
225 900 245 86 64 46 
237 499 171 87 112 144 
284 431 357 128 113 99 
337 189 258 101 69 51 
269 769 320 124 132 147 
212 633 303 159 155 156 
220 692 189 85 106 126 
231 59 331 114 89 69 
199 140 264 88 73 57 
209 363 266 156 149 150 
353 519 324 141 158 192 
329 500 362 107 119 160 
276 493 181 102 113 128 
291 684 148 133 109 134 
198 688 246 156 152 155 
204 321 268 144 82 73 
304 637 304 190 177 172 
278 529 375 137 153 176 
212 665 320 42 54 72 
289 651 79 91 114 139 
291 689 142 107 102 133 
235 758 357 147 119 124 
325 582 259 165 171 184 
230 120 318 132 101 75 
271 377 340 140 83 26 
276 238 178 48 70 88 
309 650 274 105 92 81 
275 439 357 127 114 102 
286 763 271 167 143 122 
221 416 284 72 95 119 
294 765 235 207 182 160 
337 235 244 73 53 57 
240 308 274 103 111 122 
238 125 301 81 69 57 
211 528 174 96 125 152 
322 155 198 114 70 51 
191 686 384 100 112 130 
305 734 215 176 148 119 
210 528 350 121 136 157 
266 180 218 80 83 91 
309 159 310 89 79 70 
243 663 202 117 117 124 
273 366 172 117 77 69 
302 543 204 95 116 142 
232 51 328 94 73 56 
328 175 176 111 88 70 
272 570 176 119 117 119 
172 752 264 116 133 153 
278 17 286 160 108 85 
207 94 258 93 75 55 
187 169 263 78 66 56 
271 631 125 48 71 129 
206 390 259 92 113 140 
194 613 263 134 148 169 
277 667 198 73 76 82 
235 556 168 97 123 149 
298 503 193 76 102 128 
290 890 302 139 113 87 
209 653 194 96 131 173 
286 655 336 120 141 163 
194 971 290 125 97 75 
223 154 269 39 46 83 
280 762 288 161 144 133 
272 766 109 88 90 105 
246 384 183 155 134 113 
262 811 237 201 145 120 
289 623 353 166 112 105 
337 240 184 128 119 116 
280 236 340 96 80 99 
215 689 414 166 163 168 
367 241 316 127 75 70 
189 516 253 124 126 133 
280 129 264 92 73 54 
274 960 274 105 89 77 
271 723 150 108 113 121 
243 127 288 92 83 76 
369 297 327 110 127 148 
297 747 128 164 159 157 
318 630 180 122 82 66 
214 140 273 123 49 16 
233 55 330 111 88 67 
281 696 94 102 114 130 
243 619 175 161 83 105 
344 349 351 187 158 131 
223 502 355 129 137 152 
288 767 114 139 116 137 
316 210 244 72 60 52 
161 767 341 28 58 83 
278 619 175 77 84 93 
339 200 180 125 94 92 
272 173 333 150 68 14 
196 571 213 168 175 188 
288 193 260 84 65 51 
196 798 381 149 169 194 
191 486 219 110 123 139 
292 736 322 187 52 71 
309 685 58 90 113 165 
235 55 334 116 90 72 
282 710 335 134 141 154 
311 691 291 81 87 97 
203 678 216 91 124 154 
322 663 249 205 155 111 
189 433 213 126 141 160 
216 628 214 124 137 154 
183 643 406 102 86 71 
328 190 258 95 72 57 
236 50 332 104 82 62 
256 531 366 75 89 140 
332 697 106 87 131 189 
341 265 364 85 97 113 
276 916 329 139 116 94 
268 770 321 143 149 178 
264 269 339 142 141 149 
293 634 106 88 98 109 
295 293 169 90 111 133 
226 591 186 114 123 148 
260 197 210 96 91 88 
278 317 338 79 120 153 
199 814 371 184 54 66 
394 267 300 112 113 119 
174 747 262 132 143 157 
238 51 334 108 89 69 
277 709 105 63 82 101 
205 926 329 98 79 64 
297 624 169 97 90 86 
307 183 326 141 73 25 
187 456 206 161 159 165 
323 590 258 120 135 169 
324 579 301 157 174 201 
237 53 334 111 89 71 
222 620 337 69 88 115 
279 666 358 135 142 165 
316 152 278 100 86 76 
218 594 187 99 137 170 
226 792 356 176 152 122 
152 694 388 40 78 119 
335 504 231 164 170 183 
335 343 185 184 159 136 
156 796 333 83 100 118 
344 470 229 127 147 169 
258 755 108 185 151 107 
308 555 362 119 138 183 
225 329 186 116 67 92 
283 336 171 123 129 140 
344 438 340 51 88 128 
173 747 349 53 71 93 
289 695 199 122 84 77 
232 56 331 112 87 65 
198 652 287 143 145 154 
378 409 261 63 96 135 
198 683 197 112 128 153 
331 377 189 162 133 99 
256 962 338 97 77 63 
232 59 331 116 90 71 
235 355 296 82 98 115 
199 765 181 105 90 76 
150 779 375 137 155 194 
275 407 357 173 73 8 
204 468 295 68 88 113 
313 357 364 175 146 114 
284 496 368 172 172 179 
326 565 248 79 106 132 
248 801 308 137 103 75 
305 680 136 144 180 216 
235 57 333 119 92 75 
289 277 164 148 145 147 
350 342 228 80 73 70 
225 337 273 85 85 93 
234 58 333 119 91 75 
238 773 354 85 68 80 
269 381 340 117 107 101 
288 742 291 86 108 133 
322 301 174 133 151 179 
222 942 342 158 127 105 
340 481 225 87 107 168 
305 666 206 118 144 171 
164 813 270 121 109 101 
171 741 298 66 94 133 
264 296 321 117 134 154 
190 561 319 140 145 155 
251 990 260 116 86 64 
174 215 266 52 86 112 
217 605 197 148 150 160 
260 293 316 121 125 133 
320 250 259 94 92 92 
260 748 104 181 146 105 
306 459 365 80 102 136 
220 821 350 174 158 149 
336 264 182 72 98 120 
245 731 361 142 164 189 
267 418 356 132 120 111 
343 171 328 119 64 1 
288 663 144 29 71 121 
208 683 325 54 80 117 
225 525 358 138 147 161 
268 358 328 135 134 139 
343 286 365 148 143 144 
358 182 260 106 52 46 
348 173 280 106 55 3 
334 279 233 63 69 77 
184 309 237 161 163 173 
298 746 213 190 170 154 
352 164 188 134 71 19 
246 206 331 110 44 33 
410 282 312 138 139 144 
290 723 192 79 79 84 
262 169 214 124 110 100 
190 328 225 96 127 156 
270 256 345 93 67 73 
348 316 197 126 132 142 
238 601 356 80 123 157 
322 558 325 117 143 172 
319 367 369 192 160 125 
283 575 181 79 101 123 
377 406 260 66 98 137 
286 316 356 67 116 152 
286 685 151 101 136 168 
364 210 308 71 87 103 
300 619 176 104 96 92 
135 681 414 121 97 73 
329 689 80 97 130 178 
196 726 334 56 78 98 
292 283 167 152 152 158 
248 608 385 92 83 78 
237 89 304 104 79 46 
372 298 272 94 103 114 
176 771 237 59 38 60 
316 661 93 39 58 74 
277 370 352 179 151 121 
209 1006 285 141 114 84 
314 511 209 138 141 151 
260 239 195 106 67 53 
400 344 327 151 153 161 
329 707 101 123 156 190 
347 430 214 97 112 139 
275 508 181 115 118 126 
211 137 266 89 62 42 
201 338 204 111 138 167 
211 526 179 119 132 148 
150 777 353 146 157 176 
179 720 292 76 120 155 
291 249 167 101 48 53 
206 847 300 123 111 105 
359 160 257 114 80 57 
201 495 256 97 112 129 
322 204 333 108 75 86 
359 292 204 95 123 150 
262 256 189 75 78 90 
235 1008 297 146 119 91 
219 694 338 88 102 118 
246 795 139 145 138 137 
242 32 334 96 75 57 
291 674 134 49 73 120 
215 305 194 98 117 136 
287 554 190 65 86 105 
182 558 282 158 153 155 
352 373 205 174 147 120 
145 766 377 125 130 182 
150 784 368 85 115 189 
284 702 116 49 66 100 
309 142 275 125 77 14 
311 573 326 185 179 183 
259 917 344 153 119 91 
279 919 323 150 122 96 
231 671 342 72 95 120 
347 245 346 103 72 66 
252 352 178 141 141 146 
199 826 365 134 47 106 
335 666 124 44 87 135 
254 273 296 94 114 136 
251 751 114 162 76 86 
192 845 348 106 120 135 
292 282 166 156 154 159 
235 968 250 125 88 58 
401 309 308 73 102 125 
274 136 280 84 58 32 
257 538 367 98 112 132 
312 620 170 115 103 94 
205 650 378 70 93 121 
301 617 177 105 98 94 
221 682 377 35 36 57 
346 321 359 156 119 87 
396 380 331 82 106 139 
195 1001 275 122 94 77 
193 306 213 80 59 29 
350 353 227 84 78 78 
259 279 325 178 70 8 
234 487 361 101 116 149 
265 401 346 118 103 85 
241 40 334 115 91 73 
242 680 199 61 83 102 
273 18 240 139 104 77 
256 318 297 77 113 142 
200 309 208 135 64 19 
317 145 178 148 87 53 
185 310 233 147 152 164 
351 333 239 123 104 82 
231 850 287 130 96 68 
268 81 308 90 75 60 
295 322 353 113 134 157 
215 701 419 110 128 158 
223 429 177 131 133 140 
236 201 266 35 35 47 
243 882 257 136 104 73 
308 726 109 84 65 92 
250 767 119 165 140 120 
339 463 351 144 151 164 
230 823 170 207 144 114 
266 635 360 129 88 83 
240 46 334 110 91 72 
283 185 330 51 62 89 
240 47 334 109 90 72 
326 299 367 159 157 161 
208 880 306 149 111 86 
400 389 312 68 108 153 
211 645 203 115 135 157 
292 737 138 95 90 88 
242 46 335 115 96 79 
265 723 109 114 124 137 
236 436 340 57 87 114 
255 35 335 131 97 86 
333 664 111 163 163 171 
269 689 360 172 179 194 
229 502 165 71 103 145 
386 274 314 109 120 135 
375 182 286 89 77 65 
268 569 175 89 107 130 
273 625 124 66 93 126 
240 286 281 64 100 127 
342 314 229 77 78 82 
306 215 245 75 65 61 
341 250 227 71 62 67 
196 323 259 172 129 79 
207 720 182 129 19 32 
309 252 344 132 118 107 
248 561 165 118 131 148 
148 781 362 127 154 186 
273 688 335 109 127 165 
209 823 184 195 138 106 
297 267 346 119 51 76 
182 697 387 107 112 142 
208 670 196 117 108 118 
286 766 219 190 142 106 
237 725 177 114 24 14 
213 605 340 72 136 182 
260 653 363 81 100 127 
176 690 427 139 101 83 
187 157 256 112 90 66 
201 495 269 138 136 139 
200 946 249 99 73 46 
206 673 404 100 70 67 
293 885 303 139 113 88 
211 633 301 130 112 112 
252 619 394 148 108 89 
287 744 280 108 99 106 
194 306 264 76 114 145 
258 144 245 94 68 62 
275 960 311 102 75 62 
273 457 180 110 118 130 
273 672 202 70 71 77 
201 568 334 190 174 166 
141 698 388 39 79 114 
260 196 210 102 97 95 
302 238 338 87 107 127 
275 309 173 84 78 81 
196 938 321 83 64 50 
363 442 340 135 143 158 
249 259 307 136 134 138 
252 47 334 121 97 76 
157 684 388 69 95 124 
149 679 390 84 109 147 
182 681 424 156 111 84 
