ply
format ascii 1.0
comment Created by CloudCompare v2.11.1 (Anoia)
comment Created 2/28/22 9:41 PM
obj_info Generated by CloudCompare!
element vertex 2011
property float x
property float y
property float z
property uchar red
property uchar green
property uchar blue
end_header
341 540 274 121 135 156 
240 692 177 83 104 124 
222 249 198 137 66 48 
180 745 420 114 133 179 
310 413 371 184 146 99 
342 432 212 131 113 91 
295 422 365 170 121 82 
282 226 340 143 87 83 
357 514 322 107 123 168 
245 842 231 181 130 98 
352 519 325 131 147 170 
348 505 347 90 106 162 
320 608 201 115 98 83 
313 718 250 83 89 96 
189 954 275 93 74 59 
274 440 173 56 78 102 
400 355 327 116 130 148 
229 67 333 123 103 84 
336 232 236 72 53 60 
222 743 175 147 105 66 
339 654 167 51 87 151 
216 561 356 92 115 144 
283 428 358 144 58 5 
192 705 247 134 134 140 
194 925 257 72 58 45 
410 240 316 111 46 63 
224 208 269 69 30 38 
301 659 120 84 82 136 
238 473 164 83 98 116 
242 428 348 107 119 133 
223 580 192 103 128 153 
353 387 243 73 75 82 
344 287 375 159 154 157 
181 741 421 121 138 184 
226 528 161 100 135 167 
217 249 201 124 79 51 
342 284 256 99 99 102 
241 223 333 104 37 49 
258 126 284 93 79 69 
352 334 241 87 72 58 
319 489 368 103 122 150 
257 205 210 121 88 62 
172 744 267 136 136 143 
304 726 210 45 49 53 
245 538 156 62 90 119 
290 784 179 164 121 92 
227 622 394 128 104 83 
313 333 185 162 137 112 
353 153 183 184 86 19 
203 326 214 174 174 182 
235 226 320 94 37 73 
235 194 323 47 39 46 
313 687 271 159 92 34 
226 402 193 84 103 128 
294 689 197 77 66 68 
344 295 240 71 73 77 
321 239 247 73 67 69 
189 684 269 74 110 142 
330 701 130 135 162 191 
290 765 189 146 137 133 
354 676 117 105 128 164 
303 706 304 156 143 132 
280 288 358 146 145 151 
306 694 136 63 77 117 
290 740 309 173 101 97 
287 527 377 47 83 152 
276 675 336 164 173 188 
219 252 200 128 94 53 
337 528 339 121 138 165 
329 469 363 138 144 155 
194 563 216 126 138 161 
216 454 282 106 115 127 
319 676 258 137 108 77 
167 843 296 196 174 159 
207 482 279 122 122 127 
220 250 200 128 79 45 
231 640 385 160 105 89 
242 233 270 95 41 65 
301 729 91 147 155 171 
201 899 301 90 60 41 
229 692 361 79 101 128 
191 502 294 132 132 137 
397 288 321 105 117 131 
289 779 219 176 132 99 
334 172 210 110 54 21 
148 711 370 67 89 110 
182 958 301 125 105 88 
225 194 213 108 55 8 
231 166 270 31 43 68 
368 223 321 118 75 89 
244 768 159 80 76 73 
252 162 335 161 78 8 
198 373 223 64 115 151 
221 974 326 91 73 63 
297 770 244 196 156 131 
230 971 248 135 96 64 
280 921 300 153 115 85 
257 574 374 116 151 184 
132 742 393 147 154 195 
227 194 214 112 62 7 
181 530 298 129 134 144 
341 207 353 102 55 59 
197 501 340 61 92 129 
186 850 331 155 124 103 
228 656 193 159 158 170 
257 865 294 110 85 56 
225 199 211 98 98 100 
401 210 300 89 49 71 
167 789 263 116 29 45 
224 196 212 107 60 24 
298 718 157 125 93 109 
323 649 187 135 166 199 
319 672 228 65 107 138 
304 730 89 143 151 167 
225 198 212 103 94 84 
297 162 312 73 65 57 
202 589 336 135 144 160 
203 406 200 138 142 151 
224 287 195 135 100 94 
323 649 228 97 110 133 
287 529 376 95 119 166 
350 651 152 66 94 120 
313 291 360 72 107 137 
227 198 212 101 95 88 
246 775 149 103 90 79 
224 886 236 135 96 64 
181 806 372 171 171 184 
387 428 295 113 129 157 
329 146 176 171 78 19 
197 734 190 100 85 107 
214 643 400 163 116 92 
381 454 312 113 131 164 
230 195 214 109 66 18 
323 587 247 47 84 152 
264 686 191 82 103 124 
255 958 341 140 102 92 
315 661 81 128 133 144 
199 635 271 148 150 158 
293 145 195 130 103 85 
266 393 182 185 155 122 
361 487 344 132 153 181 
120 702 382 114 131 152 
214 698 403 161 163 173 
340 163 206 112 59 8 
303 743 267 160 140 122 
195 482 300 130 132 138 
192 817 363 175 42 62 
379 352 273 102 101 116 
346 237 230 65 40 52 
132 676 410 98 79 57 
235 728 367 133 161 189 
348 523 275 148 153 166 
294 906 295 140 110 85 
343 209 350 119 61 61 
363 400 333 130 118 110 
222 784 353 164 99 97 
398 296 303 76 107 134 
165 695 417 103 87 94 
351 404 217 147 102 33 
226 192 216 109 54 9 
227 192 216 109 57 7 
332 197 185 127 51 68 
240 202 272 39 43 56 
357 195 208 109 71 57 
291 16 302 123 98 72 
228 193 216 111 61 8 
305 704 128 33 51 82 
216 849 211 231 166 125 
320 505 373 118 131 167 
298 766 236 200 155 116 
282 622 164 60 105 138 
139 688 419 154 111 89 
186 742 225 128 133 145 
211 577 349 116 136 160 
220 492 357 113 126 149 
216 291 270 90 99 112 
326 672 151 142 177 210 
328 379 367 146 98 73 
215 662 185 135 143 164 
248 606 165 171 170 182 
200 612 246 151 161 188 
357 474 269 130 136 151 
237 972 335 95 79 68 
244 551 162 107 128 186 
204 979 296 86 63 46 
355 243 354 124 101 95 
233 271 265 77 68 76 
402 339 326 160 157 161 
259 861 308 123 101 77 
226 357 287 132 103 70 
168 767 405 163 170 204 
288 529 181 75 100 124 
310 416 369 176 130 78 
259 651 197 60 115 157 
331 194 346 100 79 66 
297 480 191 95 115 143 
266 123 274 90 73 60 
192 708 414 135 148 186 
364 273 272 103 100 101 
278 681 196 48 58 68 
267 829 175 235 167 135 
241 526 159 111 124 141 
284 934 283 98 80 67 
249 777 143 133 118 107 
218 241 271 53 78 98 
241 183 298 75 40 61 
205 289 209 151 123 87 
317 637 120 69 76 84 
207 627 247 136 118 115 
250 803 149 171 156 149 
381 421 280 79 105 137 
243 270 273 129 128 133 
239 525 155 84 102 120 
364 410 259 67 97 130 
305 712 88 79 96 113 
132 729 361 130 129 134 
226 204 209 95 68 47 
192 829 357 188 132 52 
279 329 361 149 152 162 
306 603 307 164 163 169 
317 650 270 117 81 51 
196 148 262 89 68 46 
230 858 292 107 81 53 
202 482 206 139 140 147 
345 292 373 158 155 158 
311 725 83 120 138 189 
228 200 211 78 92 105 
277 445 360 118 101 88 
259 205 210 119 101 88 
304 195 239 75 53 45 
228 203 209 86 65 58 
228 202 210 67 55 52 
236 400 325 81 101 124 
255 990 265 123 96 67 
229 202 211 70 57 53 
245 660 373 72 98 137 
320 748 132 57 55 84 
346 393 350 167 63 10 
193 923 279 66 54 45 
405 338 298 165 132 96 
183 189 267 110 53 18 
158 757 405 158 172 196 
283 433 359 139 67 11 
191 734 331 76 89 103 
315 579 316 150 166 189 
187 942 279 79 64 55 
350 315 250 98 81 60 
366 192 205 107 104 107 
322 651 179 136 157 188 
209 709 406 168 168 175 
195 975 284 111 84 59 
320 477 367 104 119 146 
353 147 195 123 96 82 
259 119 260 110 89 76 
223 513 178 66 101 147 
208 417 197 58 86 119 
219 1011 285 213 176 136 
369 460 352 115 135 183 
195 300 216 71 96 120 
205 619 293 78 123 158 
247 650 371 95 112 160 
291 804 165 193 141 112 
143 797 342 129 149 175 
214 348 269 138 18 60 
226 1013 264 145 111 81 
228 833 184 214 157 122 
313 733 85 168 174 206 
346 279 200 64 52 44 
383 439 322 168 165 171 
338 640 160 61 61 62 
350 360 204 129 89 101 
236 507 366 182 176 178 
281 898 294 129 105 85 
278 797 228 199 143 114 
232 194 215 111 62 9 
354 519 322 117 136 167 
271 827 174 239 169 133 
398 293 302 80 109 136 
354 672 122 89 116 155 
153 686 420 161 116 89 
168 677 379 79 91 121 
186 714 266 117 119 125 
341 282 376 143 135 132 
263 982 276 114 87 70 
229 889 236 127 92 68 
327 441 212 117 101 87 
264 98 304 99 83 67 
187 564 316 195 181 174 
209 344 197 85 113 165 
259 12 325 123 114 110 
373 240 287 74 56 61 
234 196 215 111 64 15 
299 557 369 129 152 192 
353 525 285 177 175 181 
308 695 131 42 55 102 
151 787 322 63 88 121 
207 696 179 102 93 113 
209 672 235 103 97 102 
343 714 83 69 118 198 
303 668 98 138 154 176 
144 758 343 98 111 126 
257 606 377 110 96 84 
270 144 263 96 66 50 
368 461 278 58 95 142 
221 904 338 183 140 115 
276 769 298 202 177 155 
308 640 102 98 115 133 
252 513 369 150 158 173 
290 748 103 173 21 68 
237 199 214 102 92 80 
313 695 239 151 88 56 
228 401 283 48 77 105 
233 309 190 99 113 130 
350 237 198 159 91 85 
275 595 366 88 123 166 
247 377 324 97 107 120 
324 228 350 114 62 65 
307 183 283 76 61 56 
216 969 254 158 123 92 
234 861 302 104 81 53 
157 787 296 159 163 175 
393 384 337 115 130 153 
275 934 266 87 73 61 
224 811 169 113 132 152 
211 1001 251 145 111 81 
405 335 300 130 132 140 
323 567 325 126 146 176 
228 382 270 67 87 127 
197 610 247 175 177 186 
261 406 354 155 66 26 
316 609 184 114 107 102 
305 612 310 76 119 151 
338 338 192 178 151 123 
194 535 340 122 140 161 
339 553 278 73 94 158 
235 195 216 110 63 9 
235 196 216 109 63 9 
234 415 185 67 91 116 
218 658 324 45 48 62 
300 150 203 112 70 39 
202 478 293 111 114 122 
320 414 198 193 162 128 
297 573 197 102 114 128 
367 360 323 139 124 111 
330 630 160 126 110 97 
344 188 348 54 60 79 
337 658 126 107 96 87 
253 518 370 118 138 171 
313 616 282 141 150 171 
192 680 272 70 112 144 
363 443 268 122 131 146 
331 374 198 174 109 68 
213 1005 303 191 164 144 
183 750 414 110 127 181 
238 194 217 117 62 15 
218 545 188 161 154 156 
204 982 262 116 93 70 
325 573 244 65 121 162 
222 454 343 92 112 134 
285 133 224 126 77 50 
237 196 216 109 59 9 
365 384 260 52 85 112 
298 145 202 119 81 53 
327 210 269 73 53 49 
273 623 161 71 116 151 
357 525 306 156 165 181 
191 779 206 123 110 99 
341 154 182 190 84 6 
239 155 279 119 60 46 
288 649 167 95 114 157 
232 695 174 94 109 126 
292 775 233 189 137 105 
278 944 323 185 141 115 
217 868 310 123 89 64 
375 465 334 131 148 178 
294 681 183 171 90 73 
150 736 412 136 151 186 
203 396 245 56 85 130 
231 585 181 73 123 165 
253 640 363 77 68 86 
210 908 329 162 118 95 
240 246 270 66 97 122 
197 607 268 132 142 157 
157 786 381 134 145 204 
211 680 226 129 128 132 
197 151 264 84 66 48 
282 12 291 141 97 71 
243 132 275 114 87 76 
403 216 303 114 68 86 
353 532 309 126 147 178 
285 274 355 129 16 64 
233 205 210 100 76 58 
168 794 260 111 41 72 
196 545 343 101 112 151 
250 681 384 129 149 173 
339 639 167 50 70 86 
318 618 260 92 62 90 
246 869 260 137 105 72 
342 376 203 176 149 123 
208 313 269 135 121 111 
341 446 212 105 128 155 
180 737 253 77 100 123 
339 521 344 109 128 169 
247 227 281 122 43 29 
240 419 179 123 130 142 
320 671 256 188 144 83 
354 413 241 136 123 112 
342 275 190 76 96 113 
194 297 261 115 132 153 
241 688 181 84 105 126 
371 472 332 105 116 169 
392 404 317 63 108 154 
290 900 301 147 114 84 
197 652 254 67 124 175 
303 649 100 123 125 133 
308 735 214 132 109 83 
342 160 206 116 53 2 
247 454 168 106 116 129 
194 730 209 121 138 158 
238 316 292 96 112 129 
271 190 208 110 97 84 
290 408 356 161 136 109 
298 671 211 91 127 159 
362 191 194 121 102 86 
254 701 170 105 110 118 
239 200 214 101 101 102 
155 776 308 147 149 159 
175 945 297 125 104 84 
216 276 201 62 80 104 
217 362 191 85 112 155 
283 911 275 129 97 76 
352 368 207 194 171 151 
338 348 362 162 120 95 
281 704 335 122 140 161 
239 725 364 164 178 199 
208 908 328 160 117 93 
220 519 181 103 117 162 
230 756 174 85 108 128 
170 836 271 194 156 112 
206 377 209 45 92 135 
231 529 150 126 148 191 
158 830 315 182 151 114 
359 238 276 65 59 65 
239 247 305 114 34 68 
167 805 262 66 70 82 
302 650 189 95 143 182 
325 658 225 125 108 91 
214 928 230 125 98 74 
322 465 367 103 120 152 
217 302 199 147 78 0 
267 557 173 145 149 165 
353 156 207 133 66 4 
200 531 197 112 126 165 
222 603 189 94 133 167 
226 790 166 120 99 75 
218 125 266 80 67 53 
323 710 75 78 114 189 
286 647 173 98 115 145 
397 382 294 84 108 150 
365 354 260 117 86 84 
242 293 188 132 131 135 
223 389 288 58 83 116 
232 689 396 74 131 172 
306 685 304 80 70 69 
332 356 367 189 160 130 
186 733 243 136 139 148 
273 519 378 114 133 157 
299 381 357 105 116 129 
258 923 347 168 125 98 
313 707 267 80 98 121 
216 121 268 81 68 57 
165 836 294 151 117 87 
226 210 206 111 89 67 
226 211 206 105 87 69 
352 449 245 144 150 163 
336 368 197 159 0 64 
252 779 331 98 107 122 
207 679 183 89 135 172 
325 302 182 105 134 166 
300 706 281 208 133 17 
201 961 262 127 88 58 
251 329 183 80 109 136 
341 225 366 55 37 55 
225 215 205 62 76 89 
321 612 218 121 103 85 
319 244 248 74 72 74 
223 408 303 54 81 120 
309 707 83 98 113 131 
255 585 174 74 89 104 
207 729 404 89 120 176 
324 151 272 101 75 50 
273 438 172 37 82 112 
277 910 316 155 117 93 
226 612 350 69 118 154 
276 781 280 170 137 133 
199 674 292 143 141 143 
312 582 314 195 190 195 
297 661 184 121 157 190 
253 680 194 96 108 124 
352 163 351 117 97 80 
247 859 264 153 118 86 
199 267 212 108 41 38 
291 589 326 72 123 160 
148 765 338 102 117 134 
288 697 330 164 165 175 
267 171 213 131 117 102 
194 147 266 81 63 44 
403 334 324 143 143 149 
224 134 263 84 71 59 
188 856 286 154 125 90 
220 616 184 89 109 141 
245 385 177 102 112 125 
183 556 258 157 155 160 
354 298 261 106 108 113 
227 848 207 240 169 129 
302 744 211 168 146 127 
374 192 291 87 48 53 
386 396 338 84 109 145 
269 75 314 96 78 58 
195 172 276 48 36 58 
344 458 217 82 115 151 
230 213 205 109 76 44 
209 431 296 77 101 126 
362 486 280 94 123 153 
290 610 198 63 80 95 
253 584 168 75 94 112 
303 715 149 147 102 82 
297 745 162 50 42 52 
215 309 201 129 114 98 
164 838 302 132 120 114 
251 998 288 115 84 65 
216 82 331 147 108 91 
364 384 256 72 101 127 
365 224 328 83 107 129 
264 609 190 80 96 112 
203 806 362 175 45 55 
195 784 378 148 170 197 
256 701 359 131 152 187 
274 744 148 85 9 30 
188 571 309 125 146 171 
225 1009 260 204 164 128 
191 557 331 156 158 169 
267 916 336 107 84 62 
184 646 407 122 98 72 
201 412 235 99 121 147 
221 832 302 119 114 116 
259 705 344 130 149 174 
174 724 430 183 187 198 
337 510 363 181 186 199 
213 487 178 177 175 181 
324 638 135 100 91 83 
211 661 185 143 156 175 
194 695 260 66 103 132 
240 831 278 173 115 94 
278 148 308 80 62 45 
405 225 317 91 75 77 
184 947 284 100 81 63 
339 210 190 133 93 96 
195 679 284 88 69 92 
258 497 170 102 115 133 
224 223 201 80 65 78 
210 486 260 62 89 123 
387 166 288 102 88 83 
241 390 323 68 88 110 
147 665 384 98 86 77 
208 627 300 64 117 155 
210 138 275 126 52 8 
221 369 293 121 130 143 
302 323 170 167 153 143 
343 175 339 121 63 0 
227 221 203 81 83 94 
197 834 351 118 129 148 
291 761 184 127 115 105 
339 275 243 71 75 82 
296 319 170 149 151 161 
204 563 203 146 157 174 
220 424 262 58 82 133 
401 245 319 108 78 93 
356 406 238 147 125 103 
318 652 258 56 60 63 
213 172 272 36 29 38 
210 471 247 111 127 145 
238 225 328 99 26 32 
237 928 350 184 146 121 
194 922 272 60 48 42 
357 418 235 139 85 89 
194 801 202 155 120 81 
355 682 97 75 107 170 
346 700 72 167 174 230 
332 661 86 113 110 110 
214 620 334 84 129 165 
231 217 204 89 72 67 
230 218 204 86 84 86 
182 523 298 124 130 142 
241 851 232 174 126 92 
296 717 147 121 117 118 
344 167 208 104 61 40 
181 765 238 106 28 40 
288 289 173 83 119 149 
245 290 187 79 81 91 
312 333 361 130 134 143 
265 36 308 99 77 52 
358 519 314 148 162 181 
318 400 194 191 156 117 
215 627 237 145 141 146 
399 209 300 72 54 73 
308 248 349 108 93 91 
347 236 270 74 72 77 
209 632 400 124 100 77 
338 567 296 131 139 173 
230 223 202 85 79 81 
200 376 211 48 94 134 
173 773 399 162 168 208 
164 757 318 99 113 130 
154 810 359 189 199 218 
275 806 144 151 167 187 
275 615 194 55 78 101 
257 769 339 203 158 93 
257 934 347 177 133 106 
180 844 256 125 126 132 
175 734 313 102 114 132 
275 734 160 111 33 28 
233 212 206 115 74 46 
377 444 351 66 100 155 
166 771 269 134 49 57 
195 969 276 152 114 81 
221 630 342 73 121 158 
316 228 166 114 59 65 
258 336 182 120 112 109 
159 675 418 140 107 80 
231 945 347 193 150 129 
233 594 175 61 92 118 
188 176 274 107 46 64 
198 719 410 144 150 161 
224 503 360 140 145 157 
293 749 175 122 107 95 
220 650 187 153 165 191 
234 215 205 109 88 65 
154 767 394 132 150 196 
354 412 246 107 109 117 
250 817 283 185 128 108 
348 454 223 97 122 149 
189 518 220 87 104 126 
218 249 270 58 85 107 
287 475 368 114 128 147 
258 600 173 61 81 98 
378 357 272 92 110 128 
309 678 155 153 181 213 
292 694 323 136 159 184 
286 263 176 107 65 73 
226 409 304 66 94 120 
332 646 200 120 138 185 
345 669 105 60 71 83 
197 513 204 127 134 147 
186 261 263 112 126 144 
245 203 279 32 47 59 
282 22 305 142 109 87 
189 519 226 78 100 123 
242 288 276 86 106 127 
258 100 331 120 97 71 
142 667 392 99 85 71 
181 675 380 46 89 152 
235 860 299 103 80 52 
328 679 146 116 152 185 
297 422 369 183 151 112 
244 244 295 93 70 80 
357 381 330 132 105 92 
190 846 342 146 137 134 
393 395 288 87 116 144 
203 670 299 139 139 144 
285 786 126 181 156 134 
233 324 275 96 80 88 
263 980 309 127 106 88 
314 220 340 89 91 98 
350 443 352 75 105 139 
268 114 312 86 72 57 
299 494 379 129 146 170 
235 218 205 97 72 49 
360 380 223 171 142 107 
232 220 203 80 82 87 
214 946 242 108 83 57 
336 643 144 126 110 96 
224 628 343 52 74 104 
251 833 223 206 153 126 
191 690 278 137 135 141 
172 849 300 198 162 122 
320 608 190 113 105 100 
297 651 142 97 111 171 
185 744 413 142 146 173 
230 809 320 175 156 141 
195 599 245 156 167 185 
243 883 253 159 123 91 
279 135 230 133 70 30 
292 929 296 119 98 79 
338 147 181 182 85 25 
243 782 149 114 99 85 
289 742 315 99 74 100 
368 378 264 81 101 124 
159 779 289 152 159 170 
338 645 143 91 80 69 
380 180 307 53 58 63 
190 700 372 57 90 147 
343 323 369 148 148 155 
196 617 254 154 157 167 
220 638 327 83 117 157 
207 684 373 49 81 116 
135 759 351 147 155 171 
278 672 331 97 89 135 
236 695 173 103 110 120 
195 805 202 147 144 148 
179 785 230 159 131 103 
213 667 374 51 77 112 
345 271 375 75 109 138 
245 821 285 181 122 103 
303 183 283 75 61 56 
247 278 313 114 127 145 
366 303 323 75 112 141 
217 672 396 57 86 139 
227 654 192 158 159 171 
322 259 251 95 93 94 
213 655 195 119 135 157 
186 754 405 72 106 177 
344 699 129 148 166 190 
279 639 345 158 100 97 
309 355 176 210 173 132 
208 884 230 165 124 93 
268 112 312 86 73 59 
331 433 365 145 112 81 
222 350 188 83 105 125 
118 701 396 88 116 162 
264 283 350 140 147 160 
197 488 214 123 132 145 
337 248 378 59 70 106 
344 555 286 149 163 186 
264 273 352 156 154 157 
269 449 361 146 1 73 
195 596 256 149 150 159 
364 211 199 122 72 59 
242 427 349 101 118 135 
359 315 341 101 125 151 
387 429 311 115 129 160 
358 287 228 80 85 94 
126 733 393 132 158 187 
286 588 191 87 85 84 
201 841 319 123 84 45 
232 844 201 239 170 125 
342 417 346 134 121 109 
217 563 357 147 152 162 
248 578 372 86 117 149 
351 231 273 74 63 67 
234 781 159 121 103 84 
347 365 347 172 142 110 
118 689 392 59 90 120 
190 684 403 97 105 132 
351 286 235 72 76 83 
231 408 317 86 106 128 
260 821 223 188 139 108 
201 383 240 60 103 140 
241 529 156 61 92 118 
398 364 330 130 144 163 
314 576 323 196 192 198 
260 817 256 193 134 114 
251 68 300 89 70 46 
388 340 330 135 135 141 
201 840 340 142 136 147 
304 521 203 91 109 130 
311 346 177 169 143 115 
293 667 184 97 123 150 
197 971 297 84 68 56 
179 723 363 69 111 155 
251 791 143 135 97 48 
345 484 242 82 106 161 
205 728 407 146 149 181 
317 721 80 143 157 206 
194 558 213 204 191 187 
311 648 190 197 211 234 
238 362 301 88 104 121 
319 681 261 161 100 38 
297 293 168 160 160 167 
371 204 289 79 48 60 
245 293 291 69 105 134 
247 136 279 119 74 62 
201 677 375 55 79 102 
327 653 91 96 101 109 
308 210 256 69 65 63 
239 208 209 105 84 58 
284 623 154 54 97 134 
180 681 381 15 82 156 
243 181 282 126 41 30 
194 563 334 137 143 154 
293 733 302 155 115 59 
318 683 146 134 168 202 
260 119 266 100 83 72 
285 752 286 207 189 175 
337 314 377 90 122 152 
377 468 298 90 113 164 
211 627 244 140 139 145 
349 219 222 67 36 47 
212 454 181 41 84 114 
270 175 334 150 76 5 
310 325 359 146 145 151 
263 654 358 80 99 123 
240 199 214 102 92 80 
194 726 350 105 117 133 
287 530 169 133 152 183 
218 388 201 61 96 131 
218 649 394 169 115 97 
269 127 314 90 74 56 
274 635 182 132 147 184 
221 745 175 155 124 91 
255 830 210 199 148 116 
203 476 206 129 132 142 
253 386 185 64 74 85 
342 399 208 157 73 5 
205 644 290 106 121 142 
261 795 140 206 181 162 
214 488 352 110 123 147 
310 679 113 64 93 117 
208 487 180 97 118 144 
288 493 376 104 126 155 
240 1008 299 145 104 69 
302 185 225 85 55 50 
186 836 239 135 128 126 
315 246 354 96 101 110 
192 782 205 82 80 81 
158 795 290 127 139 155 
352 231 196 158 117 86 
267 605 370 69 72 78 
236 585 367 97 95 108 
263 754 141 64 64 66 
277 928 326 174 132 102 
246 199 214 96 88 78 
345 695 131 135 162 191 
370 425 270 81 105 136 
368 276 328 141 139 144 
158 781 289 147 151 159 
247 199 215 94 75 49 
297 304 357 152 151 158 
200 379 224 66 103 135 
302 667 106 107 139 167 
201 444 189 98 109 125 
356 498 339 116 136 166 
247 270 296 122 130 143 
215 659 388 114 123 136 
259 467 365 179 174 176 
287 644 153 147 154 187 
194 552 337 155 155 161 
288 590 335 142 115 112 
265 298 335 107 127 150 
344 191 187 111 107 108 
268 146 328 106 86 62 
242 192 218 113 62 8 
198 686 258 57 100 131 
329 216 183 127 91 58 
290 725 121 92 97 104 
267 380 351 179 150 118 
260 26 231 128 87 81 
166 838 336 182 17 49 
299 646 107 102 114 130 
219 84 331 145 109 93 
241 196 216 113 65 8 
250 540 371 108 122 138 
286 774 271 126 138 153 
244 193 217 115 57 6 
354 691 74 179 180 190 
356 419 237 153 44 87 
313 765 126 167 158 155 
371 303 319 70 108 138 
368 360 262 103 111 122 
257 554 376 91 130 163 
236 557 170 169 172 186 
374 185 305 54 68 82 
237 484 164 97 113 146 
241 422 346 37 79 116 
266 209 339 149 94 69 
223 587 183 116 136 158 
239 721 169 141 130 131 
272 659 206 74 73 78 
238 127 328 115 93 70 
358 456 261 117 133 155 
211 877 317 153 115 87 
150 807 354 168 186 210 
241 192 301 94 36 62 
182 729 425 168 167 184 
210 862 288 148 103 77 
341 546 276 85 105 152 
332 183 216 103 51 29 
193 861 244 205 152 124 
189 861 266 197 145 113 
285 638 330 103 104 128 
192 853 292 117 126 138 
214 418 302 78 101 128 
237 937 233 88 64 44 
196 475 311 68 95 125 
323 391 193 176 152 127 
196 767 191 135 123 116 
264 50 303 89 74 58 
353 292 234 74 78 85 
227 525 178 86 109 131 
177 667 416 153 110 79 
263 283 186 110 60 76 
320 243 248 74 69 71 
345 449 355 127 139 155 
198 139 260 87 67 44 
193 670 403 155 106 84 
258 9 244 130 116 107 
279 813 184 191 144 114 
306 752 223 181 168 167 
165 706 429 97 128 163 
243 169 282 132 34 26 
275 641 351 181 117 111 
356 216 192 82 123 156 
269 883 321 156 123 95 
190 727 353 80 103 139 
262 450 364 132 80 56 
288 906 303 132 102 73 
213 651 194 108 132 159 
258 169 221 67 76 85 
285 463 372 135 112 100 
299 264 352 128 52 80 
240 205 212 93 65 39 
193 478 307 121 129 141 
217 417 291 59 83 107 
251 1000 292 106 73 56 
339 164 329 118 79 61 
230 194 269 66 39 45 
232 968 337 105 87 75 
256 124 277 100 81 71 
275 787 275 189 160 134 
243 1007 300 161 128 95 
158 793 291 136 149 166 
246 694 177 86 107 128 
287 401 180 190 155 116 
288 372 358 150 5 63 
149 763 391 126 138 194 
306 672 163 149 180 212 
253 983 261 168 130 96 
246 200 214 98 97 97 
293 610 326 168 158 153 
206 454 182 58 90 120 
257 824 212 179 126 93 
345 314 192 91 103 118 
308 198 241 74 52 45 
246 203 213 89 62 51 
244 767 163 78 70 62 
253 770 141 122 113 108 
295 659 312 59 98 126 
256 986 262 100 74 56 
390 185 307 50 65 80 
195 871 267 181 137 104 
240 179 302 84 36 60 
269 907 326 88 63 56 
226 516 164 73 106 150 
293 386 178 134 34 80 
228 967 336 100 81 68 
246 536 369 111 127 165 
143 788 360 129 146 187 
167 748 307 131 136 147 
208 533 352 123 138 159 
306 662 169 133 170 205 
198 947 320 77 62 54 
257 778 323 103 98 101 
322 633 249 153 108 95 
397 215 317 106 54 47 
204 799 364 164 179 194 
209 579 207 218 202 194 
256 294 326 148 128 105 
319 370 188 140 117 93 
170 745 314 40 60 76 
243 634 377 154 99 83 
249 194 215 118 57 6 
219 748 378 132 159 187 
282 22 306 142 108 87 
209 748 178 150 104 92 
271 385 181 185 157 130 
320 434 208 147 129 113 
277 798 245 198 142 114 
280 398 359 189 161 133 
157 671 416 131 101 74 
251 195 215 117 54 9 
307 155 172 138 61 5 
211 469 322 74 95 115 
165 662 377 86 75 66 
257 827 215 182 131 97 
374 344 321 136 134 139 
343 672 84 72 79 88 
196 903 260 88 70 56 
195 721 410 108 125 153 
200 359 221 84 104 128 
355 238 274 67 65 72 
293 207 179 94 50 23 
311 206 271 63 60 63 
381 166 300 97 80 61 
211 280 204 121 27 55 
285 522 182 76 95 114 
352 422 246 89 100 113 
204 449 184 70 96 123 
209 975 315 92 74 60 
354 531 313 200 191 191 
211 640 401 146 108 83 
305 175 176 38 64 101 
252 192 215 122 62 2 
242 377 182 75 90 105 
303 658 197 127 160 193 
270 780 298 201 169 131 
316 439 205 150 132 115 
353 278 208 156 154 159 
290 929 288 128 102 81 
204 646 289 102 126 151 
204 452 184 49 88 121 
226 813 323 161 139 121 
358 408 230 161 146 139 
350 360 245 127 121 120 
353 389 335 126 102 69 
286 250 348 107 91 97 
314 634 130 70 75 81 
332 578 278 118 140 171 
262 39 324 106 85 61 
255 194 213 118 58 7 
308 741 261 193 166 142 
311 632 129 58 68 79 
329 533 348 157 164 181 
365 381 328 110 100 95 
220 700 341 52 74 102 
221 436 282 90 105 122 
253 197 213 101 71 28 
257 393 184 61 77 91 
195 144 266 81 63 42 
236 382 178 104 127 159 
331 635 199 76 83 97 
204 602 326 67 121 161 
212 757 381 150 170 195 
329 252 176 87 112 135 
309 769 115 131 129 131 
160 768 288 135 145 161 
316 146 272 97 78 57 
276 718 167 95 106 119 
255 197 213 98 79 51 
277 900 287 163 127 100 
269 293 356 122 132 147 
353 305 256 73 85 99 
176 687 412 125 86 71 
344 486 239 150 160 175 
259 646 356 77 93 155 
198 557 206 172 170 177 
284 624 353 145 86 85 
189 731 224 123 131 144 
249 192 216 120 57 4 
291 737 285 179 170 164 
204 562 203 141 151 168 
372 455 353 81 111 167 
188 547 323 160 157 161 
387 325 327 71 105 133 
250 192 216 121 58 3 
250 193 216 121 56 4 
216 855 289 140 98 73 
207 526 351 100 111 151 
251 510 368 180 179 186 
338 672 74 128 120 116 
350 457 249 87 104 134 
191 791 377 135 160 187 
255 654 359 83 97 126 
384 367 276 88 107 130 
184 553 231 207 193 186 
358 241 200 158 85 96 
315 342 366 147 10 65 
200 474 192 137 146 161 
273 566 370 70 71 81 
311 432 371 133 110 85 
284 798 188 184 139 104 
358 370 232 171 144 117 
185 937 284 93 78 68 
202 479 198 88 116 143 
204 481 286 102 107 117 
161 798 277 139 33 44 
286 13 292 127 90 62 
323 592 247 49 73 132 
238 354 300 97 111 126 
186 296 240 99 90 110 
318 388 189 166 42 63 
292 143 202 127 93 67 
295 195 328 113 100 99 
173 829 357 86 58 73 
259 352 325 136 133 136 
293 702 187 115 43 40 
250 205 211 96 64 37 
200 478 226 76 100 136 
280 139 273 100 77 61 
228 460 352 85 106 128 
219 480 353 97 118 141 
278 555 175 150 156 171 
316 639 242 134 96 85 
251 207 210 102 60 39 
205 291 208 174 150 128 
164 753 292 47 86 129 
215 993 299 105 80 64 
360 353 326 167 142 115 
258 197 238 78 75 78 
255 202 211 107 69 38 
286 711 330 134 154 177 
184 745 231 128 138 154 
277 470 164 44 105 159 
259 336 182 138 133 133 
270 446 361 146 28 75 
354 311 206 110 124 140 
172 830 257 118 100 86 
260 832 177 247 169 131 
329 703 129 135 154 176 
227 559 183 92 46 57 
204 463 210 147 144 149 
326 280 372 73 112 144 
157 695 381 82 100 124 
237 154 299 129 52 9 
196 951 315 90 71 57 
332 443 211 94 93 127 
267 767 326 137 137 151 
388 420 343 53 91 148 
257 143 245 102 80 73 
212 543 191 140 152 172 
314 339 184 155 130 105 
186 926 298 103 65 52 
284 600 353 113 89 84 
201 652 253 54 106 145 
195 600 245 143 158 179 
334 632 180 127 90 72 
183 817 235 181 148 112 
285 673 323 61 60 65 
242 271 190 122 103 85 
251 397 342 118 107 98 
201 622 284 89 80 98 
264 687 190 90 109 129 
297 769 242 196 155 115 
383 344 327 136 134 138 
259 164 227 83 87 95 
197 787 190 145 123 102 
254 206 210 105 75 45 
400 228 308 158 35 51 
290 741 101 154 147 153 
199 648 272 154 152 158 
223 681 338 64 87 106 
240 213 207 99 78 53 
220 425 305 54 81 117 
183 938 288 103 88 75 
278 650 188 44 66 107 
185 522 283 96 106 120 
158 740 350 30 69 107 
318 532 368 110 130 173 
176 690 413 84 73 80 
326 636 211 78 80 90 
331 181 279 98 71 58 
281 797 193 193 146 107 
339 661 107 82 87 94 
184 717 268 121 125 134 
234 986 314 131 99 70 
254 726 350 132 143 159 
296 183 184 78 58 41 
328 213 346 85 79 88 
353 234 224 61 38 54 
259 464 364 117 131 158 
200 129 270 76 66 56 
181 546 277 124 138 157 
317 713 133 146 35 39 
228 123 264 90 75 62 
241 919 237 68 55 43 
158 762 297 86 107 137 
211 523 353 159 163 172 
322 242 358 100 92 92 
248 195 338 93 67 88 
280 773 120 156 135 124 
236 397 322 98 111 128 
383 443 293 109 132 158 
284 11 303 118 91 66 
243 217 206 110 86 54 
242 218 205 114 92 65 
275 619 172 38 61 77 
389 185 309 51 69 84 
214 374 266 92 111 137 
283 471 371 79 102 159 
207 363 216 94 112 133 
264 41 303 91 73 54 
243 730 353 135 156 180 
338 288 249 87 81 78 
283 725 156 97 106 117 
228 935 346 173 135 109 
256 980 323 112 90 69 
201 377 241 73 112 144 
303 772 116 82 69 119 
286 743 290 165 130 98 
198 685 252 66 102 129 
274 495 371 105 124 149 
228 883 336 156 117 91 
286 599 347 147 107 99 
259 760 148 57 58 60 
305 703 104 93 100 112 
297 289 356 74 114 146 
295 711 195 57 61 94 
244 216 206 105 77 36 
141 672 381 83 103 122 
244 217 206 113 89 58 
216 709 340 53 80 107 
317 226 167 104 89 93 
271 173 224 78 79 87 
379 239 295 115 34 64 
299 626 165 64 66 76 
212 1008 296 197 166 141 
390 408 340 74 109 152 
187 738 225 131 137 150 
195 998 272 117 90 66 
226 495 155 112 134 161 
261 758 155 48 53 58 
325 535 226 95 116 144 
272 877 308 146 114 81 
292 464 188 102 118 137 
310 684 289 204 167 124 
287 633 124 77 130 170 
275 310 361 85 113 139 
299 387 357 120 90 104 
266 11 301 150 120 106 
277 749 336 193 99 94 
358 212 332 64 85 105 
300 622 314 170 159 155 
245 221 205 107 89 69 
301 720 92 110 116 129 
350 221 350 102 60 66 
244 223 204 92 90 91 
361 415 256 54 86 125 
380 245 293 79 99 118 
150 694 379 33 66 109 
184 710 421 99 121 159 
287 744 105 110 95 116 
281 756 317 185 137 131 
280 650 186 43 72 142 
211 1007 293 166 138 113 
218 967 328 96 77 66 
194 552 338 163 160 162 
382 426 347 43 83 145 
238 635 383 165 106 93 
326 634 201 61 61 67 
195 237 272 83 82 98 
330 266 246 82 80 81 
189 712 260 121 123 130 
195 869 245 201 146 120 
238 936 233 76 56 45 
252 215 207 120 97 70 
208 953 329 89 73 61 
323 579 304 198 193 197 
187 929 293 85 69 55 
222 637 219 144 147 156 
145 664 391 102 87 72 
396 383 334 145 152 167 
238 685 393 54 70 123 
184 272 257 71 114 145 
249 216 207 118 93 62 
384 241 320 43 60 87 
151 763 337 60 98 130 
248 218 207 119 95 66 
366 401 261 98 115 135 
206 323 203 109 116 126 
286 233 179 48 40 57 
354 410 244 62 68 77 
299 755 266 191 170 153 
200 468 219 152 150 153 
251 216 207 116 94 69 
401 360 301 126 91 41 
365 311 322 78 104 127 
267 103 322 105 85 63 
217 657 387 86 102 119 
235 807 315 197 157 111 
263 897 331 175 128 110 
202 442 232 81 106 132 
349 519 331 118 134 166 
249 220 205 110 93 75 
320 519 218 122 133 148 
227 542 159 95 126 155 
219 760 369 146 164 187 
253 773 140 107 100 96 
249 639 185 71 149 207 
203 840 312 104 88 83 
268 784 130 173 150 131 
190 168 259 97 80 62 
282 733 119 54 68 82 
256 594 173 57 73 88 
202 707 198 104 129 153 
279 289 358 156 153 158 
288 772 196 95 75 50 
254 775 335 159 135 119 
187 708 269 123 124 130 
359 335 215 82 108 133 
193 503 284 127 128 133 
250 223 205 87 92 101 
238 220 302 122 38 33 
313 143 277 100 79 57 
233 982 250 111 83 43 
243 445 173 95 106 120 
198 803 366 173 68 64 
244 266 292 137 136 141 
216 318 199 110 120 134 
284 443 362 122 108 97 
247 794 317 204 185 170 
321 385 369 166 104 79 
349 678 138 115 142 181 
142 766 342 112 126 145 
294 902 289 163 131 95 
221 708 403 120 143 182 
254 217 207 105 98 92 
326 750 104 166 44 78 
255 217 206 108 102 99 
289 20 293 130 96 72 
270 347 344 140 140 146 
269 712 169 105 104 109 
280 324 361 115 66 72 
181 934 300 96 76 62 
232 311 286 107 120 136 
151 739 411 123 141 186 
222 335 274 97 105 120 
175 765 253 119 49 55 
216 140 273 127 50 9 
395 178 293 29 64 88 
401 238 319 50 67 96 
239 397 328 99 113 131 
211 181 273 83 34 45 
253 223 205 105 101 100 
218 753 374 125 149 174 
353 662 144 89 115 158 
255 221 205 110 98 88 
183 729 319 122 121 124 
327 321 377 95 124 154 
395 185 300 48 53 59 
240 808 158 143 137 136 
200 483 292 123 122 126 
282 595 358 43 59 79 
176 771 400 153 152 196 
176 836 255 130 118 109 
283 144 275 97 70 52 
154 819 319 88 97 133 
249 354 308 130 131 137 
234 130 268 109 88 76 
210 903 237 108 85 67 
252 595 163 125 133 147 
369 265 276 84 83 86 
241 210 209 104 83 55 
335 446 354 60 90 132 
321 539 362 166 184 208 
209 724 178 139 78 67 
320 596 237 118 129 149 
277 227 192 116 51 45 
205 964 260 135 97 67 
280 913 277 139 111 83 
218 506 356 159 158 165 
222 963 334 112 86 72 
282 587 364 46 85 113 
324 534 362 117 135 192 
221 487 357 95 113 144 
212 663 240 75 104 129 
256 618 383 180 129 118 
220 997 250 152 115 78 
341 525 336 196 191 196 
308 184 223 88 50 40 
315 697 227 153 77 33 
215 148 272 95 34 38 
390 173 297 73 65 73 
289 609 197 68 84 100 
395 275 304 97 91 96 
226 608 350 42 79 108 
230 530 175 87 111 135 
296 557 371 50 76 153 
323 649 94 109 107 109 
205 615 296 79 123 155 
265 266 189 115 94 74 
203 363 252 135 138 147 
333 195 185 124 44 66 
309 305 177 110 56 62 
259 427 361 141 129 123 
266 419 175 107 114 126 
371 227 317 102 90 89 
187 768 394 141 156 176 
226 518 164 101 114 156 
325 593 277 138 147 171 
322 591 244 118 148 178 
211 649 400 172 118 96 
267 11 312 124 112 105 
302 697 220 122 28 33 
237 961 341 114 89 76 
290 766 112 160 136 114 
244 330 296 128 127 132 
264 635 180 76 64 99 
202 795 367 153 175 198 
270 619 188 52 70 91 
227 406 284 64 86 110 
229 709 171 149 152 162 
305 750 219 159 143 130 
247 212 209 110 82 45 
250 478 163 98 124 176 
164 814 271 128 122 121 
250 423 351 138 122 106 
358 506 329 128 151 185 
191 714 413 150 159 181 
207 1006 260 125 99 75 
275 413 185 102 93 94 
211 711 406 142 153 170 
223 858 223 235 169 125 
324 678 74 101 120 143 
229 831 182 202 148 117 
339 642 150 104 87 68 
259 10 234 151 129 111 
182 725 259 116 123 136 
250 209 209 103 67 38 
274 901 278 131 99 68 
391 385 337 115 124 155 
264 204 338 125 89 90 
243 629 388 177 121 105 
250 210 209 108 79 41 
308 677 127 39 41 92 
208 490 262 100 115 131 
326 621 168 116 105 96 
357 363 329 163 139 115 
321 737 94 211 223 240 
178 774 398 141 154 203 
346 541 280 183 180 185 
207 493 346 141 143 151 
249 213 208 122 95 62 
240 239 269 101 55 71 
135 765 373 157 167 188 
337 326 376 150 11 70 
176 824 249 178 145 110 
350 263 266 97 95 96 
304 620 180 90 83 78 
265 815 231 199 144 117 
292 755 186 134 118 104 
229 891 339 172 131 107 
181 555 281 165 165 173 
269 440 166 72 104 139 
353 475 260 155 156 164 
335 163 313 111 77 11 
263 23 333 146 132 124 
273 527 378 96 117 162 
301 166 206 93 67 58 
254 574 374 70 121 165 
338 236 266 83 79 80 
253 807 289 109 98 97 
265 69 304 92 75 58 
319 170 328 107 95 84 
274 806 144 118 156 189 
210 625 391 104 89 75 
343 368 354 177 151 125 
219 695 175 139 142 151 
238 990 250 111 88 63 
310 421 196 158 59 1 
290 135 277 94 74 53 
197 581 328 164 150 141 
291 751 103 176 31 51 
255 672 199 92 100 110 
248 862 328 166 121 106 
189 708 368 75 103 164 
196 601 270 100 128 160 
238 564 167 129 151 177 
328 723 124 156 60 63 
320 423 371 139 119 96 
253 213 208 124 98 64 
269 955 330 163 118 96 
250 834 218 208 157 125 
254 212 208 117 90 63 
210 981 304 80 60 47 
255 212 208 109 84 60 
313 758 140 110 115 123 
305 657 94 112 120 132 
261 919 344 152 118 89 
254 764 141 99 89 81 
253 193 231 77 78 85 
259 749 166 107 86 58 
257 960 250 114 88 65 
272 956 260 135 110 83 
255 193 229 77 79 86 
254 192 230 76 78 86 
232 343 193 82 119 149 
167 746 295 70 98 133 
281 568 179 78 95 116 
277 911 280 158 119 92 
255 193 230 77 78 86 
209 1004 293 145 116 91 
246 734 173 95 37 28 
202 897 298 139 103 83 
400 320 317 110 124 141 
281 635 340 55 40 55 
291 711 324 116 139 164 
306 158 277 95 76 54 
393 381 282 79 102 131 
318 658 212 102 141 174 
312 590 303 143 152 174 
216 1009 309 174 149 127 
286 211 185 109 62 35 
225 732 379 110 130 163 
270 352 350 156 154 159 
388 359 278 138 104 104 
309 744 147 110 101 92 
242 602 365 89 112 143 
253 192 233 76 78 85 
232 119 258 83 69 55 
212 918 229 128 99 75 
179 742 252 108 120 139 
253 192 235 76 78 84 
250 293 298 103 62 62 
318 401 370 175 142 104 
220 630 339 76 77 104 
189 786 213 38 40 47 
330 583 280 133 153 178 
349 261 266 97 95 96 
165 762 273 156 154 160 
253 194 235 77 78 84 
198 573 338 159 160 168 
348 468 357 93 115 148 
369 236 321 118 92 83 
200 728 409 146 155 172 
224 812 330 169 157 150 
360 340 218 169 144 118 
215 658 199 82 118 153 
354 381 238 73 88 106 
199 867 240 194 144 113 
303 730 270 132 127 127 
285 172 216 84 67 61 
149 807 351 181 192 210 
295 625 154 57 75 94 
183 550 312 96 114 137 
280 154 210 131 114 106 
272 652 345 63 70 101 
340 663 155 73 81 144 
294 721 123 92 99 108 
275 246 188 59 82 101 
206 390 253 60 90 132 
381 286 314 140 140 147 
279 794 248 202 150 122 
245 390 175 118 140 166 
377 215 311 122 68 60 
355 161 294 104 71 11 
296 910 296 145 106 78 
271 11 308 125 107 96 
226 377 300 90 105 123 
268 59 319 102 82 60 
346 671 142 107 142 181 
254 197 233 80 79 84 
370 243 282 66 58 63 
324 176 331 119 77 38 
285 194 192 89 88 90 
303 212 173 104 25 23 
240 610 382 81 75 72 
186 698 276 138 141 149 
290 532 179 138 146 159 
254 198 235 80 78 82 
159 758 404 171 183 203 
178 797 378 188 193 208 
306 702 110 76 89 103 
323 157 177 149 76 22 
253 196 236 78 78 83 
254 196 236 78 78 83 
224 450 343 146 144 149 
368 156 290 113 80 57 
193 238 272 112 87 94 
325 527 223 130 135 147 
296 720 191 86 88 93 
249 434 355 128 127 133 
266 70 307 84 70 55 
296 165 286 83 67 59 
197 921 244 76 60 45 
213 873 298 143 104 77 
227 1009 300 144 115 85 
198 622 257 156 155 162 
176 841 261 157 150 150 
251 161 335 157 76 7 
316 668 157 139 169 200 
303 262 168 86 63 73 
244 815 159 177 130 81 
194 550 338 73 99 136 
277 153 318 84 68 49 
260 760 131 95 86 78 
150 669 378 102 121 140 
330 269 255 74 86 98 
327 238 175 63 64 86 
271 808 232 195 140 111 
188 740 332 55 72 91 
309 736 218 126 106 88 
317 639 256 88 62 78 
316 633 140 101 93 86 
360 245 342 132 64 77 
382 386 276 70 101 129 
396 286 319 102 108 117 
394 262 302 113 112 114 
342 198 219 74 33 35 
213 298 272 98 101 108 
293 701 186 155 88 101 
381 224 300 77 46 46 
224 229 201 105 62 64 
225 228 201 92 71 75 
404 326 315 144 141 143 
365 408 262 51 88 121 
309 426 194 146 64 0 
238 581 368 108 115 129 
203 856 288 141 96 72 
225 231 200 103 51 58 
321 210 172 117 61 39 
189 575 309 82 110 139 
190 568 225 231 208 190 
200 470 189 164 163 169 
203 873 282 171 123 92 
293 619 191 88 81 77 
226 576 183 83 124 159 
274 26 317 137 119 120 
189 704 309 58 63 74 
293 752 176 128 112 97 
164 808 269 68 58 62 
269 932 258 85 62 46 
242 367 305 133 135 144 
210 441 294 127 127 133 
198 616 248 174 174 184 
237 348 191 73 113 144 
200 729 341 81 91 104 
182 714 302 158 154 158 
232 867 329 145 114 90 
281 786 265 201 150 125 
211 828 337 73 73 84 
231 366 182 60 101 131 
273 421 184 65 81 96 
265 798 280 192 147 120 
302 929 286 113 85 63 
266 161 229 81 81 87 
257 979 325 103 81 61 
214 206 274 75 54 68 
371 277 276 105 102 102 
138 689 419 156 111 90 
309 695 112 84 99 115 
225 425 314 59 91 131 
199 919 237 100 81 63 
268 803 142 199 177 170 
171 742 283 77 94 114 
192 567 222 140 137 168 
331 365 365 141 36 64 
228 230 200 96 64 58 
285 321 176 164 160 164 
297 577 338 147 104 117 
376 212 311 122 75 70 
188 248 267 149 151 160 
200 852 228 194 144 115 
214 363 267 131 132 141 
320 608 200 115 99 85 
351 692 68 191 199 217 
256 120 242 103 85 73 
201 676 304 97 101 109 
266 94 323 107 87 66 
222 360 184 86 117 148 
197 596 303 173 166 168 
250 800 303 200 169 138 
286 633 330 130 137 154 
314 669 296 85 93 101 
268 945 253 102 84 69 
212 971 321 92 75 65 
309 197 238 76 50 43 
180 819 240 157 112 60 
222 388 289 64 86 115 
215 455 284 123 126 134 
251 290 309 148 143 145 
342 474 219 109 139 173 
269 354 347 158 154 156 
243 683 389 103 115 157 
212 642 307 158 152 154 
208 726 178 136 116 109 
218 362 269 61 86 123 
239 993 249 126 102 77 
224 1011 299 105 80 56 
322 613 240 43 46 50 
279 11 295 138 100 76 
261 568 177 181 163 150 
199 527 197 105 132 161 
226 239 198 122 76 60 
316 697 140 147 80 82 
217 637 321 101 129 167 
316 348 369 162 131 97 
320 680 226 168 140 108 
298 417 367 180 149 115 
258 79 330 127 104 81 
359 520 311 122 144 172 
397 385 299 99 124 151 
200 650 283 151 150 155 
209 639 297 153 148 151 
236 802 157 149 129 114 
247 221 282 50 46 71 
307 174 323 117 102 89 
222 533 360 92 113 149 
332 521 363 124 134 189 
183 741 327 69 84 100 
295 393 356 149 134 121 
351 453 230 101 125 163 
381 297 279 116 126 139 
314 630 270 166 109 99 
295 757 209 128 118 113 
271 588 184 116 126 140 
302 711 117 78 88 99 
283 641 160 70 100 157 
260 188 244 72 70 73 
352 197 210 68 38 45 
228 238 198 106 81 59 
298 651 134 52 104 147 
229 238 198 103 77 45 
229 239 198 110 83 60 
336 345 192 191 161 130 
224 226 268 104 29 29 
330 564 257 83 114 144 
342 199 355 85 71 84 
231 236 198 99 78 58 
271 675 202 79 82 88 
117 707 390 139 153 174 
189 529 216 121 132 150 
267 361 341 148 147 153 
231 239 197 107 76 54 
343 493 243 139 147 162 
311 684 118 47 65 93 
228 179 269 87 38 42 
307 163 303 75 69 65 
395 369 284 128 137 151 
184 660 413 150 108 76 
224 235 200 105 45 52 
215 968 254 157 117 83 
202 490 336 46 83 115 
222 914 233 63 49 43 
257 403 347 125 111 97 
208 636 295 115 35 70 
326 230 175 63 89 110 
332 305 378 127 142 162 
300 623 314 181 169 164 
305 701 144 129 124 126 
235 230 199 101 94 90 
227 554 167 186 185 195 
260 48 300 93 73 49 
362 301 224 67 99 125 
174 694 384 76 115 152 
303 677 166 118 164 204 
160 651 396 102 86 70 
322 603 243 117 139 164 
344 508 263 162 163 171 
294 758 272 157 136 117 
232 224 202 82 77 74 
193 588 293 158 164 176 
207 434 299 78 102 129 
237 164 330 149 60 11 
243 637 188 60 110 166 
286 248 176 65 74 91 
348 671 107 80 98 123 
340 181 318 97 63 47 
224 303 194 96 116 136 
298 311 169 147 148 156 
354 203 330 93 80 78 
312 712 263 97 65 62 
295 701 203 140 92 91 
270 338 341 114 35 30 
196 753 195 139 48 61 
201 672 295 146 144 149 
292 756 194 139 118 109 
234 227 200 89 88 91 
352 667 118 154 158 168 
295 718 99 45 71 91 
288 194 263 78 65 54 
121 708 379 148 151 165 
399 355 288 165 131 87 
277 781 278 129 140 154 
202 709 185 133 149 169 
233 228 200 92 89 91 
265 793 287 143 140 143 
292 720 103 81 91 103 
268 409 363 175 66 8 
203 843 305 91 86 88 
305 163 305 73 69 67 
270 967 323 102 84 71 
363 164 285 124 84 73 
277 616 372 184 123 122 
390 190 309 49 61 75 
319 440 211 130 112 96 
193 572 324 193 177 168 
364 372 326 107 95 99 
246 237 279 116 0 46 
296 147 207 114 73 32 
177 733 268 141 142 150 
216 468 338 73 98 130 
216 664 204 115 135 157 
244 647 378 115 127 151 
349 542 295 144 153 178 
194 956 310 114 92 75 
210 357 215 108 116 130 
178 211 266 62 102 133 
301 174 287 85 64 54 
358 169 285 121 69 47 
238 225 201 95 93 92 
306 318 172 94 114 133 
307 177 169 38 67 101 
213 634 317 133 140 157 
184 712 273 140 140 147 
323 198 272 67 54 53 
221 336 274 95 90 108 
242 264 283 116 116 121 
380 422 280 69 99 137 
363 223 201 101 98 105 
216 667 226 138 138 144 
348 170 341 122 57 1 
229 536 364 153 158 171 
156 770 307 165 159 160 
363 240 205 131 93 83 
303 417 375 204 170 134 
337 339 371 153 0 64 
225 764 172 108 88 65 
292 464 368 92 65 72 
227 335 287 123 85 39 
168 773 399 118 127 200 
196 562 342 115 136 172 
184 218 270 64 109 144 
265 688 350 119 137 176 
193 505 283 73 91 109 
363 353 258 116 90 88 
324 164 205 104 56 27 
388 332 281 142 95 105 
339 643 180 72 98 149 
319 168 279 100 77 57 
243 278 272 128 128 135 
321 717 78 145 142 201 
208 889 315 160 120 94 
328 622 168 127 112 99 
200 391 213 47 80 133 
175 730 291 121 130 146 
144 716 420 102 84 104 
273 203 336 93 94 104 
173 752 263 154 150 154 
215 626 371 58 60 63 
337 540 267 175 174 181 
156 787 303 132 148 168 
303 756 261 150 151 158 
297 223 172 49 38 47 
263 270 188 110 88 69 
373 384 329 128 90 89 
250 815 285 179 123 102 
315 647 254 121 77 69 
298 740 201 135 119 107 
367 372 326 116 110 107 
306 365 359 162 137 111 
323 626 241 105 70 73 
219 717 174 133 142 155 
359 391 232 172 82 5 
358 271 270 102 100 102 
212 155 272 30 59 89 
279 137 274 95 72 56 
214 956 334 109 85 71 
266 218 340 127 34 65 
321 383 372 166 34 70 
234 238 197 99 74 57 
237 322 293 124 125 132 
244 948 239 94 73 61 
258 441 364 135 121 110 
168 740 353 43 80 107 
357 522 294 130 149 172 
275 181 219 61 68 82 
219 842 200 227 161 121 
237 233 199 97 76 55 
383 281 285 107 115 126 
175 779 251 98 16 39 
271 632 178 130 152 179 
294 747 170 139 125 115 
304 761 247 104 88 84 
281 187 224 71 65 67 
332 549 255 86 107 135 
198 929 242 73 58 45 
367 323 320 138 138 144 
217 359 189 104 129 165 
280 571 371 81 93 115 
272 26 314 81 74 71 
197 911 245 90 73 61 
282 799 138 199 172 153 
169 697 419 72 75 92 
345 360 201 137 126 132 
326 388 198 134 52 43 
189 919 291 116 90 70 
279 501 164 96 124 164 
189 950 275 87 70 58 
197 902 294 126 94 69 
311 732 257 182 165 154 
309 615 296 134 153 175 
235 304 281 78 96 115 
242 212 335 108 56 46 
326 614 194 147 113 93 
242 264 271 82 69 80 
255 85 304 92 74 51 
137 675 411 105 84 62 
271 749 122 110 84 46 
140 705 373 117 118 124 
285 512 380 107 133 173 
260 91 302 94 77 57 
304 287 356 88 123 152 
205 553 198 113 137 166 
241 1009 297 138 107 79 
330 228 183 62 92 116 
257 49 331 114 94 74 
213 596 214 142 53 91 
197 976 287 105 73 54 
206 443 205 111 127 146 
340 385 204 189 160 132 
262 418 362 135 117 97 
312 385 375 146 14 49 
276 464 180 79 96 114 
247 888 256 135 103 73 
355 399 237 147 134 126 
182 260 232 52 50 52 
203 707 408 152 160 175 
179 725 312 112 122 139 
339 428 348 97 116 138 
352 344 202 121 75 93 
130 695 377 107 124 142 
298 722 198 103 85 79 
306 641 102 121 130 143 
227 543 159 95 127 157 
249 870 264 142 108 78 
351 285 264 81 92 104 
292 156 296 63 59 59 
296 565 186 95 110 128 
154 816 315 141 45 53 
263 555 376 74 120 154 
242 872 253 149 115 84 
361 431 261 105 122 143 
255 600 168 65 83 100 
391 404 289 108 131 155 
240 254 268 67 99 126 
350 654 145 88 109 152 
213 796 355 156 17 42 
257 264 190 110 77 55 
222 766 359 137 159 183 
199 473 217 88 105 131 
327 280 375 76 119 151 
359 273 226 73 72 77 
270 11 238 128 106 93 
213 929 230 109 83 55 
397 306 287 124 127 135 
198 351 228 113 116 123 
197 936 245 89 71 54 
168 773 264 122 25 52 
302 171 181 75 59 82 
263 450 364 135 90 56 
360 224 337 103 107 115 
206 648 293 87 113 140 
308 166 316 78 70 64 
224 810 333 110 104 109 
159 761 305 149 147 151 
312 384 186 177 27 66 
170 746 277 96 116 138 
198 677 293 147 145 149 
317 718 133 141 40 25 
239 982 256 112 87 57 
205 479 329 107 115 127 
228 862 321 133 104 77 
283 909 275 138 104 84 
217 870 305 121 86 64 
208 441 249 94 114 140 
230 246 195 107 79 71 
199 995 265 129 94 71 
343 244 266 90 88 89 
231 247 195 96 80 83 
154 769 392 129 146 200 
220 705 354 76 96 115 
228 245 196 115 73 53 
310 537 372 137 153 179 
320 216 341 84 74 83 
219 654 320 59 80 113 
301 181 179 51 59 67 
271 347 354 158 158 164 
287 281 356 79 118 149 
210 467 286 88 101 115 
290 164 280 91 66 59 
295 565 365 189 192 204 
202 428 222 111 123 140 
274 564 177 164 158 162 
267 457 179 79 97 116 
185 945 280 92 76 63 
189 696 290 144 143 148 
219 772 172 132 121 115 
284 495 373 99 120 147 
211 959 252 146 112 79 
312 763 139 151 136 126 
352 182 187 144 109 74 
225 250 197 128 78 65 
269 670 364 103 130 168 
298 713 293 188 144 91 
189 546 325 158 157 162 
249 808 297 119 121 127 
372 249 284 72 73 82 
316 660 80 132 140 155 
205 310 266 102 105 115 
285 787 200 179 129 96 
176 730 285 109 125 144 
395 200 299 112 42 38 
251 678 196 96 107 121 
217 440 287 106 111 121 
267 454 176 54 80 108 
289 629 332 135 119 127 
191 930 272 69 57 49 
185 177 256 96 87 79 
220 654 221 143 144 151 
329 143 180 163 87 44 
275 271 184 110 65 66 
230 527 365 170 168 174 
225 253 197 122 103 89 
211 200 274 74 49 65 
286 784 192 173 127 92 
365 232 326 129 118 112 
384 318 279 123 124 128 
191 709 247 95 113 136 
203 344 221 134 139 167 
314 582 226 122 133 150 
285 452 370 129 115 105 
197 477 299 108 117 129 
