ply
format ascii 1.0
comment Created by CloudCompare v2.11.1 (Anoia)
comment Created 2/28/22 9:41 PM
obj_info Generated by CloudCompare!
element vertex 2016
property float x
property float y
property float z
property uchar red
property uchar green
property uchar blue
end_header
322 755 213 193 166 142 
201 507 358 99 116 152 
310 797 219 197 146 108 
220 54 244 92 79 68 
263 965 248 102 81 60 
392 236 325 76 38 42 
219 371 236 88 109 139 
222 853 215 194 141 114 
193 630 326 61 109 144 
207 812 210 145 121 98 
232 900 216 136 93 64 
92 732 343 132 154 187 
274 289 201 104 80 74 
375 372 245 194 167 141 
260 953 341 196 142 121 
222 53 246 96 81 67 
226 885 331 151 115 89 
277 956 319 141 103 83 
264 697 337 97 126 153 
206 650 255 139 138 144 
267 936 340 182 136 112 
100 698 331 32 74 104 
342 179 265 90 41 26 
246 725 160 130 142 158 
371 248 259 74 28 40 
246 553 172 129 134 144 
205 480 358 145 147 155 
251 540 384 137 154 180 
317 568 339 184 185 196 
366 378 290 72 94 130 
398 684 177 145 159 179 
306 189 351 103 51 10 
419 698 143 95 120 187 
172 531 304 104 123 148 
153 642 362 106 95 85 
367 707 139 70 95 116 
204 935 324 96 77 63 
202 840 222 112 122 135 
112 772 317 135 156 182 
278 823 245 196 138 121 
166 842 262 151 142 139 
373 166 317 106 75 52 
226 83 333 134 111 88 
199 705 387 80 127 168 
313 183 350 96 86 79 
254 791 306 160 134 109 
246 131 262 105 87 73 
355 169 325 74 59 48 
235 624 380 167 123 111 
324 745 215 158 139 126 
337 293 200 122 129 140 
162 835 263 105 94 89 
202 463 350 110 124 142 
318 473 212 81 105 131 
266 21 246 133 96 78 
181 634 353 105 92 82 
185 840 236 191 171 156 
308 363 383 168 145 123 
263 130 304 84 70 56 
195 671 346 67 102 147 
217 62 247 91 77 63 
276 171 228 118 105 96 
359 428 241 148 135 127 
275 312 198 103 115 130 
224 197 336 91 31 45 
311 528 209 138 141 150 
347 339 396 156 157 166 
221 56 246 98 83 69 
276 625 341 146 106 91 
264 493 392 91 122 158 
90 710 332 127 139 160 
361 313 276 84 97 111 
222 996 303 107 81 55 
313 140 309 110 93 77 
221 58 247 101 85 71 
270 515 169 94 128 159 
275 889 292 144 113 83 
175 567 319 100 123 154 
317 315 385 149 151 160 
313 765 269 168 147 134 
328 136 313 108 94 84 
204 604 253 93 125 157 
235 855 207 225 163 125 
237 452 187 150 148 150 
326 742 151 108 98 93 
392 284 322 136 140 151 
218 62 248 95 80 66 
313 478 187 101 126 151 
148 662 385 140 106 77 
248 941 348 179 134 107 
267 690 335 54 54 57 
220 253 267 59 95 122 
236 719 197 109 122 137 
223 56 248 103 87 72 
378 253 306 74 84 97 
175 851 260 202 164 121 
222 641 235 83 121 151 
334 413 391 152 136 125 
389 173 336 75 48 35 
258 429 172 102 115 130 
284 737 307 169 83 39 
182 734 389 137 160 188 
230 668 364 94 117 150 
301 713 292 123 94 81 
294 514 392 129 141 180 
212 589 224 169 174 188 
238 136 335 118 95 70 
220 63 249 101 85 69 
245 630 166 156 153 168 
183 578 275 143 151 166 
350 153 366 131 93 73 
342 291 403 126 120 120 
217 342 231 185 129 37 
354 152 356 134 91 66 
199 1007 275 134 106 77 
233 328 355 86 128 161 
351 786 178 188 142 77 
308 165 220 61 45 54 
152 722 332 68 93 126 
422 696 127 67 101 129 
237 885 216 174 128 100 
239 896 223 132 100 77 
269 344 359 98 122 146 
265 485 181 155 160 175 
362 261 267 74 67 71 
303 625 196 80 76 75 
216 131 265 101 75 62 
253 950 235 81 62 52 
237 627 206 38 74 159 
228 15 211 140 125 114 
316 806 207 178 134 101 
351 305 361 145 142 146 
229 15 210 139 126 118 
328 228 396 138 51 76 
335 174 351 83 58 45 
372 401 251 175 73 8 
156 810 265 93 42 50 
349 674 159 48 73 112 
304 399 398 179 154 131 
211 922 330 170 129 104 
254 681 338 89 100 151 
368 373 347 101 115 135 
225 462 258 59 86 115 
172 732 394 180 186 202 
338 425 236 190 85 11 
312 589 323 166 171 193 
182 691 358 63 60 77 
216 246 267 66 97 124 
272 167 260 100 81 62 
351 171 295 99 70 49 
140 789 281 56 77 106 
280 738 316 176 142 110 
203 975 309 92 76 63 
219 104 324 148 111 92 
260 22 284 161 130 119 
234 826 291 159 124 94 
182 721 393 77 105 168 
335 810 171 171 161 157 
230 13 212 138 123 112 
265 964 249 108 87 64 
261 991 289 90 69 54 
345 206 376 98 105 113 
147 795 277 138 147 161 
302 834 181 238 159 124 
221 94 308 93 78 63 
215 332 239 179 127 67 
228 776 184 121 108 95 
321 698 207 138 35 34 
177 573 327 87 119 168 
349 638 234 65 72 80 
183 567 264 149 155 171 
167 741 320 22 87 171 
279 926 317 159 124 94 
211 1017 295 210 180 154 
249 805 166 184 167 154 
230 403 261 58 80 133 
228 976 332 77 60 51 
237 661 356 113 128 156 
392 662 191 68 101 150 
227 435 210 105 122 142 
175 686 358 48 103 143 
232 256 293 66 78 95 
336 450 229 116 49 72 
234 960 238 80 58 42 
292 467 400 119 133 169 
351 282 364 123 121 123 
361 419 365 73 102 135 
163 826 333 164 68 107 
307 302 371 145 142 144 
155 669 383 163 115 87 
323 713 252 77 72 78 
297 583 337 150 168 193 
228 803 185 168 128 71 
359 777 168 84 54 53 
224 15 223 130 110 90 
306 293 369 69 112 145 
124 692 342 98 102 111 
251 897 344 194 141 124 
377 644 204 84 86 89 
165 773 253 124 132 150 
249 377 179 63 100 130 
253 874 243 176 134 102 
312 376 393 137 79 98 
347 726 151 87 97 109 
327 475 379 119 130 183 
226 13 222 125 106 86 
111 674 375 116 93 66 
272 265 203 133 112 101 
238 692 202 145 148 160 
248 640 200 115 128 147 
251 64 301 84 68 51 
303 751 288 139 118 99 
217 1012 252 91 70 52 
230 382 338 110 109 115 
163 841 265 148 107 70 
342 229 289 64 49 53 
224 321 268 115 41 59 
345 347 226 158 133 107 
223 342 264 128 65 88 
229 11 221 123 105 89 
222 222 325 101 35 52 
247 590 186 70 80 89 
269 546 385 141 158 180 
205 903 258 83 59 43 
262 988 263 138 115 91 
217 384 291 117 123 135 
351 337 228 190 160 129 
316 778 148 148 116 82 
231 324 270 120 26 64 
270 457 171 109 123 147 
278 741 318 166 54 68 
311 586 207 105 113 126 
291 796 263 206 152 125 
230 11 222 120 103 86 
346 216 377 101 86 97 
314 371 392 134 94 88 
218 409 342 120 105 91 
189 715 255 87 92 101 
229 13 216 133 117 104 
268 532 184 171 168 181 
257 666 178 57 94 142 
319 685 281 124 94 67 
326 361 404 137 27 71 
251 773 325 64 77 115 
224 384 287 104 112 124 
197 686 330 64 93 135 
311 202 208 70 60 68 
319 610 292 127 153 183 
205 231 264 131 14 60 
191 859 249 194 143 108 
327 745 242 169 133 92 
210 870 231 204 149 121 
231 12 217 132 115 102 
187 511 277 79 91 105 
264 867 306 134 107 79 
249 795 161 175 138 91 
228 12 221 124 106 89 
407 720 128 137 155 202 
229 12 220 126 108 93 
334 566 288 96 121 162 
328 737 249 133 118 106 
137 780 291 92 102 115 
413 695 149 156 173 209 
334 636 229 73 56 57 
264 23 221 139 125 116 
346 199 199 40 43 53 
295 812 228 207 152 121 
251 700 164 66 118 155 
235 11 213 135 121 109 
275 162 299 83 63 46 
284 922 291 102 78 60 
287 683 192 41 58 73 
327 411 398 151 131 111 
337 511 247 130 143 162 
201 622 282 74 124 162 
366 660 119 48 87 141 
284 142 251 122 72 38 
234 180 271 88 40 46 
330 208 395 108 84 100 
377 646 177 102 87 73 
391 323 331 153 154 162 
340 139 323 108 92 80 
244 629 171 164 168 181 
314 695 291 150 92 65 
299 805 158 174 161 155 
95 723 366 93 121 179 
172 737 307 70 99 134 
283 343 196 86 59 60 
237 356 363 141 144 153 
341 678 189 135 164 195 
286 579 349 168 167 174 
99 676 364 95 78 60 
290 337 367 111 127 146 
288 553 370 92 110 166 
172 851 308 130 122 119 
352 219 357 142 56 70 
178 759 369 139 168 199 
221 617 222 99 123 162 
269 158 319 84 67 49 
300 406 394 177 151 125 
229 294 309 146 144 149 
250 958 239 86 61 42 
230 114 309 84 71 57 
242 154 339 115 105 97 
386 367 338 179 129 66 
296 673 206 44 79 106 
313 370 391 163 144 124 
343 386 377 153 134 114 
334 522 347 113 133 168 
177 944 270 91 77 69 
348 774 140 163 133 104 
362 433 275 82 99 148 
251 652 355 189 122 118 
239 531 380 128 141 158 
224 853 214 197 143 112 
217 930 225 96 71 55 
260 585 189 114 118 125 
325 664 226 165 178 199 
332 145 321 121 77 15 
207 230 265 100 67 88 
239 11 215 133 118 106 
344 432 374 67 97 135 
305 673 205 89 103 120 
147 771 366 113 133 198 
303 182 280 88 72 57 
328 675 264 71 71 75 
240 227 272 125 19 32 
237 13 210 135 124 116 
324 663 268 86 106 125 
388 170 337 81 51 39 
311 475 180 81 116 146 
303 393 385 144 50 71 
277 345 361 112 127 146 
329 676 188 127 147 170 
126 804 311 166 177 194 
232 391 284 58 79 102 
258 701 163 122 132 146 
325 322 393 151 152 160 
204 968 316 90 74 60 
235 185 298 90 39 37 
249 545 166 77 103 126 
281 636 207 60 48 56 
141 770 364 121 133 187 
253 605 366 54 95 124 
299 137 226 134 84 53 
331 174 357 86 69 58 
339 488 364 173 173 182 
244 573 183 87 108 128 
226 544 374 118 141 168 
323 297 385 91 89 102 
314 530 201 51 82 118 
296 654 209 37 40 46 
234 11 216 133 117 103 
363 392 281 104 117 134 
262 876 321 152 117 91 
220 258 333 134 8 58 
340 655 209 101 136 168 
330 585 256 104 119 138 
207 150 263 79 68 62 
279 162 288 80 61 45 
229 366 287 126 89 35 
262 643 205 63 62 78 
271 611 346 141 100 89 
349 635 165 76 78 81 
370 395 242 197 166 134 
181 949 274 91 77 66 
280 139 246 141 76 17 
281 790 162 166 136 103 
352 281 372 102 116 133 
347 180 280 90 53 36 
325 728 211 86 85 90 
196 485 350 143 145 153 
233 585 370 85 111 158 
257 133 269 96 85 77 
209 832 213 108 119 133 
167 670 375 123 85 68 
309 557 349 142 153 169 
297 505 392 168 174 188 
262 22 334 145 131 123 
198 651 345 42 64 99 
391 325 332 144 145 152 
234 10 223 121 103 88 
218 255 319 105 106 113 
200 812 217 154 133 116 
282 825 233 199 146 122 
335 369 400 188 159 130 
221 212 315 82 46 77 
238 779 330 139 140 145 
312 175 275 84 65 50 
241 589 161 86 137 180 
252 441 368 162 67 7 
248 937 231 96 73 53 
243 238 280 107 32 66 
340 626 237 145 103 86 
362 221 268 69 48 53 
390 226 333 111 36 38 
366 214 229 99 102 122 
193 541 349 102 115 145 
217 741 202 120 117 122 
267 153 322 82 66 45 
236 386 281 80 94 109 
218 365 241 144 146 154 
190 771 225 139 36 35 
244 298 198 156 75 0 
206 717 233 102 105 112 
352 287 209 187 183 188 
320 495 378 82 105 159 
358 228 346 93 75 82 
200 529 231 108 112 121 
320 231 380 123 25 54 
329 174 365 84 73 60 
315 560 197 116 133 156 
205 858 232 194 141 112 
233 197 271 91 32 28 
197 770 347 129 160 190 
277 638 333 126 146 169 
378 261 338 134 138 148 
238 10 220 127 111 98 
383 313 304 128 53 67 
244 989 253 111 85 54 
360 698 174 96 115 136 
261 504 392 98 120 156 
272 618 203 54 87 112 
272 696 178 91 101 113 
328 487 370 151 154 165 
236 430 192 116 123 135 
165 751 270 105 108 116 
199 976 294 77 60 49 
347 661 202 165 186 213 
256 655 348 155 105 109 
343 170 351 107 60 46 
264 947 242 64 50 40 
232 18 207 129 120 114 
292 164 246 95 87 82 
203 437 325 59 88 130 
322 730 153 128 46 47 
348 510 313 88 110 155 
151 677 379 152 106 78 
190 549 244 131 143 160 
347 185 373 112 75 66 
308 640 185 105 124 166 
232 21 207 144 126 112 
243 507 374 80 107 137 
192 965 272 146 116 84 
274 813 267 194 136 113 
294 690 321 77 69 65 
254 774 154 171 122 68 
312 287 192 97 78 72 
124 704 382 89 106 158 
259 411 182 44 85 114 
410 682 143 61 78 98 
234 20 207 130 115 103 
298 135 228 129 86 55 
368 265 341 140 77 33 
293 553 360 125 138 181 
250 825 281 176 116 94 
205 296 234 149 161 179 
95 687 337 57 77 106 
151 749 377 110 124 171 
219 386 243 54 99 134 
338 655 235 107 139 168 
190 697 278 53 55 57 
368 307 266 67 96 121 
230 761 185 109 82 46 
216 702 211 97 117 138 
238 19 207 118 108 99 
239 18 207 114 105 98 
380 232 247 112 94 113 
199 1007 281 157 126 93 
368 457 344 158 160 170 
323 178 358 75 64 57 
345 194 188 64 40 37 
195 469 320 81 101 123 
364 742 173 126 111 98 
358 754 177 111 108 109 
289 723 306 196 122 81 
244 336 195 95 112 130 
337 169 362 84 62 44 
188 529 261 129 126 128 
238 20 207 126 114 103 
251 925 232 70 55 43 
226 412 215 83 100 120 
305 625 212 75 76 80 
221 687 203 134 144 163 
253 1014 282 151 120 91 
299 161 197 127 110 96 
387 273 313 141 137 138 
334 440 228 107 91 76 
246 958 237 90 70 55 
104 756 327 67 100 174 
185 746 242 97 105 117 
233 24 207 117 111 108 
354 473 257 168 177 192 
282 561 189 100 109 144 
232 309 357 138 138 144 
210 1014 292 165 126 94 
250 339 199 72 77 84 
359 322 222 169 18 72 
213 188 269 104 30 51 
241 589 162 85 137 180 
259 469 179 117 133 160 
275 459 391 142 131 125 
261 992 266 118 97 77 
375 210 248 128 69 70 
296 158 308 70 67 66 
213 313 249 150 120 85 
235 27 207 124 102 77 
238 313 362 137 135 136 
173 812 239 86 77 75 
262 966 249 108 86 64 
207 659 317 54 55 57 
331 645 257 108 108 118 
336 425 374 73 86 124 
380 280 337 129 132 141 
327 614 217 106 98 94 
214 817 203 165 146 131 
219 435 235 86 107 131 
243 760 170 110 35 24 
255 256 201 120 96 75 
378 323 339 112 124 140 
302 198 357 65 70 75 
365 356 235 167 46 61 
346 278 388 129 123 122 
264 341 359 127 141 161 
257 886 332 161 122 98 
308 265 367 44 83 114 
294 415 192 42 69 97 
237 25 206 89 83 76 
283 203 340 104 98 94 
279 515 186 97 116 143 
255 602 364 53 70 86 
183 639 351 66 93 116 
351 436 243 138 119 108 
373 432 348 125 141 162 
108 744 314 140 138 142 
239 24 206 140 128 121 
239 25 206 100 92 85 
344 666 140 152 167 190 
375 367 242 163 148 137 
238 27 207 124 100 70 
366 216 335 100 52 53 
145 646 369 98 85 73 
205 839 219 118 111 109 
270 977 304 99 81 68 
211 219 268 87 44 45 
235 322 329 125 136 151 
320 758 269 204 190 182 
346 496 254 109 132 159 
237 29 207 126 100 65 
189 581 337 144 153 168 
189 612 315 70 122 163 
315 343 196 138 147 161 
226 1015 277 103 80 56 
357 483 279 113 142 172 
302 191 348 106 61 17 
239 28 207 127 101 69 
232 333 307 136 134 138 
279 148 302 83 58 34 
290 379 370 165 143 122 
344 265 394 143 5 65 
189 700 334 68 105 171 
250 495 375 66 98 141 
255 819 171 126 140 158 
246 598 191 109 120 134 
319 541 201 151 156 166 
351 244 355 45 71 97 
225 345 289 153 128 101 
268 492 394 77 108 157 
154 714 336 120 129 142 
212 814 316 153 133 119 
347 742 178 98 108 122 
317 203 199 95 57 38 
280 225 209 74 98 120 
324 147 298 113 90 72 
293 761 290 112 90 80 
335 653 144 72 111 142 
325 686 183 87 104 136 
280 562 190 99 111 141 
225 19 213 139 128 122 
301 150 239 102 86 77 
221 632 236 153 149 155 
225 18 215 144 129 118 
280 963 283 101 85 71 
220 164 270 39 55 84 
264 54 327 102 84 65 
211 909 326 164 121 96 
198 219 261 29 66 104 
344 486 251 120 140 169 
349 211 210 108 41 63 
367 437 260 91 115 154 
273 814 266 191 132 111 
198 947 315 83 65 55 
362 176 341 76 68 88 
239 617 373 101 93 90 
202 628 283 85 126 159 
195 991 273 136 108 78 
345 192 189 51 45 46 
226 19 212 146 131 121 
318 681 246 105 139 169 
300 200 208 76 79 91 
134 813 296 174 184 201 
269 151 289 82 68 55 
96 733 357 155 169 202 
104 678 339 96 112 129 
318 722 275 69 73 88 
341 197 405 85 111 136 
320 559 205 102 117 136 
377 421 333 108 123 157 
325 480 224 81 103 129 
227 20 210 151 134 122 
220 362 292 155 124 93 
247 621 376 139 106 92 
229 432 200 119 130 147 
178 777 239 125 48 62 
245 902 340 174 131 115 
269 922 260 103 65 45 
308 410 404 175 78 8 
309 162 230 49 53 61 
227 464 366 68 93 151 
279 603 334 144 123 122 
326 523 231 105 122 143 
224 20 215 141 123 106 
342 800 181 152 155 161 
148 837 296 216 172 111 
335 165 222 103 53 23 
354 639 160 64 68 74 
375 714 167 100 102 129 
279 945 319 169 129 104 
188 479 299 83 103 129 
245 376 180 66 101 137 
332 320 194 163 163 173 
261 987 262 162 133 105 
352 159 398 120 107 97 
232 752 188 78 45 79 
314 529 215 64 79 98 
110 668 353 89 79 72 
342 493 251 90 120 153 
286 140 288 87 59 33 
348 638 145 78 90 103 
238 78 304 98 78 56 
149 677 381 158 107 77 
264 67 329 101 84 67 
322 256 187 121 83 84 
322 591 224 160 157 162 
360 298 349 119 131 147 
323 823 189 215 155 124 
184 602 323 165 166 175 
311 765 150 63 68 74 
203 283 222 80 129 167 
383 375 343 136 147 163 
339 147 319 118 76 21 
203 439 320 60 87 124 
247 785 318 130 128 133 
371 441 345 136 146 165 
210 938 333 136 110 89 
277 252 356 77 109 135 
224 128 265 99 84 74 
239 191 275 100 39 44 
327 174 267 79 47 37 
197 750 358 151 174 201 
212 458 284 58 81 102 
362 217 271 69 50 55 
156 787 355 192 202 221 
199 463 343 141 145 155 
400 704 166 110 123 176 
256 667 178 39 88 142 
248 335 364 106 58 62 
285 830 216 191 140 113 
375 358 245 146 0 57 
347 509 263 183 184 194 
340 492 248 88 109 132 
212 786 202 133 113 97 
264 675 194 63 34 46 
290 709 158 128 123 122 
231 297 354 98 107 117 
317 562 201 129 141 159 
358 170 342 91 56 58 
243 130 278 103 92 82 
250 994 256 112 90 67 
177 699 352 81 93 152 
377 402 349 56 111 149 
341 644 141 95 118 141 
331 813 172 145 152 164 
304 833 201 221 160 128 
203 443 340 81 108 136 
374 253 302 77 82 91 
198 965 309 84 69 58 
288 674 322 77 132 172 
221 210 316 46 49 80 
276 141 259 119 72 33 
225 16 220 140 121 104 
192 475 323 71 95 120 
202 441 319 42 72 116 
257 195 219 112 58 6 
174 551 307 74 104 138 
364 631 189 94 88 85 
341 765 187 148 128 117 
400 732 148 154 182 211 
93 733 333 132 140 173 
226 540 194 116 134 159 
306 147 209 157 75 0 
313 274 191 123 63 79 
293 799 160 125 115 109 
194 936 309 77 60 50 
232 981 247 97 61 36 
261 189 340 127 69 34 
202 951 321 89 73 62 
249 453 369 112 92 70 
348 623 198 109 102 96 
337 652 253 105 124 158 
323 747 218 180 148 111 
271 720 153 119 119 122 
323 750 221 186 150 114 
247 419 190 70 92 115 
220 691 206 123 133 150 
225 25 215 90 76 66 
197 477 287 63 88 119 
194 777 222 151 47 49 
328 388 207 106 115 132 
368 397 300 89 114 138 
192 531 346 146 148 158 
371 325 244 170 143 114 
291 658 211 45 48 54 
187 709 269 43 52 61 
197 615 290 85 137 175 
362 479 328 155 161 173 
235 322 332 88 117 145 
208 968 319 99 80 69 
245 457 368 116 104 93 
254 993 310 91 70 58 
246 864 282 131 101 71 
297 527 185 139 147 176 
279 970 274 79 62 53 
229 694 206 172 166 174 
226 912 337 140 109 93 
154 642 364 99 88 79 
369 266 244 71 106 135 
255 359 361 109 133 159 
302 520 390 182 183 193 
231 302 268 117 117 123 
338 173 248 98 43 30 
231 826 187 115 131 147 
259 590 186 75 97 116 
377 662 145 92 91 92 
257 45 299 98 78 56 
196 751 359 147 168 194 
202 658 370 37 49 104 
98 740 349 113 131 193 
242 278 287 123 120 123 
226 28 215 105 72 48 
355 432 242 155 133 111 
256 184 222 100 90 85 
221 711 205 74 131 175 
226 31 212 106 81 54 
205 902 264 120 89 68 
279 387 190 52 85 109 
270 364 196 86 72 76 
359 473 270 105 131 173 
228 25 209 110 98 103 
267 979 311 113 94 73 
377 213 232 76 106 133 
199 639 387 182 132 119 
228 25 210 99 86 83 
352 674 190 147 172 200 
301 181 196 141 64 0 
287 827 170 235 167 126 
195 789 218 82 83 92 
374 204 308 68 58 61 
119 689 382 161 116 92 
275 163 300 82 64 47 
309 551 191 115 135 166 
202 463 351 124 133 147 
402 720 123 146 161 190 
321 775 209 86 111 133 
349 238 276 85 69 68 
347 733 138 106 114 126 
153 714 336 117 127 141 
379 699 176 139 159 182 
306 253 193 71 89 104 
226 528 370 141 149 161 
305 146 227 105 56 7 
213 417 289 89 109 130 
266 368 359 123 127 139 
252 498 182 114 131 158 
278 930 320 164 125 98 
238 494 184 100 114 135 
242 565 174 123 132 147 
228 31 211 126 97 57 
275 587 194 113 130 151 
239 250 354 62 83 109 
259 878 325 150 92 92 
369 180 337 51 63 93 
287 149 231 127 120 121 
192 474 306 90 104 121 
281 413 372 170 148 128 
322 763 144 69 80 90 
310 600 215 93 91 90 
347 751 132 91 105 127 
231 432 367 148 130 119 
265 945 243 71 57 49 
274 701 173 94 104 117 
294 190 201 111 87 78 
308 332 198 145 148 156 
271 530 186 79 104 141 
216 643 374 178 119 108 
222 351 261 146 17 62 
363 690 151 80 102 129 
191 662 373 59 71 86 
258 504 389 104 126 155 
288 139 295 89 62 36 
331 370 403 194 161 125 
317 673 238 85 128 164 
192 732 240 82 95 109 
288 164 309 69 65 64 
368 156 330 111 68 16 
334 716 184 155 109 85 
263 159 236 92 74 54 
359 196 339 73 41 52 
352 500 346 180 180 188 
227 764 187 111 89 67 
305 699 164 39 77 120 
188 929 284 88 71 55 
268 676 331 56 56 59 
263 817 274 182 122 101 
324 683 269 138 111 80 
201 661 283 74 92 111 
356 179 212 140 105 97 
350 375 353 106 118 134 
206 614 349 75 116 148 
209 92 318 147 99 88 
341 411 369 73 90 130 
221 217 331 97 37 28 
184 530 335 122 132 149 
304 536 185 180 178 188 
230 594 195 67 118 156 
258 585 177 96 112 130 
200 684 323 48 65 79 
232 26 208 121 97 68 
176 845 318 113 107 104 
260 685 334 62 65 106 
236 865 290 113 89 63 
365 393 272 175 64 8 
340 215 190 159 70 55 
347 340 395 155 155 163 
363 181 339 54 77 107 
259 596 365 70 83 112 
369 158 315 106 82 63 
170 843 257 172 147 124 
227 842 202 190 140 104 
258 259 357 111 79 89 
213 850 218 181 134 102 
199 927 258 71 55 45 
91 729 349 129 140 190 
313 195 203 67 55 62 
258 774 320 127 120 121 
190 525 259 99 102 108 
360 373 238 171 108 54 
128 801 331 163 171 197 
242 11 215 132 118 106 
349 272 381 142 137 138 
195 544 234 57 95 127 
349 523 334 165 171 184 
287 609 201 150 143 142 
137 696 346 58 93 158 
246 960 343 170 127 106 
259 664 347 135 153 175 
269 982 274 110 90 78 
256 788 307 192 170 156 
132 705 334 125 133 147 
204 679 249 78 111 139 
292 403 375 135 34 60 
189 706 266 93 93 98 
317 698 228 58 84 114 
239 190 342 99 47 47 
402 671 160 76 71 68 
219 150 257 86 70 61 
215 880 315 151 113 86 
221 841 284 159 104 85 
261 286 359 115 99 116 
225 975 331 104 86 73 
287 228 354 92 97 107 
260 913 331 134 102 84 
249 423 362 170 69 8 
151 752 313 14 55 86 
325 730 220 128 110 99 
363 686 141 62 99 134 
244 11 214 134 119 106 
308 287 370 91 121 148 
370 451 336 129 139 157 
340 143 322 112 86 59 
226 493 189 138 142 154 
279 141 295 88 59 32 
296 134 230 131 85 52 
343 787 186 170 157 151 
357 639 228 95 115 140 
283 562 367 126 147 171 
344 213 380 106 92 96 
338 721 182 108 19 44 
285 746 298 154 104 96 
287 182 334 98 88 80 
234 352 330 77 54 62 
153 705 341 55 88 141 
325 167 283 101 72 45 
236 358 337 135 131 134 
216 702 366 108 123 173 
335 146 201 105 83 60 
344 438 245 127 106 85 
379 712 116 96 118 152 
303 704 157 76 98 118 
335 801 192 168 145 122 
228 636 210 148 151 162 
332 618 207 107 95 86 
261 188 223 119 59 3 
388 685 186 105 131 167 
288 912 300 113 89 69 
265 13 287 178 142 134 
338 184 185 40 75 104 
344 363 390 187 157 127 
231 965 241 106 77 56 
202 444 330 54 85 118 
343 395 375 149 83 99 
378 216 235 84 106 127 
286 169 285 81 62 44 
323 435 394 130 140 157 
331 446 379 58 77 120 
233 135 307 91 80 69 
267 89 316 86 73 60 
259 588 185 70 95 116 
325 710 200 179 148 109 
345 260 198 81 103 122 
325 156 316 109 113 120 
243 568 188 60 66 80 
158 714 339 87 106 127 
253 635 183 78 112 145 
255 431 170 144 148 157 
156 693 352 49 88 120 
295 811 162 134 120 110 
313 303 376 150 150 156 
253 442 369 156 67 11 
146 676 383 164 116 86 
369 239 339 124 38 49 
363 373 272 177 149 121 
305 518 182 110 126 170 
225 360 310 94 108 125 
240 9 220 128 113 100 
318 177 324 69 57 49 
223 666 223 74 110 140 
241 9 221 127 112 100 
198 635 349 58 69 82 
306 767 154 99 89 82 
293 501 391 165 168 182 
254 556 379 134 147 169 
282 730 324 138 86 92 
212 1016 291 201 171 143 
248 431 189 85 104 125 
279 961 264 124 97 70 
226 990 307 98 70 51 
266 538 384 137 154 187 
156 821 265 174 142 102 
235 388 268 65 92 130 
230 591 369 31 79 150 
291 156 304 83 73 65 
350 168 365 156 66 5 
311 753 283 161 115 73 
191 941 269 120 92 71 
262 127 310 87 72 56 
301 157 214 110 88 82 
217 76 307 112 84 52 
181 496 312 121 128 140 
245 10 218 131 116 104 
206 746 349 144 163 186 
233 1018 292 143 117 93 
225 568 375 90 115 139 
268 374 188 43 90 129 
344 211 403 123 101 107 
233 920 343 133 102 79 
192 778 224 147 29 30 
143 827 323 177 41 71 
329 177 384 134 72 4 
303 517 391 151 157 189 
369 646 214 72 108 151 
198 456 292 106 122 142 
234 383 270 93 110 134 
326 744 236 183 150 116 
230 385 213 95 115 137 
262 819 273 181 122 101 
362 411 281 120 128 142 
260 626 200 54 97 130 
307 167 243 68 58 61 
355 245 216 39 65 86 
307 475 174 79 117 161 
174 638 356 95 85 78 
368 360 288 134 94 101 
238 780 173 128 102 81 
160 832 330 159 47 76 
247 9 223 130 115 102 
136 657 352 107 93 81 
247 354 191 67 99 131 
205 515 360 147 151 163 
323 676 290 201 124 37 
284 432 192 47 75 102 
246 700 196 114 125 141 
350 150 321 121 72 19 
297 172 248 89 79 73 
367 459 349 122 141 164 
282 811 259 199 142 119 
374 156 341 122 69 43 
248 13 212 142 126 113 
197 976 287 81 61 50 
193 945 251 91 71 55 
238 470 185 120 126 140 
221 471 244 76 99 129 
285 736 305 200 96 33 
341 321 204 102 111 125 
233 359 332 140 136 138 
371 282 260 136 137 142 
315 512 186 174 172 178 
277 839 209 217 164 133 
354 473 258 161 170 187 
242 280 359 139 118 121 
190 860 252 197 147 111 
321 700 272 136 69 28 
139 702 384 89 116 165 
384 158 338 131 63 22 
348 660 207 166 186 211 
307 359 381 175 154 135 
271 817 167 65 81 95 
309 556 192 135 141 156 
252 12 214 138 121 106 
206 738 358 166 180 200 
256 422 363 168 140 110 
253 12 214 137 120 105 
343 177 280 93 55 35 
284 172 211 122 107 95 
278 606 200 115 126 142 
224 943 343 176 138 113 
394 671 148 105 98 92 
307 162 223 69 59 56 
374 386 245 193 165 137 
254 13 213 139 122 107 
351 348 356 128 120 121 
200 904 293 91 61 34 
264 9 234 136 114 99 
299 737 150 172 0 40 
241 618 200 105 126 149 
311 716 148 120 139 161 
189 729 387 121 138 182 
351 307 381 84 121 151 
295 581 342 175 185 203 
355 506 338 159 162 174 
209 823 211 176 161 152 
176 725 325 83 122 181 
312 248 188 62 92 121 
224 658 224 78 114 144 
243 458 367 128 116 105 
385 166 237 157 78 4 
370 308 239 139 142 152 
239 632 378 189 133 123 
220 684 224 83 103 120 
405 724 148 151 181 216 
359 156 224 119 68 27 
285 186 273 100 86 73 
217 392 310 139 139 143 
351 191 358 61 82 103 
203 480 283 102 109 119 
329 783 199 84 99 114 
155 845 303 140 134 135 
100 696 331 58 88 115 
351 484 296 149 155 166 
325 170 279 92 66 42 
196 780 343 180 64 72 
217 811 314 201 186 177 
257 306 361 163 159 162 
248 9 222 132 117 103 
312 344 384 138 34 70 
284 148 247 98 80 72 
275 838 226 208 155 124 
248 10 220 133 117 104 
383 378 333 148 155 168 
205 729 217 129 131 139 
252 900 251 118 88 66 
379 397 323 97 118 140 
120 768 301 125 137 157 
123 723 319 111 114 121 
233 339 319 69 110 141 
366 283 264 82 71 72 
225 480 210 144 144 151 
339 548 330 142 155 178 
256 46 298 97 79 58 
291 135 294 89 74 60 
377 201 227 76 105 129 
258 517 178 57 77 120 
211 516 215 110 117 128 
240 189 276 98 50 57 
384 330 339 142 143 150 
230 297 322 118 129 144 
262 148 260 108 83 67 
253 10 219 136 119 105 
84 704 343 101 128 158 
208 296 252 112 132 154 
229 305 290 98 79 92 
338 538 292 177 177 185 
147 667 386 155 113 88 
243 516 379 91 115 150 
238 588 168 91 131 167 
355 408 361 73 103 129 
294 136 241 123 72 32 
349 160 371 137 62 3 
228 403 346 140 128 120 
228 662 357 82 93 125 
365 656 138 90 89 93 
202 709 243 98 99 102 
353 179 348 75 58 72 
265 314 195 128 128 132 
170 826 247 158 122 94 
219 236 311 103 51 39 
288 595 197 154 150 153 
298 203 356 102 61 69 
351 673 150 71 93 156 
254 9 223 138 120 107 
263 51 325 98 79 58 
264 94 329 107 88 67 
254 10 221 138 121 107 
212 746 348 137 156 180 
225 383 287 101 107 119 
210 782 203 114 119 126 
294 197 203 91 86 102 
278 183 219 126 78 27 
329 236 185 58 51 75 
228 722 201 74 104 134 
179 737 258 88 103 119 
282 441 388 137 105 66 
230 353 269 103 101 125 
325 691 200 100 128 153 
385 660 157 107 102 99 
329 726 261 78 81 88 
208 808 327 144 108 105 
267 169 239 102 85 66 
250 332 363 103 102 115 
256 434 169 106 128 153 
375 372 305 77 104 138 
224 934 343 173 134 109 
284 202 210 128 86 65 
246 566 162 143 156 175 
242 21 207 122 112 103 
336 189 404 70 91 111 
174 724 397 151 162 180 
283 948 298 108 91 77 
345 738 178 73 79 84 
269 696 178 89 99 111 
242 23 207 141 123 107 
243 22 207 128 115 104 
173 544 291 112 129 148 
191 629 378 107 91 75 
286 435 195 35 70 95 
201 284 229 79 125 164 
368 639 207 120 98 76 
191 748 368 156 180 208 
243 308 280 121 121 126 
333 554 296 107 138 178 
332 252 401 121 92 82 
194 470 328 75 101 126 
241 709 342 115 132 152 
252 693 337 91 111 146 
345 425 239 187 89 13 
271 914 265 141 71 37 
220 837 205 179 134 95 
234 915 230 79 61 48 
348 787 181 194 163 132 
180 554 266 130 145 166 
221 433 244 52 79 119 
229 304 349 90 120 150 
242 25 207 146 130 117 
235 811 303 204 182 165 
318 804 205 177 136 101 
252 680 344 180 184 195 
284 264 359 137 105 105 
278 140 286 87 62 43 
371 308 340 93 117 140 
280 157 281 84 62 43 
355 397 355 95 111 130 
275 444 377 155 74 6 
322 646 272 157 112 102 
91 684 367 131 98 72 
376 271 299 64 88 107 
333 480 230 152 160 178 
296 615 207 64 81 95 
220 439 284 84 94 106 
342 401 228 197 167 136 
180 717 330 75 117 185 
197 794 214 118 109 106 
275 843 195 250 192 157 
318 615 222 76 71 71 
367 169 210 128 127 130 
208 637 336 37 43 50 
222 374 289 98 109 125 
230 340 303 144 141 144 
225 490 192 72 99 132 
351 159 363 150 65 10 
270 589 353 71 129 174 
201 450 339 70 98 131 
241 16 208 137 128 124 
241 16 209 136 127 123 
252 725 172 120 129 143 
253 873 246 173 129 98 
316 216 372 64 84 103 
232 421 195 48 77 101 
146 739 322 62 75 98 
342 539 333 138 154 175 
242 17 208 140 130 126 
383 182 226 160 97 91 
280 198 213 113 107 103 
327 368 204 165 139 112 
258 673 187 95 118 141 
357 751 130 187 45 54 
346 159 393 118 104 93 
339 534 291 58 77 138 
195 843 292 149 134 124 
288 602 328 155 154 160 
375 242 242 149 89 87 
182 505 331 136 139 147 
200 849 282 103 119 137 
282 636 206 45 53 61 
361 684 149 100 123 146 
221 527 194 124 136 163 
321 168 233 73 53 54 
290 763 290 161 136 110 
291 160 244 95 86 80 
245 18 209 142 130 123 
310 701 291 109 57 42 
285 19 307 153 111 94 
300 820 213 182 131 98 
338 610 231 106 90 77 
246 17 210 150 135 125 
240 341 276 121 70 87 
351 692 165 58 86 122 
227 636 379 191 132 120 
232 907 225 109 80 60 
246 19 209 143 131 123 
339 718 154 54 59 99 
258 153 234 94 75 51 
281 454 167 116 134 156 
178 826 238 174 156 143 
222 200 269 104 44 49 
351 150 205 170 92 26 
231 236 269 93 72 83 
221 932 217 100 87 77 
316 262 378 85 61 86 
321 681 284 154 102 81 
261 451 174 177 177 190 
101 714 325 86 100 116 
272 689 334 91 98 109 
149 765 296 88 101 115 
289 782 282 103 104 111 
343 476 367 112 124 166 
204 873 260 182 131 101 
203 739 363 166 183 205 
360 779 157 141 125 112 
304 377 381 171 148 127 
385 674 191 60 98 140 
208 506 248 92 105 120 
375 365 248 189 161 132 
320 568 210 120 129 143 
399 731 131 166 174 215 
245 759 344 156 117 130 
243 31 208 146 105 82 
249 1016 282 126 97 66 
260 380 189 16 74 118 
255 703 173 73 114 146 
362 465 267 167 172 185 
258 707 164 99 112 128 
246 26 208 177 156 139 
316 506 190 85 111 156 
320 711 222 117 88 105 
357 292 278 79 95 112 
216 520 366 157 162 177 
268 215 212 106 77 39 
266 615 199 49 61 76 
276 25 304 155 120 118 
150 700 385 49 79 125 
246 510 186 129 133 143 
262 753 337 67 85 159 
261 554 177 122 129 145 
167 851 292 151 135 124 
207 747 348 141 156 175 
266 681 332 52 65 87 
258 202 216 69 64 65 
246 28 209 156 130 112 
329 193 384 90 56 69 
324 578 322 123 132 176 
247 29 209 165 140 125 
113 671 345 106 93 83 
202 566 224 184 177 181 
306 159 233 73 62 62 
224 235 269 82 55 68 
342 668 158 73 96 137 
269 158 279 88 65 49 
312 145 213 118 63 9 
234 916 228 76 57 44 
340 201 405 112 113 125 
261 79 308 90 73 53 
214 461 361 126 134 146 
176 850 255 142 99 60 
206 694 383 66 92 144 
252 854 247 175 133 107 
264 338 359 100 128 155 
174 545 282 129 136 151 
327 217 389 139 55 53 
363 269 266 72 65 70 
369 757 168 103 105 132 
167 834 256 148 117 86 
320 497 381 177 185 200 
213 999 292 109 88 69 
351 272 202 179 171 171 
224 95 308 92 76 59 
251 16 211 150 133 119 
290 141 246 122 73 41 
326 331 195 169 167 173 
250 751 149 193 155 104 
314 614 221 62 75 87 
349 387 352 130 129 137 
243 218 282 97 42 41 
294 800 160 134 123 116 
333 342 403 134 136 144 
241 246 286 101 53 69 
351 496 285 155 166 182 
320 655 175 112 122 159 
345 454 247 58 88 144 
250 622 177 119 122 142 
238 370 205 44 96 131 
275 970 265 101 79 60 
286 350 365 138 12 65 
194 995 272 127 94 67 
221 388 333 128 118 114 
245 905 240 95 73 56 
244 639 165 158 160 174 
181 497 296 98 112 130 
302 699 166 80 101 127 
251 22 209 142 126 115 
262 590 365 136 153 179 
270 521 181 97 123 159 
368 226 260 67 48 56 
374 344 294 119 68 86 
194 922 279 98 72 54 
262 829 177 222 155 114 
232 339 314 85 40 55 
203 745 354 151 176 203 
277 167 253 98 82 65 
314 623 205 84 80 77 
318 701 220 124 40 42 
251 133 336 116 94 69 
371 252 242 133 0 60 
226 582 194 157 168 187 
150 702 386 62 85 125 
254 17 211 145 127 113 
198 558 227 133 144 165 
385 359 342 131 83 0 
255 18 211 147 129 114 
231 900 215 143 107 78 
207 697 245 66 95 120 
348 676 167 75 106 146 
282 141 299 90 57 10 
266 112 314 91 76 62 
147 741 322 54 74 95 
237 795 174 137 120 105 
255 19 212 147 129 114 
380 226 242 112 107 109 
323 748 225 135 107 90 
350 301 367 151 149 154 
370 314 228 124 129 138 
299 443 189 50 76 101 
282 392 186 70 95 116 
84 701 356 163 112 94 
370 445 346 91 113 152 
181 953 293 139 120 104 
214 399 308 108 117 131 
255 20 211 150 130 115 
255 21 211 151 130 115 
214 401 334 136 135 137 
222 903 228 129 88 65 
372 246 241 146 67 80 
168 852 275 181 154 130 
299 698 170 43 80 125 
332 154 296 113 86 67 
378 669 193 58 46 111 
122 793 322 132 148 188 
121 756 304 88 104 124 
381 343 341 114 125 140 
347 354 370 152 150 156 
315 255 376 71 80 107 
336 368 212 220 180 137 
222 461 227 71 100 136 
341 539 335 118 134 160 
250 24 209 144 127 114 
248 750 154 140 35 40 
221 852 279 158 112 86 
331 770 193 113 83 65 
319 244 380 97 47 50 
246 439 364 141 68 8 
335 199 182 132 61 37 
371 709 128 85 99 115 
344 360 214 164 136 106 
250 27 210 169 146 132 
239 396 367 190 160 129 
235 332 360 75 120 154 
235 344 359 153 148 149 
249 28 209 174 152 139 
248 29 210 181 158 147 
286 721 318 161 85 84 
245 621 170 91 121 162 
233 654 357 120 117 132 
244 341 365 154 153 158 
298 559 189 115 131 162 
248 30 211 168 140 125 
281 929 305 158 118 90 
302 837 192 243 172 139 
339 545 280 87 106 141 
210 954 331 110 87 72 
351 751 131 147 137 133 
218 397 335 111 48 54 
316 185 368 122 57 9 
315 233 373 134 28 66 
383 328 311 140 84 110 
195 690 271 113 112 116 
214 820 308 204 167 124 
305 146 296 98 73 48 
210 621 350 60 82 107 
350 354 357 149 147 152 
232 130 331 112 91 68 
223 416 219 130 132 140 
376 260 253 137 3 67 
209 494 264 79 92 107 
195 624 311 87 119 150 
220 934 210 67 57 52 
339 625 240 146 101 89 
251 31 213 197 172 159 
304 679 305 164 117 57 
347 202 193 94 27 41 
371 412 264 155 139 128 
225 455 267 82 95 110 
265 137 322 84 69 53 
357 140 327 114 92 75 
333 288 399 75 116 149 
320 793 205 175 132 95 
232 634 195 105 137 173 
229 476 186 151 150 156 
323 353 198 162 124 71 
252 26 210 160 138 123 
272 765 308 128 121 125 
278 488 182 92 116 165 
189 536 342 104 119 145 
184 632 379 117 98 79 
254 24 211 151 130 116 
270 881 288 124 97 68 
370 402 245 178 76 8 
356 467 259 82 108 169 
302 160 294 95 76 56 
167 836 329 182 145 130 
307 452 182 65 101 133 
278 421 184 54 82 104 
318 170 199 80 52 46 
214 884 290 152 116 88 
328 576 293 177 178 187 
233 208 295 82 47 48 
192 694 276 95 95 99 
198 780 217 159 131 98 
304 804 221 195 143 108 
283 326 362 132 133 141 
286 543 386 166 173 193 
253 28 212 171 144 129 
291 264 201 126 79 61 
380 715 168 108 133 159 
272 331 359 160 159 166 
317 520 363 116 135 166 
207 589 363 91 115 147 
347 175 330 77 56 53 
215 129 267 101 79 68 
199 679 266 70 101 128 
218 994 248 127 98 65 
147 676 343 82 109 145 
228 377 217 75 107 134 
331 379 213 138 0 52 
317 653 185 60 93 131 
224 211 269 75 40 55 
121 783 303 108 135 169 
367 334 229 171 30 70 
334 665 242 115 152 187 
189 490 338 105 119 138 
237 663 359 102 117 145 
271 629 202 47 66 86 
369 356 236 176 56 77 
297 139 225 143 83 26 
332 165 209 113 60 40 
272 525 387 166 171 187 
341 713 156 50 75 118 
206 861 231 194 142 114 
372 438 328 138 147 160 
293 547 369 143 150 165 
352 222 359 141 78 61 
342 697 182 166 84 95 
242 625 168 117 139 169 
365 214 335 107 50 43 
220 453 234 165 160 161 
367 304 243 146 151 161 
223 171 318 89 57 61 
316 300 191 86 128 163 
200 791 211 140 132 130 
284 153 245 90 79 73 
246 748 168 101 26 34 
268 939 250 77 62 53 
334 754 139 129 65 50 
257 580 181 64 96 121 
176 512 295 94 114 137 
175 558 317 88 106 142 
373 333 340 138 137 142 
328 597 256 92 115 138 
214 299 204 83 135 176 
123 796 324 165 177 198 
231 325 286 102 102 108 
392 663 159 95 91 89 
231 668 365 109 132 159 
193 746 234 130 133 143 
173 536 303 134 144 158 
323 489 380 97 116 170 
245 450 190 101 119 140 
362 162 208 183 81 5 
292 690 185 39 47 66 
366 299 252 127 135 147 
274 477 173 105 125 153 
191 191 261 141 78 79 
210 284 258 108 130 154 
322 519 357 135 149 185 
132 680 343 89 97 126 
291 413 380 162 141 121 
339 411 382 140 103 101 
353 731 132 107 119 134 
289 610 203 150 143 143 
236 127 307 83 71 59 
190 940 272 127 95 71 
303 769 155 105 83 65 
330 575 290 100 118 152 
306 318 374 122 128 138 
219 867 224 211 153 120 
254 540 165 111 132 154 
103 744 356 176 187 209 
238 450 188 137 140 149 
210 932 331 161 124 97 
256 496 383 71 102 143 
193 908 290 120 83 55 
373 380 257 179 155 132 
332 757 140 112 76 41 
208 461 286 101 109 120 
224 9 224 111 93 76 
209 905 322 156 114 88 
351 300 385 91 115 138 
349 347 374 157 154 159 
202 812 216 150 130 112 
224 11 224 111 94 76 
329 175 382 134 65 3 
312 391 403 137 139 147 
222 88 330 141 114 91 
149 777 279 105 117 134 
226 9 225 109 92 76 
374 174 316 91 58 38 
326 722 261 99 89 82 
226 8 226 104 88 73 
312 737 153 163 8 26 
247 79 304 97 77 53 
203 912 265 76 59 48 
219 371 249 159 156 160 
229 439 263 79 101 124 
241 929 230 66 53 44 
194 575 248 132 137 162 
373 368 253 179 153 125 
358 292 279 80 97 115 
353 765 135 169 11 60 
249 322 199 129 128 131 
266 505 171 107 123 144 
286 824 221 218 162 130 
213 476 272 48 76 98 
301 501 394 173 178 191 
243 610 368 85 107 137 
224 13 225 117 96 72 
201 673 269 86 64 63 
258 176 224 111 101 91 
240 149 279 142 60 0 
222 1004 304 189 165 144 
312 831 196 224 160 130 
233 357 271 128 62 93 
382 192 237 110 97 92 
366 426 306 64 92 143 
353 650 141 81 89 98 
213 473 362 155 150 153 
329 294 191 129 114 108 
314 672 201 51 99 137 
201 279 245 78 120 155 
288 21 295 153 101 84 
252 648 359 181 119 111 
325 366 405 140 12 57 
257 308 360 142 143 151 
197 519 254 68 85 101 
201 661 282 86 99 114 
363 638 178 110 99 90 
278 967 299 95 72 57 
262 561 181 108 125 146 
205 925 234 84 67 53 
202 525 233 93 102 114 
233 957 237 85 60 35 
313 503 182 97 126 164 
259 945 238 64 50 41 
345 218 401 129 82 98 
356 227 221 86 92 100 
313 506 194 73 103 152 
376 163 208 201 92 9 
219 890 232 129 98 72 
192 669 355 2 45 144 
229 8 229 100 85 70 
328 627 170 72 95 116 
276 775 294 157 141 131 
278 146 282 85 58 36 
158 681 355 50 75 112 
337 624 254 156 99 90 
235 164 339 152 72 7 
351 250 360 98 67 87 
310 485 192 67 99 145 
206 642 336 38 52 69 
207 560 211 200 184 175 
344 258 400 123 58 81 
235 345 359 162 160 165 
353 492 312 88 108 157 
236 486 369 107 127 152 
316 210 205 99 56 45 
203 926 317 94 75 62 
364 422 301 90 116 141 
245 846 269 154 107 82 
286 930 279 117 85 65 
343 346 400 115 138 163 
225 8 233 95 81 69 
314 219 187 130 50 57 
368 327 227 154 31 69 
142 740 365 134 147 171 
254 781 157 147 135 127 
236 245 271 126 124 125 
131 681 342 95 99 128 
232 410 281 76 89 102 
236 339 362 104 34 53 
259 553 381 182 185 195 
143 656 381 119 95 69 
231 431 367 160 138 129 
198 526 243 96 104 115 
295 911 299 131 104 83 
219 799 195 104 93 87 
345 258 388 127 27 50 
229 615 373 86 83 84 
339 236 280 79 36 43 
217 931 210 69 54 39 
262 847 194 248 178 134 
352 228 365 121 99 87 
370 153 317 109 81 59 
268 616 201 54 69 88 
388 224 320 70 40 37 
147 831 287 182 11 56 
172 741 390 106 135 199 
252 741 348 187 106 110 
221 228 311 130 35 40 
217 411 342 124 105 83 
329 150 318 124 82 15 
226 347 218 169 163 166 
383 238 336 126 37 29 
315 503 213 120 123 132 
308 776 249 197 144 112 
177 541 272 122 128 138 
316 623 202 79 75 74 
352 205 211 108 43 64 
211 538 205 98 119 149 
261 229 352 138 76 74 
379 713 117 98 121 149 
206 547 211 113 121 137 
228 8 233 96 82 70 
184 557 257 146 153 168 
345 466 246 67 99 162 
344 348 398 104 127 151 
178 709 346 17 85 181 
258 14 216 134 119 107 
286 178 281 93 78 65 
228 9 235 95 82 71 
252 716 186 107 119 134 
210 655 368 100 115 153 
219 694 208 105 119 139 
327 782 200 141 137 139 
204 652 296 60 88 112 
248 859 212 226 159 119 
161 753 289 82 88 97 
166 715 343 48 71 132 
332 574 289 112 143 183 
231 9 235 97 84 72 
370 152 217 144 93 55 
229 9 236 96 83 72 
229 9 237 96 84 74 
366 176 214 155 75 80 
387 168 341 100 43 54 
225 662 216 65 105 136 
375 262 248 85 112 130 
183 721 303 56 68 80 
318 536 194 73 101 127 
322 750 229 199 177 161 
366 343 267 117 129 145 
252 362 362 116 135 156 
292 435 400 139 122 104 
313 411 204 166 118 61 
184 587 330 82 116 152 
321 179 345 78 68 61 
161 793 351 134 159 187 
328 686 268 182 122 23 
260 37 328 105 86 65 
222 480 220 102 118 136 
333 474 228 166 167 176 
291 424 194 35 63 90 
229 435 275 67 86 108 
251 789 310 208 191 183 
269 468 384 109 99 93 
232 9 227 108 91 74 
228 954 236 93 65 41 
238 304 285 75 94 113 
247 149 338 113 91 68 
289 633 197 108 127 153 
281 495 394 101 122 181 
359 474 279 96 119 167 
391 657 179 80 66 52 
86 718 347 96 130 183 
213 139 263 92 69 57 
157 824 263 144 120 97 
232 9 228 105 89 72 
222 251 268 58 90 117 
141 686 382 104 104 115 
177 844 319 120 109 96 
304 739 289 96 95 97 
265 467 176 112 131 170 
225 868 305 108 80 54 
217 434 351 46 76 115 
315 283 190 105 93 96 
299 254 198 100 93 109 
235 9 228 108 92 76 
266 986 273 86 66 51 
247 608 185 107 123 142 
190 490 288 121 122 126 
195 992 273 137 106 77 
259 967 335 123 92 80 
238 197 343 94 44 50 
337 613 241 115 99 84 
237 9 224 121 104 89 
205 958 252 122 91 63 
294 628 205 51 59 72 
356 259 221 102 98 95 
240 253 273 73 104 128 
161 773 363 134 166 203 
177 943 275 112 96 83 
304 653 299 55 69 82 
292 791 268 207 148 122 
359 475 271 152 164 182 
229 256 347 89 76 93 
246 389 186 70 97 153 
284 707 164 123 121 124 
204 607 352 37 49 74 
226 282 342 165 68 5 
388 254 336 148 144 147 
309 591 322 139 155 188 
237 9 229 109 93 77 
272 244 353 87 96 110 
183 640 384 123 98 73 
133 726 320 88 95 105 
195 729 383 118 140 182 
238 776 334 177 170 183 
336 487 367 160 165 178 
388 684 187 108 135 173 
290 642 324 148 152 165 
339 202 405 115 114 123 
267 726 149 112 107 102 
243 340 365 168 166 172 
244 513 186 129 137 152 
108 753 354 130 141 192 
379 206 231 108 79 93 
226 643 217 145 144 150 
235 708 201 75 118 153 
362 746 127 160 90 105 
322 203 378 47 54 84 
186 739 383 65 108 169 
310 463 181 110 127 149 
198 613 275 161 159 164 
202 974 308 93 74 59 
334 631 255 171 114 104 
393 264 332 148 145 150 
373 371 299 158 154 157 
264 660 205 52 85 112 
234 8 232 100 86 73 
367 289 342 118 123 132 
374 352 343 114 122 134 
305 598 318 127 150 192 
200 602 348 110 124 148 
235 8 233 101 86 74 
239 103 306 89 71 50 
277 553 384 100 116 184 
257 286 360 91 121 142 
243 197 275 46 48 78 
193 943 253 87 69 54 
315 693 228 68 105 138 
333 142 194 115 104 95 
355 462 297 171 172 179 
366 469 338 150 160 175 
329 285 392 80 121 154 
225 461 366 100 119 152 
152 735 328 54 99 135 
233 403 202 66 89 111 
346 165 295 110 69 39 
385 260 311 77 95 112 
234 9 236 98 86 75 
267 776 306 181 160 144 
327 532 235 83 110 140 
278 456 393 146 137 134 
190 737 381 122 145 179 
330 607 270 98 129 159 
283 179 257 101 80 64 
399 666 171 66 57 46 
275 167 259 100 80 62 
156 656 349 71 74 80 
372 422 357 98 124 157 
250 712 343 138 151 170 
398 679 135 79 89 102 
166 783 251 153 106 113 
327 588 292 172 173 184 
329 730 259 63 58 62 
204 669 328 48 69 84 
236 912 338 106 79 70 
219 909 232 100 74 58 
239 8 232 105 90 77 
239 8 233 104 90 77 
218 544 368 95 112 145 
230 411 282 73 85 100 
277 577 358 171 174 186 
215 316 254 118 110 106 
207 619 346 51 93 123 
221 432 354 139 121 102 
225 677 370 106 144 179 
209 849 222 169 127 91 
250 511 384 110 129 154 
262 903 262 114 86 58 
331 439 385 127 123 150 
204 166 271 35 51 74 
222 661 362 80 99 144 
287 585 342 172 175 187 
356 292 353 118 121 129 
228 253 269 54 88 117 
238 8 238 99 87 77 
271 20 244 152 114 91 
293 423 393 162 79 8 
228 826 293 113 123 137 
170 791 352 165 185 211 
226 500 188 98 120 144 
270 901 274 109 82 54 
226 11 240 96 84 75 
187 486 304 105 120 136 
357 500 339 164 170 184 
319 624 184 62 58 58 
180 848 247 187 172 163 
305 163 292 93 75 59 
324 697 271 157 86 13 
257 672 190 82 98 134 
348 161 320 99 92 91 
353 288 357 122 113 119 
244 631 171 154 160 173 
366 702 145 69 92 117 
363 220 292 70 48 46 
309 370 386 176 153 132 
179 956 280 116 96 79 
211 888 285 154 117 89 
231 816 300 191 174 163 
198 635 323 118 121 130 
225 779 187 134 113 100 
372 165 239 120 68 0 
304 181 334 94 84 77 
218 345 253 145 73 96 
155 706 340 106 128 151 
285 222 350 121 99 79 
241 1001 305 117 92 63 
181 740 386 143 166 203 
265 988 281 89 66 48 
366 177 307 92 67 52 
401 707 162 131 139 187 
237 590 166 78 137 179 
316 697 280 123 49 31 
224 14 246 108 97 89 
373 349 235 167 150 138 
369 283 342 114 114 124 
231 708 347 147 155 171 
225 14 247 111 100 93 
246 1011 255 168 134 105 
272 435 373 168 145 122 
245 338 365 160 158 162 
244 926 232 69 54 39 
236 911 338 112 79 70 
238 976 336 103 88 76 
335 190 397 53 76 99 
305 462 175 106 125 145 
216 380 298 147 148 155 
370 244 338 112 28 54 
232 645 202 150 158 183 
154 755 378 121 129 188 
291 810 244 204 150 125 
313 330 384 114 129 147 
151 703 386 62 85 123 
112 680 379 135 102 77 
223 322 207 173 174 184 
228 357 287 127 98 63 
345 617 204 117 109 104 
328 683 260 133 116 100 
229 10 242 99 87 78 
265 146 276 95 71 57 
219 688 370 142 159 181 
358 243 271 85 73 74 
186 497 337 75 99 128 
318 553 229 138 134 138 
208 902 314 151 110 85 
241 229 284 87 43 49 
197 686 383 44 61 120 
230 10 242 99 87 79 
225 938 217 108 83 55 
309 146 205 152 78 11 
231 10 243 100 89 80 
350 165 368 153 68 5 
314 396 203 181 152 120 
229 11 244 100 88 80 
172 752 254 56 79 101 
359 421 366 75 101 128 
229 11 246 102 90 81 
154 699 346 25 67 128 
324 750 268 208 179 152 
375 364 346 109 124 142 
218 141 274 128 50 10 
200 645 321 107 110 117 
299 165 196 126 111 100 
313 683 292 131 61 20 
321 780 208 155 139 126 
361 409 279 87 96 108 
190 598 284 228 205 190 
356 783 163 215 191 173 
352 494 284 102 123 166 
171 738 276 118 115 117 
317 166 186 172 75 0 
282 164 225 90 87 87 
349 248 275 94 90 89 
260 592 365 93 112 148 
363 472 347 179 181 191 
226 15 248 118 107 100 
219 390 234 41 78 121 
248 609 164 174 185 205 
201 755 350 133 156 182 
323 614 222 98 93 92 
362 400 279 102 108 118 
297 390 377 140 35 75 
311 656 203 48 58 70 
335 174 390 140 62 6 
333 805 191 190 144 110 
229 12 248 106 94 85 
200 950 318 89 73 59 
229 13 248 108 96 88 
262 638 358 163 118 109 
362 392 275 152 75 15 
276 358 196 116 132 154 
377 698 116 147 158 180 
271 210 214 109 83 58 
234 126 308 84 72 60 
360 220 341 116 53 50 
193 954 302 77 59 54 
283 182 263 101 83 67 
384 744 130 190 208 231 
400 681 133 85 110 131 
301 654 302 74 110 140 
273 965 258 118 91 65 
270 158 313 84 69 54 
254 462 174 101 127 168 
102 727 370 149 173 204 
288 346 366 141 49 71 
316 501 375 63 86 152 
273 326 195 92 68 65 
202 680 254 70 93 117 
164 747 303 73 95 119 
195 692 259 118 117 119 
363 638 222 71 77 85 
237 126 269 104 92 82 
321 772 143 94 97 103 
233 916 341 77 72 69 
177 538 275 93 107 126 
310 473 193 154 157 167 
345 624 226 147 105 89 
247 680 198 89 112 137 
206 910 250 88 71 58 
315 664 299 139 96 69 
307 162 203 94 79 68 
231 245 348 35 58 86 
306 158 230 75 59 53 
281 751 302 148 119 104 
313 825 202 205 152 119 
235 9 240 98 86 77 
357 453 252 22 73 144 
229 337 299 138 137 142 
341 165 229 107 53 18 
158 790 353 190 204 227 
243 613 177 155 168 186 
236 612 202 162 169 180 
340 160 214 115 56 16 
258 583 374 163 178 203 
345 515 288 150 162 181 
336 628 180 81 63 57 
299 702 163 58 78 96 
198 707 249 102 102 105 
285 790 278 198 145 117 
