ply
format ascii 1.0
comment Created by CloudCompare v2.11.1 (Anoia)
comment Created 2/28/22 9:41 PM
obj_info Generated by CloudCompare!
element vertex 2009
property float x
property float y
property float z
property uchar red
property uchar green
property uchar blue
end_header
313 160 306 91 82 79 
292 188 351 105 76 35 
355 777 198 162 131 93 
214 885 318 155 115 90 
277 396 195 68 89 115 
320 615 293 165 159 162 
109 758 343 188 187 207 
238 828 286 177 121 102 
199 613 348 69 107 136 
236 1018 272 107 82 63 
313 664 302 124 74 69 
232 938 217 90 69 53 
223 177 205 114 101 93 
127 670 329 79 72 68 
369 315 292 115 108 105 
372 333 304 122 88 110 
296 662 313 62 64 66 
185 960 275 112 90 74 
221 183 203 134 67 0 
336 264 199 125 99 109 
326 626 201 70 68 68 
170 667 350 41 83 116 
231 1017 269 96 75 57 
331 641 266 138 88 80 
252 535 176 87 111 139 
332 221 400 152 68 77 
273 537 184 164 168 181 
269 273 357 151 86 95 
368 449 278 88 113 167 
291 819 239 203 149 122 
238 661 213 62 100 132 
140 658 339 108 91 75 
223 180 204 113 97 81 
236 495 369 66 92 130 
258 639 164 146 108 122 
262 90 311 88 73 57 
231 934 346 178 137 114 
376 711 158 95 105 119 
190 944 262 134 107 81 
329 488 228 66 98 126 
231 646 365 188 125 122 
291 737 143 108 39 30 
210 618 246 118 134 154 
310 488 181 125 148 199 
298 841 200 252 190 160 
235 285 359 158 154 157 
257 465 376 118 110 108 
293 223 211 78 109 134 
175 537 319 125 133 148 
329 165 368 110 80 58 
287 296 362 71 105 135 
312 543 353 87 105 143 
361 635 184 93 88 85 
226 719 202 115 109 106 
252 867 291 112 86 53 
277 663 326 74 117 150 
270 950 247 67 54 46 
287 546 366 186 194 209 
219 189 203 138 50 8 
353 308 374 112 134 158 
321 352 399 156 147 143 
226 814 198 176 155 138 
321 372 409 181 156 132 
332 552 304 131 159 187 
260 228 210 89 49 48 
194 683 291 52 71 88 
329 526 351 121 139 161 
335 537 338 113 130 175 
404 686 131 141 148 162 
348 794 163 200 172 146 
339 658 229 143 175 207 
266 779 162 112 104 101 
341 186 187 113 47 31 
327 289 400 79 119 151 
218 188 204 138 53 4 
281 947 267 78 61 52 
371 658 143 147 151 161 
279 166 310 77 68 62 
113 691 368 146 106 83 
234 487 195 92 108 138 
290 368 207 102 104 111 
198 929 264 65 53 46 
225 435 232 95 113 137 
238 720 193 105 126 148 
303 178 228 39 54 69 
364 400 362 77 120 154 
240 131 264 106 93 83 
215 594 367 95 133 167 
292 675 322 78 71 72 
252 369 360 127 76 100 
173 523 279 99 112 128 
350 166 343 116 61 43 
240 472 182 144 149 159 
155 675 359 102 73 71 
355 410 255 178 67 5 
233 880 216 142 117 96 
353 316 223 86 99 115 
201 526 360 170 169 177 
312 460 212 50 81 107 
221 768 197 140 18 41 
365 434 288 92 109 154 
333 180 261 85 52 46 
224 351 324 68 93 113 
131 789 335 151 162 183 
221 191 202 139 60 0 
208 679 240 78 109 136 
196 719 242 110 111 116 
300 168 200 132 115 99 
248 293 358 103 46 60 
322 411 410 160 146 139 
359 628 203 110 101 95 
307 346 381 130 36 66 
255 867 223 163 114 85 
292 540 364 117 134 190 
234 639 223 160 156 160 
387 647 194 103 86 69 
369 282 240 77 103 126 
327 695 221 77 102 134 
384 267 325 113 113 118 
189 530 253 96 102 111 
289 356 203 123 136 154 
226 903 226 133 95 74 
225 656 354 116 120 139 
217 362 313 142 141 145 
349 652 159 72 114 146 
208 178 210 114 100 89 
248 440 371 163 69 6 
195 629 294 127 56 82 
198 616 264 160 159 167 
224 695 346 80 104 170 
237 497 370 67 97 139 
332 499 235 106 123 142 
307 392 404 184 161 141 
92 738 344 155 156 197 
222 664 235 126 109 102 
303 601 320 123 142 190 
273 397 182 62 92 117 
311 762 284 175 163 156 
238 936 347 183 142 119 
246 886 334 164 128 105 
208 180 210 127 102 62 
226 291 357 121 132 147 
195 820 314 75 77 92 
229 392 224 95 119 145 
414 703 183 140 158 193 
272 24 291 177 151 140 
368 322 345 152 154 163 
178 847 244 184 150 114 
296 723 152 78 63 52 
351 346 362 152 151 158 
288 143 263 108 66 26 
309 540 194 121 142 178 
318 292 383 73 111 142 
382 225 327 107 37 16 
211 181 208 133 105 71 
226 456 267 117 118 123 
295 755 145 151 70 75 
224 739 347 159 177 199 
347 164 397 128 80 6 
364 421 303 47 90 144 
303 470 180 188 190 210 
254 481 385 73 105 151 
185 626 323 61 106 140 
376 371 271 181 154 128 
230 424 216 145 145 153 
349 461 364 182 178 183 
368 374 307 136 139 148 
237 681 340 179 174 177 
371 215 337 74 47 50 
117 786 322 182 190 217 
371 311 260 89 119 146 
250 958 235 86 66 52 
352 152 219 120 74 32 
217 729 214 117 115 119 
231 458 216 109 121 141 
209 186 210 146 59 1 
296 424 405 149 131 112 
313 226 372 66 52 66 
263 538 173 99 122 160 
208 887 253 171 130 99 
256 662 340 81 134 176 
176 540 322 101 117 140 
275 235 356 72 105 132 
297 425 196 32 62 95 
138 809 325 147 172 200 
323 181 298 90 67 50 
167 693 339 30 80 129 
344 747 199 98 92 102 
248 903 341 181 134 119 
261 570 184 143 146 157 
313 704 168 37 83 116 
314 429 214 47 77 102 
182 749 241 66 80 94 
351 265 386 147 137 134 
338 159 396 112 88 68 
202 735 350 129 165 199 
340 176 187 131 56 33 
237 210 271 36 43 62 
239 879 202 115 94 78 
362 312 231 125 127 147 
236 628 213 177 174 181 
200 447 295 135 136 142 
295 394 387 155 118 93 
104 669 356 108 88 66 
240 209 280 44 41 43 
285 324 199 113 100 94 
223 367 356 131 144 161 
216 496 251 63 83 102 
181 724 380 156 171 203 
260 33 295 143 123 111 
291 154 257 97 73 61 
208 190 212 156 70 3 
194 772 335 66 73 127 
196 675 371 121 136 157 
190 553 242 130 135 149 
212 190 208 151 60 2 
346 233 406 103 99 122 
315 337 387 111 120 133 
137 802 328 167 188 213 
235 1007 245 149 105 75 
245 810 181 104 107 114 
381 209 242 82 127 163 
351 290 375 114 96 88 
344 477 358 120 126 179 
203 167 230 96 82 72 
372 201 314 59 47 52 
219 315 243 172 124 61 
271 508 175 103 128 171 
176 942 285 114 95 79 
160 700 378 114 125 143 
98 738 352 135 146 190 
224 336 361 83 121 152 
360 241 211 107 59 69 
225 330 316 101 121 142 
206 160 225 112 90 65 
318 176 236 65 58 63 
326 269 197 119 74 82 
312 387 407 165 142 120 
323 581 311 134 156 183 
286 359 205 85 95 108 
239 286 359 153 151 154 
364 174 313 101 69 49 
206 162 225 113 91 67 
232 425 274 94 104 118 
232 877 220 133 104 78 
249 628 366 134 96 88 
196 654 362 51 53 84 
224 270 206 147 4 21 
272 982 281 119 98 79 
226 311 301 70 112 146 
227 337 220 159 138 118 
230 718 192 82 116 155 
296 205 276 83 76 73 
213 234 325 51 53 80 
201 729 233 119 118 120 
307 403 408 174 68 9 
253 969 244 98 65 43 
353 209 359 106 50 47 
230 248 292 94 52 64 
296 261 211 140 109 73 
335 555 281 174 177 188 
256 738 344 84 136 175 
354 652 154 90 114 138 
226 417 226 63 87 129 
91 686 317 85 96 110 
296 684 313 158 139 126 
199 611 350 81 111 137 
350 469 356 135 153 175 
355 484 270 102 123 175 
241 164 280 88 61 69 
81 717 318 118 127 162 
262 940 342 176 132 105 
352 362 382 160 157 162 
330 680 267 108 96 84 
205 165 226 109 89 68 
177 557 323 98 116 146 
356 399 251 181 133 66 
209 615 360 94 116 137 
206 674 249 72 101 125 
198 501 267 112 113 119 
205 167 224 95 81 67 
377 380 272 182 156 130 
82 698 317 105 117 135 
252 299 358 104 51 62 
283 445 400 140 27 79 
345 329 208 155 148 145 
297 200 282 83 78 75 
204 165 228 105 89 75 
218 969 328 102 81 69 
167 653 343 18 56 105 
264 96 330 104 85 66 
293 696 191 49 59 68 
273 895 280 130 100 71 
204 166 228 96 80 63 
168 733 300 83 115 154 
204 167 228 86 71 58 
214 990 288 108 86 66 
146 709 376 88 105 136 
422 714 171 128 152 192 
372 400 330 101 124 150 
219 105 324 142 106 85 
411 668 169 90 91 100 
327 706 274 151 67 29 
238 105 338 131 98 80 
329 404 407 147 127 107 
253 262 198 97 92 97 
199 574 239 210 199 197 
231 206 266 79 58 78 
267 80 320 91 74 57 
401 752 169 124 90 103 
235 639 219 147 148 156 
155 695 372 136 140 149 
357 280 364 128 125 129 
118 671 368 130 100 72 
269 154 290 81 68 56 
220 129 272 101 87 78 
320 614 293 158 161 172 
327 553 219 121 131 146 
311 507 187 204 203 211 
342 303 204 145 145 151 
146 774 272 91 101 111 
241 328 282 108 97 89 
180 779 339 88 86 133 
82 681 345 109 87 62 
203 164 236 89 75 61 
376 302 309 149 147 151 
203 165 236 87 73 58 
300 436 190 111 121 133 
231 706 190 69 108 139 
209 918 236 92 74 61 
312 794 236 196 140 110 
203 164 239 87 73 59 
262 581 194 120 134 154 
350 250 377 56 66 102 
227 792 192 100 98 101 
342 520 267 39 80 147 
265 536 388 95 119 171 
246 320 189 103 112 124 
323 168 377 112 92 76 
189 551 244 127 137 154 
202 167 239 111 99 89 
363 646 151 54 98 131 
379 335 250 139 27 69 
179 566 328 146 150 161 
223 149 316 104 77 40 
323 467 194 77 111 150 
297 754 295 144 126 110 
282 961 268 110 87 69 
204 163 232 109 91 73 
343 497 256 53 88 128 
358 355 352 159 135 108 
188 678 339 59 95 165 
209 899 313 155 114 87 
253 131 272 104 93 85 
201 912 302 158 118 91 
92 725 306 113 125 146 
163 818 247 105 56 68 
337 183 270 87 46 34 
95 682 360 129 98 71 
191 626 326 26 57 78 
235 269 357 101 83 91 
216 376 328 133 134 140 
204 682 249 68 97 122 
200 932 259 67 54 45 
222 694 229 70 69 84 
355 201 358 101 42 49 
221 301 325 122 132 147 
359 286 221 183 180 184 
372 305 276 84 128 163 
249 968 242 114 82 62 
265 439 178 117 129 155 
237 829 190 145 120 127 
321 834 196 233 167 133 
377 325 243 134 28 60 
370 408 284 152 127 99 
304 143 219 164 78 2 
191 576 350 97 116 140 
338 529 340 102 114 157 
171 542 283 133 138 151 
257 543 385 117 139 172 
372 348 247 197 166 134 
218 283 203 93 106 120 
370 392 354 100 120 149 
247 133 260 105 91 80 
203 168 227 87 77 68 
340 656 165 91 114 157 
263 803 170 169 140 109 
171 553 282 192 184 183 
266 636 342 122 96 116 
203 171 225 113 101 92 
199 843 225 143 133 129 
204 641 259 116 130 149 
373 172 339 92 41 56 
203 171 227 102 92 86 
240 571 194 163 157 159 
374 265 258 73 103 128 
206 440 349 88 110 132 
287 727 153 132 111 117 
242 396 195 113 138 165 
271 167 319 78 67 58 
265 360 182 72 110 146 
309 200 282 76 71 68 
353 191 366 48 44 57 
352 783 158 151 125 109 
235 767 337 186 94 95 
288 151 255 98 74 63 
239 625 206 96 118 141 
189 657 365 59 45 58 
198 499 269 111 113 118 
362 232 235 79 92 107 
231 694 210 125 127 134 
283 719 318 144 84 76 
216 685 371 128 154 187 
225 986 243 109 84 54 
264 95 328 100 82 64 
375 230 268 93 57 66 
245 769 178 120 111 105 
270 383 180 51 88 121 
326 191 384 100 86 99 
294 489 404 145 159 182 
256 997 285 109 84 64 
210 393 304 85 103 123 
336 627 269 186 120 113 
305 205 368 110 79 68 
212 717 352 126 140 159 
170 517 317 72 99 141 
345 380 367 130 135 146 
300 211 365 90 71 69 
384 155 240 109 90 76 
326 575 215 117 134 155 
338 404 398 169 152 140 
330 232 193 69 41 76 
287 412 388 176 152 129 
282 955 271 94 76 59 
205 695 376 128 146 168 
207 719 234 107 106 108 
311 788 247 192 142 108 
364 433 288 87 106 150 
363 258 295 81 80 81 
261 460 383 129 115 102 
325 625 211 78 72 69 
191 584 348 163 157 159 
281 754 141 130 27 58 
83 680 331 92 84 78 
335 727 224 99 110 123 
332 141 204 130 113 100 
268 741 175 75 77 85 
345 798 165 220 180 122 
163 848 272 173 146 122 
351 410 375 65 102 132 
256 864 265 159 117 86 
165 764 249 81 91 104 
324 178 299 93 68 52 
365 642 239 114 144 194 
246 901 341 184 138 120 
259 626 205 50 85 110 
221 1007 244 123 88 60 
275 796 158 174 140 95 
342 628 251 146 97 93 
320 807 167 201 186 177 
239 120 308 84 70 57 
258 893 253 146 110 81 
314 706 164 100 106 117 
231 428 257 61 87 126 
391 155 243 119 106 96 
311 433 192 76 103 129 
380 336 326 136 108 129 
202 169 232 111 100 91 
353 256 286 102 97 95 
335 529 252 105 121 144 
366 218 289 76 43 46 
283 934 298 84 66 45 
246 898 341 183 137 120 
245 659 350 71 66 99 
244 570 173 107 141 173 
340 199 187 108 70 92 
233 427 270 84 100 117 
232 642 369 191 137 129 
223 651 358 122 89 96 
321 436 408 108 135 164 
232 174 341 147 73 8 
206 671 361 73 99 133 
296 916 292 145 114 89 
219 886 324 147 107 84 
241 345 284 134 98 59 
317 401 411 179 70 10 
127 773 337 137 142 181 
201 170 236 128 116 103 
342 407 239 164 139 112 
337 618 220 104 95 87 
222 753 196 145 31 43 
353 490 324 94 119 150 
323 532 210 115 131 150 
398 660 161 89 91 100 
269 975 313 86 66 56 
180 557 333 118 125 138 
178 548 262 100 121 147 
270 438 177 121 126 179 
126 677 371 163 117 92 
369 410 349 79 113 147 
350 709 191 152 58 72 
371 160 335 109 81 64 
222 291 354 94 116 138 
322 712 154 62 80 104 
355 164 311 100 76 62 
341 639 167 65 98 123 
257 87 335 107 89 71 
286 460 174 142 150 175 
188 679 335 61 96 164 
202 172 233 110 99 89 
167 745 273 72 81 92 
198 906 288 106 74 39 
253 632 182 105 131 157 
210 895 289 138 104 79 
191 806 326 87 108 127 
216 756 205 108 93 101 
317 447 194 59 95 134 
78 710 341 173 122 103 
321 476 217 79 101 125 
201 173 236 124 111 98 
244 436 188 94 117 141 
134 681 331 79 88 113 
317 452 407 123 133 163 
290 698 313 219 159 64 
195 768 224 93 99 109 
364 635 194 106 96 89 
319 166 193 136 97 60 
343 525 285 69 91 142 
194 465 302 72 95 116 
371 423 266 126 103 76 
181 710 304 58 83 107 
246 564 379 183 187 198 
330 504 357 163 164 173 
240 905 231 127 105 85 
319 347 394 169 150 133 
202 834 218 169 152 139 
220 845 213 178 136 98 
395 164 231 178 84 9 
330 609 235 90 88 93 
234 426 212 103 117 136 
382 299 329 93 120 147 
355 311 393 130 124 123 
237 471 203 96 112 133 
304 708 168 43 51 59 
223 860 279 147 109 81 
318 799 223 196 143 108 
326 566 229 93 114 145 
307 184 220 38 47 61 
343 740 147 161 33 20 
224 382 343 102 120 141 
311 367 391 107 102 121 
248 609 178 155 162 175 
425 687 178 172 186 208 
204 163 240 88 73 57 
294 479 404 148 160 178 
337 540 261 166 166 176 
331 190 391 107 106 114 
304 820 171 147 111 80 
338 162 361 138 72 34 
323 571 329 134 139 177 
235 405 262 63 85 129 
354 324 360 91 119 145 
338 452 232 149 137 130 
267 824 266 180 120 99 
250 551 179 121 127 138 
204 916 256 71 57 46 
369 284 345 123 114 120 
239 146 299 116 76 29 
210 706 236 91 51 39 
357 179 351 50 57 96 
158 759 362 148 164 201 
335 183 274 81 50 42 
373 160 330 111 81 62 
335 817 202 201 144 118 
425 688 178 156 175 202 
350 369 395 106 133 160 
374 365 270 177 148 118 
303 443 206 78 95 112 
373 346 314 118 131 146 
306 355 208 136 139 147 
208 872 238 186 137 102 
228 259 354 129 102 92 
260 990 297 105 79 59 
370 677 161 110 135 179 
255 983 256 138 107 78 
332 740 265 174 149 136 
274 804 278 200 141 115 
351 291 399 97 118 140 
231 855 211 194 140 109 
331 754 219 162 130 89 
330 735 275 108 94 81 
324 531 195 80 107 157 
370 215 271 64 46 51 
206 166 244 86 74 63 
209 672 361 71 91 127 
258 918 239 88 69 52 
398 750 150 202 211 228 
338 627 266 176 111 107 
301 344 205 141 137 137 
228 495 207 76 98 121 
182 559 336 121 134 152 
360 741 190 72 72 77 
256 779 172 112 100 92 
311 718 151 115 116 121 
205 166 255 85 76 74 
301 181 224 39 49 62 
265 283 198 113 32 44 
233 442 364 124 105 81 
218 295 348 131 136 146 
377 388 259 194 164 135 
353 218 355 71 50 70 
174 852 281 157 135 114 
295 250 212 75 107 133 
256 978 332 114 94 77 
356 271 363 141 81 5 
375 312 341 126 138 155 
120 701 317 115 129 147 
84 725 339 111 140 185 
237 354 272 136 62 86 
202 168 241 121 108 97 
331 572 284 65 85 123 
259 34 330 104 83 60 
247 657 348 121 76 89 
329 749 230 181 146 105 
196 995 269 129 95 67 
349 740 193 86 91 99 
288 942 298 106 87 69 
203 169 243 116 105 94 
257 876 253 155 118 86 
330 549 247 117 126 139 
337 161 216 112 65 41 
347 256 207 117 42 72 
202 170 242 127 113 101 
250 517 184 52 88 132 
331 658 272 79 68 61 
208 619 249 99 123 151 
396 679 207 95 123 151 
225 359 332 137 133 135 
210 232 257 126 42 71 
351 343 402 145 152 165 
266 284 198 122 32 39 
202 173 241 114 100 90 
330 415 404 156 112 117 
234 488 192 95 116 142 
401 728 136 136 158 196 
365 197 229 84 65 89 
268 357 186 81 111 140 
265 91 317 86 73 60 
172 819 323 137 108 79 
295 311 369 119 132 149 
196 678 294 50 60 77 
328 278 197 135 120 112 
202 174 243 122 109 96 
257 708 341 132 158 187 
271 666 202 59 89 114 
321 257 382 70 72 92 
105 685 365 151 108 84 
383 675 208 88 38 102 
236 605 370 103 136 166 
115 708 310 86 103 121 
278 540 390 199 198 204 
338 663 178 123 139 160 
390 647 212 76 68 61 
316 327 209 150 149 154 
308 831 213 211 154 124 
86 677 336 85 77 70 
346 672 186 50 69 86 
225 320 300 114 93 97 
202 174 246 104 94 83 
281 756 299 151 133 121 
348 226 406 92 94 114 
383 242 336 102 99 106 
117 718 364 122 132 165 
203 174 247 93 80 65 
259 999 264 119 92 68 
352 286 373 116 98 80 
229 404 283 50 77 100 
185 697 329 78 114 185 
316 608 300 119 145 186 
348 379 388 114 124 138 
213 452 282 96 105 117 
270 355 362 139 10 68 
337 448 379 140 149 182 
291 302 207 141 136 137 
230 200 345 97 88 92 
250 186 345 159 77 9 
178 775 342 81 121 172 
296 167 206 119 108 100 
249 558 180 122 126 136 
244 920 342 119 96 72 
234 195 296 54 42 61 
286 409 383 173 150 127 
313 486 205 163 164 172 
207 168 246 71 62 51 
260 677 332 50 49 54 
165 530 308 108 124 143 
350 652 157 74 113 147 
248 450 184 86 109 132 
331 143 200 152 120 96 
235 246 288 77 78 84 
327 422 219 142 68 0 
378 181 252 49 69 87 
329 328 203 160 160 168 
218 418 360 158 79 20 
210 709 366 111 132 177 
261 126 326 87 70 52 
239 585 375 63 73 95 
295 796 266 204 150 118 
97 735 353 142 145 188 
150 792 263 122 127 141 
218 473 364 132 145 168 
331 485 231 56 92 126 
339 543 269 123 134 152 
229 416 253 51 80 133 
137 821 282 112 83 104 
221 384 357 173 149 125 
204 720 360 125 151 189 
378 198 257 118 81 69 
247 136 257 103 85 72 
313 447 188 76 110 159 
299 629 209 66 64 64 
207 763 213 113 116 128 
224 303 320 134 132 137 
281 365 369 165 143 122 
116 679 323 107 118 133 
201 174 250 82 70 67 
224 542 198 96 119 157 
332 421 392 106 118 151 
143 820 273 154 161 171 
390 752 178 158 61 67 
253 648 200 75 94 155 
113 728 363 102 113 170 
357 301 226 184 161 140 
381 312 322 146 134 126 
203 643 276 131 124 123 
226 417 231 97 112 131 
202 174 248 92 79 66 
302 552 353 134 147 167 
326 171 189 149 70 0 
151 666 371 170 117 93 
354 615 235 139 113 89 
227 442 225 89 115 143 
202 174 251 84 71 69 
349 183 375 79 73 73 
268 610 207 64 79 95 
319 489 198 125 142 162 
319 556 346 169 174 189 
190 934 302 98 81 67 
225 729 345 130 157 186 
289 132 278 95 76 60 
222 330 225 150 86 28 
266 77 314 88 72 55 
391 755 177 167 88 101 
342 200 188 106 68 96 
374 632 207 107 92 77 
335 766 210 160 144 132 
218 287 324 143 148 159 
243 428 193 96 122 152 
275 11 291 143 108 100 
381 312 330 124 135 151 
243 313 277 94 104 117 
230 365 224 76 97 131 
364 425 254 162 144 132 
171 783 241 139 117 117 
243 629 194 85 123 165 
283 842 208 216 159 135 
245 879 331 102 44 43 
359 327 236 190 160 130 
256 812 285 178 121 98 
222 682 233 83 114 139 
182 566 337 117 130 149 
205 831 216 160 148 143 
215 266 316 159 152 153 
275 361 195 55 84 107 
302 764 153 125 112 103 
225 923 227 95 68 42 
246 1002 247 144 117 89 
145 838 291 188 28 63 
300 684 304 207 149 68 
309 180 303 97 82 70 
206 170 251 77 72 75 
293 543 361 143 154 185 
210 854 224 187 138 108 
249 730 345 126 147 170 
282 453 401 70 99 151 
416 695 185 102 127 189 
225 934 214 102 87 74 
296 597 204 159 152 154 
317 692 286 120 81 48 
368 325 345 152 152 158 
217 258 207 107 47 57 
215 372 320 119 120 125 
271 878 291 128 100 71 
135 733 302 57 83 105 
422 678 162 70 82 111 
330 426 391 103 112 148 
203 432 298 87 103 123 
409 697 132 87 108 132 
320 681 242 74 130 169 
187 481 307 92 107 124 
222 195 308 86 43 49 
194 849 231 125 126 134 
234 666 222 81 111 138 
310 630 298 158 112 98 
276 837 184 248 183 144 
242 306 198 94 94 98 
209 168 267 50 65 84 
246 829 279 172 110 88 
212 988 294 73 52 39 
245 517 387 88 114 171 
198 187 239 138 63 0 
368 426 333 87 112 154 
229 127 331 111 90 68 
191 964 284 104 81 65 
292 245 361 130 72 73 
283 958 284 69 54 42 
294 383 379 149 125 104 
293 190 359 120 60 11 
145 821 321 131 143 158 
199 189 238 141 61 3 
305 818 170 148 111 82 
320 286 202 112 64 68 
269 632 339 174 116 119 
357 625 207 112 102 94 
213 431 353 151 132 113 
214 933 222 90 77 66 
243 828 186 171 153 142 
181 518 270 78 90 104 
246 631 201 111 126 152 
280 166 290 81 65 48 
113 737 296 99 106 120 
388 194 246 144 127 122 
170 537 286 101 120 146 
273 242 211 118 74 60 
238 425 363 161 90 9 
214 795 324 157 153 159 
347 506 342 156 161 175 
222 273 206 138 48 30 
251 456 372 93 79 64 
367 411 254 183 82 8 
189 478 304 66 93 118 
368 229 305 69 40 44 
398 731 135 131 157 199 
393 729 134 88 121 152 
325 180 210 66 48 42 
357 168 244 103 49 27 
288 133 277 95 74 56 
208 499 259 111 113 117 
315 614 297 136 155 179 
127 708 309 71 94 117 
376 385 274 154 146 143 
262 856 219 211 156 121 
284 933 275 141 102 78 
302 780 275 204 152 118 
236 889 218 109 97 88 
225 373 346 112 126 144 
241 392 205 61 86 144 
275 966 310 134 104 88 
233 555 378 115 131 165 
219 920 335 142 116 90 
329 748 243 157 125 87 
348 376 377 139 142 152 
237 702 339 145 152 164 
220 307 255 117 128 144 
260 167 228 98 82 66 
194 466 302 101 113 128 
284 830 237 191 141 116 
254 484 387 71 103 150 
177 574 324 107 125 145 
205 544 363 122 135 159 
167 787 243 132 61 61 
125 727 300 79 93 109 
205 973 311 89 72 61 
279 596 334 121 138 170 
260 588 356 62 129 176 
351 505 287 110 126 166 
184 479 296 81 99 120 
376 696 165 55 85 114 
278 843 217 209 156 125 
380 334 331 161 123 72 
188 758 348 148 171 198 
332 663 246 138 176 212 
121 745 354 214 205 205 
370 314 262 95 123 149 
281 214 352 114 68 63 
177 558 325 108 123 142 
365 410 307 83 119 153 
289 743 298 138 122 116 
360 795 182 221 180 137 
203 181 230 137 60 0 
372 226 339 94 40 30 
309 188 200 124 108 100 
254 594 186 99 105 116 
202 605 357 31 75 116 
176 832 237 100 92 92 
222 361 239 122 133 148 
201 702 377 82 108 157 
266 95 319 90 75 60 
349 382 232 169 36 77 
339 449 375 114 125 169 
323 202 379 87 53 60 
309 828 214 201 146 116 
274 322 360 145 146 153 
277 731 158 122 126 135 
260 464 382 134 118 103 
201 633 281 73 120 154 
169 640 374 124 99 79 
403 661 180 76 71 67 
267 973 322 100 81 65 
283 165 246 99 86 75 
321 432 219 75 83 93 
323 240 196 94 59 73 
301 725 150 114 114 118 
219 408 353 149 74 15 
226 141 314 112 101 92 
279 938 317 164 124 94 
240 163 276 74 59 87 
249 808 177 120 126 137 
352 144 327 120 76 14 
202 179 234 139 64 0 
233 472 369 94 92 142 
277 436 174 125 142 179 
358 461 295 113 131 158 
222 368 361 134 147 165 
215 588 368 109 146 180 
362 307 350 81 116 144 
334 666 194 53 73 91 
316 744 289 155 135 116 
241 158 296 98 92 87 
257 485 391 93 121 153 
266 837 253 185 126 104 
281 449 179 104 118 142 
345 200 190 130 70 68 
333 428 222 161 75 0 
329 725 243 104 90 84 
357 290 222 128 148 171 
244 971 241 106 72 51 
258 670 332 65 84 103 
354 191 210 43 48 59 
304 343 379 136 22 64 
335 727 226 100 106 118 
133 744 294 32 70 97 
284 169 222 105 98 96 
301 841 193 240 172 135 
312 582 330 155 163 194 
239 898 227 112 94 75 
270 429 374 156 135 115 
222 877 320 141 109 82 
356 156 228 113 68 26 
394 754 173 102 54 105 
207 529 222 104 111 122 
371 256 303 70 92 111 
170 635 351 113 100 91 
254 913 236 85 65 48 
197 604 257 117 130 151 
202 182 234 138 64 0 
297 898 312 154 127 100 
208 660 361 149 154 173 
219 925 338 149 121 101 
159 741 314 66 111 166 
201 181 237 140 59 6 
326 713 282 140 88 64 
290 449 404 126 143 167 
318 452 191 66 102 138 
274 162 304 80 67 56 
384 252 327 80 112 138 
267 395 369 133 17 60 
234 886 214 141 109 86 
228 997 303 115 91 65 
339 176 415 165 71 7 
325 485 374 119 137 161 
296 390 384 141 30 70 
394 660 143 124 129 141 
201 182 238 138 62 0 
201 182 239 139 61 0 
304 179 261 64 61 63 
307 464 208 45 75 96 
357 226 223 124 85 58 
235 879 328 112 81 60 
332 162 386 126 56 0 
159 834 255 62 63 70 
326 455 394 69 95 148 
228 253 354 69 90 113 
284 718 316 186 150 118 
334 564 279 90 106 130 
236 343 213 164 162 168 
340 401 387 144 146 158 
232 367 287 128 88 40 
230 270 202 167 33 36 
203 630 258 112 139 168 
334 752 150 165 30 49 
301 528 366 135 153 182 
193 455 343 56 88 128 
266 49 314 93 75 54 
113 781 321 154 157 197 
281 22 299 149 111 91 
232 160 270 31 59 97 
124 808 308 185 196 214 
307 814 169 112 150 183 
291 162 257 96 74 60 
189 649 336 38 63 98 
323 515 191 140 155 185 
203 185 229 133 56 9 
273 696 181 84 126 164 
330 585 282 34 84 152 
337 537 310 121 131 169 
354 339 394 120 125 143 
300 711 171 77 82 89 
402 664 208 43 98 151 
250 684 198 57 103 139 
188 585 343 127 133 145 
251 910 340 201 149 129 
340 414 237 143 116 86 
202 186 230 127 55 4 
202 186 231 129 59 2 
366 326 289 134 101 58 
133 822 295 134 90 106 
314 488 209 125 129 138 
372 647 152 97 104 115 
262 337 358 120 130 145 
246 137 297 92 83 76 
382 229 263 95 79 105 
301 790 161 176 140 99 
343 629 210 80 73 69 
125 800 287 147 160 183 
208 797 209 176 144 111 
219 154 268 83 43 67 
201 667 309 30 33 40 
326 609 259 106 109 117 
365 702 187 118 144 170 
327 625 214 84 75 68 
425 717 165 152 170 208 
157 819 254 168 136 93 
327 139 306 110 95 84 
280 398 196 34 72 105 
392 713 183 101 128 155 
357 341 240 168 135 95 
272 877 299 142 107 75 
264 157 241 103 85 67 
271 242 211 120 74 58 
300 178 341 79 75 73 
221 705 346 128 134 145 
393 651 211 129 141 157 
374 659 141 135 145 161 
133 809 324 186 208 236 
230 890 331 160 124 97 
236 474 204 118 127 141 
252 130 290 100 90 83 
288 342 199 79 120 154 
327 569 319 116 146 178 
264 9 245 122 106 94 
202 188 230 133 51 4 
365 275 232 77 111 139 
209 562 370 145 154 170 
333 696 167 129 128 134 
338 511 349 129 144 166 
132 731 301 45 80 111 
204 258 245 125 134 149 
209 467 363 128 141 158 
248 340 195 95 130 170 
201 186 234 131 65 0 
364 431 320 86 113 152 
261 454 184 94 114 136 
169 740 274 70 75 83 
208 856 270 159 114 88 
335 516 350 112 128 170 
208 702 238 87 82 88 
331 558 302 68 95 149 
349 496 321 102 126 159 
372 151 340 111 70 23 
205 658 259 138 136 141 
292 622 322 120 138 159 
263 661 164 148 162 183 
314 149 307 116 87 67 
239 677 339 174 176 185 
360 328 237 198 168 136 
191 623 302 95 122 150 
223 646 367 187 128 118 
362 662 148 102 134 176 
327 243 195 37 75 117 
225 138 260 114 76 59 
319 191 213 57 43 39 
156 789 256 138 145 157 
228 709 205 68 96 122 
261 244 353 119 90 89 
216 913 329 176 137 111 
168 563 306 165 161 164 
209 558 371 114 135 165 
212 916 234 83 65 51 
232 132 310 80 67 54 
319 185 227 51 50 59 
202 736 350 142 170 200 
226 322 263 120 66 81 
273 972 306 103 79 66 
276 603 335 118 72 98 
227 432 222 98 112 141 
134 675 329 60 94 119 
98 743 302 103 122 154 
196 612 276 176 172 177 
364 452 332 93 118 156 
149 786 341 187 199 220 
352 662 218 151 179 210 
266 718 184 114 134 155 
369 275 276 81 63 66 
275 178 334 93 85 78 
308 423 410 156 144 138 
279 967 298 113 95 80 
223 155 313 137 60 11 
276 754 305 130 119 117 
380 339 251 141 0 60 
246 691 198 67 100 127 
224 388 246 86 105 142 
222 342 359 108 57 55 
317 320 390 144 146 154 
177 673 348 25 86 138 
346 159 360 149 69 19 
155 840 272 112 101 100 
268 233 211 96 52 52 
309 316 210 164 159 161 
355 311 389 145 140 142 
371 401 350 67 109 151 
354 275 368 147 67 2 
370 761 146 170 29 44 
278 942 321 173 133 106 
328 251 196 72 101 125 
276 830 250 182 130 108 
261 9 236 129 109 94 
309 200 291 78 70 66 
254 801 174 145 121 97 
196 461 298 113 120 132 
400 737 141 131 149 176 
217 291 344 149 91 64 
199 182 243 135 63 0 
273 553 189 123 135 157 
342 212 411 125 80 98 
152 688 341 107 133 161 
307 221 369 78 72 87 
247 65 302 80 66 52 
366 269 242 72 98 121 
227 390 365 201 169 135 
187 671 341 90 117 166 
298 679 314 108 61 43 
394 697 136 145 154 172 
353 652 240 62 91 143 
239 435 207 83 108 137 
246 852 271 161 122 93 
265 888 273 134 102 72 
335 424 383 76 98 129 
368 371 250 156 66 63 
211 807 314 194 179 170 
270 681 172 82 128 168 
217 389 338 129 120 116 
364 642 241 101 133 182 
205 570 228 147 159 177 
200 622 262 161 161 166 
275 311 196 84 108 131 
194 954 302 110 94 80 
183 948 294 98 82 70 
216 702 362 118 134 177 
362 432 312 126 142 163 
235 563 376 165 173 187 
239 160 275 73 58 86 
303 147 293 98 72 36 
191 601 274 204 191 187 
209 721 354 109 141 174 
112 777 293 127 138 176 
211 987 293 68 47 34 
199 176 254 98 41 43 
354 251 357 102 75 89 
363 228 236 95 98 106 
246 371 360 107 124 145 
198 179 252 99 54 52 
328 181 261 77 57 56 
196 1003 274 139 108 83 
170 704 380 143 148 158 
265 299 357 90 137 173 
330 269 407 117 61 84 
345 237 409 111 108 118 
324 310 203 87 111 131 
237 689 338 100 114 149 
329 204 188 126 76 73 
383 747 141 175 182 196 
94 723 359 104 133 177 
281 174 221 131 117 102 
371 319 278 151 152 160 
169 692 369 53 68 115 
256 186 342 137 61 3 
326 195 382 85 66 83 
222 483 366 123 141 162 
215 262 209 142 50 40 
362 155 209 173 68 0 
264 33 301 138 122 111 
310 762 285 141 140 144 
250 748 344 188 71 87 
333 739 219 107 102 104 
203 526 235 106 110 116 
97 694 315 47 85 113 
198 182 248 106 56 22 
359 150 217 149 99 51 
313 775 261 207 156 122 
240 555 189 126 143 165 
371 322 342 147 148 155 
195 756 340 135 147 165 
293 776 150 139 119 102 
392 174 247 150 81 13 
351 774 200 161 135 109 
400 659 177 94 90 91 
267 661 197 111 123 142 
384 280 324 143 142 146 
191 470 306 69 93 115 
287 192 341 111 52 6 
261 132 313 85 73 62 
166 699 337 44 70 129 
238 216 272 82 44 40 
202 434 299 95 110 126 
344 479 355 154 162 178 
264 992 269 94 69 60 
249 343 358 105 130 157 
360 672 166 22 59 110 
237 754 190 119 33 33 
260 642 188 95 119 146 
238 938 215 84 69 59 
270 842 238 199 144 116 
333 517 243 69 105 139 
378 753 187 88 97 111 
218 586 368 98 134 165 
263 391 182 63 94 135 
313 191 199 72 63 88 
351 163 309 99 76 61 
121 763 286 78 98 118 
270 886 316 150 117 86 
355 734 189 85 63 85 
282 780 148 142 128 120 
292 823 230 212 157 129 
362 306 230 107 133 162 
358 276 360 123 124 131 
223 288 299 116 77 92 
377 215 263 113 49 60 
198 186 241 139 61 0 
230 627 377 172 126 117 
184 950 268 94 81 71 
287 390 191 76 105 132 
320 141 304 114 96 81 
395 658 164 88 91 98 
260 137 332 95 77 57 
159 672 347 64 79 103 
290 668 319 82 83 95 
226 139 315 101 90 81 
236 220 290 85 44 29 
239 1001 305 104 75 50 
231 785 323 155 135 130 
324 832 197 230 161 129 
197 185 247 112 54 14 
228 90 306 95 78 60 
192 498 353 106 125 149 
186 581 266 140 149 166 
315 783 161 147 129 115 
211 876 237 182 131 101 
189 494 350 145 148 158 
213 757 209 127 32 30 
311 366 210 92 102 115 
409 690 195 112 137 168 
238 820 186 81 112 138 
380 189 255 52 84 108 
314 651 289 98 79 96 
173 534 316 90 106 144 
308 157 310 77 77 81 
251 625 195 65 100 133 
329 613 269 109 113 121 
191 846 283 171 109 110 
249 871 221 146 111 73 
352 187 288 71 43 41 
317 481 199 158 162 172 
322 170 356 89 71 60 
198 188 240 138 63 0 
360 625 233 139 108 84 
261 574 377 127 158 208 
329 579 298 109 138 177 
194 967 268 152 121 91 
237 353 362 163 162 170 
275 702 168 151 152 160 
241 440 202 113 126 143 
377 171 251 93 90 89 
411 692 190 106 125 182 
288 812 166 196 171 158 
249 810 293 120 112 109 
149 751 351 135 149 180 
218 1008 246 137 107 81 
269 931 252 77 61 51 
182 483 296 122 128 140 
94 682 322 79 98 117 
360 639 242 43 68 91 
196 190 245 109 57 30 
301 236 209 63 95 123 
233 837 198 180 131 93 
300 629 309 150 146 149 
249 997 250 128 104 77 
316 652 203 48 66 82 
261 572 379 178 195 218 
356 288 365 109 116 128 
231 133 277 114 101 88 
196 191 247 106 58 37 
190 640 338 48 60 74 
329 614 268 90 96 105 
280 500 182 125 131 176 
391 165 226 175 83 8 
197 996 266 137 106 81 
230 513 190 132 139 154 
329 712 271 145 56 31 
190 670 327 62 90 133 
392 709 188 111 132 158 
314 724 147 104 48 24 
344 509 315 135 151 174 
196 186 248 105 44 15 
320 189 226 48 47 55 
220 352 311 139 137 140 
215 271 319 114 129 148 
373 329 304 114 111 113 
268 851 211 223 166 132 
180 608 321 149 153 164 
278 509 395 184 185 194 
197 435 337 36 76 127 
284 941 274 76 59 52 
377 381 258 199 169 140 
200 841 284 79 94 118 
222 660 236 86 72 80 
196 184 254 130 53 63 
268 208 219 106 87 66 
254 543 384 143 159 185 
259 872 277 153 119 87 
120 705 370 112 132 156 
378 282 339 121 136 154 
327 500 228 91 108 133 
277 10 301 114 87 73 
378 293 312 147 146 152 
212 590 368 71 114 161 
196 187 254 138 63 66 
85 733 320 129 148 181 
220 333 353 89 127 159 
380 329 252 174 149 124 
196 189 248 110 51 18 
314 382 210 168 140 111 
297 427 196 29 62 94 
327 265 393 95 51 75 
309 589 206 123 130 141 
351 209 197 111 14 52 
189 769 229 116 123 134 
361 459 328 68 98 154 
234 500 369 72 96 132 
191 459 334 142 142 147 
269 239 353 71 91 110 
388 763 155 166 65 59 
335 198 406 43 83 113 
211 962 326 115 93 76 
257 142 256 91 79 70 
174 589 310 171 166 169 
264 664 179 122 145 172 
213 260 317 141 101 108 
255 479 186 104 118 139 
355 170 200 106 80 61 
164 732 321 89 126 172 
261 556 176 183 179 183 
237 226 271 126 23 34 
368 251 298 68 61 74 
368 204 235 136 70 75 
212 413 291 60 91 121 
347 512 287 137 147 168 
333 173 241 92 66 56 
365 407 303 116 135 155 
297 528 370 134 154 186 
230 663 229 72 111 142 
329 170 349 88 63 55 
237 370 215 69 107 137 
365 208 233 118 68 65 
210 895 283 147 111 84 
353 348 225 169 139 106 
256 248 353 118 87 86 
239 339 361 158 157 163 
392 746 179 142 115 112 
229 595 368 100 128 158 
201 178 241 135 64 5 
222 304 325 108 124 143 
239 883 212 170 126 94 
186 596 282 212 193 182 
200 179 242 138 59 0 
224 276 355 144 129 125 
366 239 243 48 78 102 
365 146 333 110 68 24 
233 418 277 64 84 103 
370 747 143 152 165 184 
201 176 245 117 97 72 
245 877 217 162 128 98 
201 177 245 118 86 49 
256 752 177 123 51 52 
211 217 260 86 41 48 
347 178 297 83 50 38 
328 680 265 86 86 89 
258 193 220 129 62 5 
380 762 151 202 145 170 
350 510 332 97 117 163 
200 179 245 123 68 13 
268 497 395 88 113 172 
271 728 177 117 127 140 
226 1008 302 112 71 51 
246 474 181 127 140 158 
292 136 272 102 62 25 
283 206 216 127 80 68 
201 178 246 115 71 38 
229 768 193 147 113 65 
200 180 240 141 62 0 
340 197 414 126 102 111 
407 740 148 187 198 221 
304 737 143 116 124 133 
325 136 308 110 96 83 
307 169 315 77 78 81 
263 612 204 93 94 99 
163 741 305 55 97 155 
196 626 359 72 70 70 
329 446 227 96 86 79 
226 438 245 81 104 135 
265 153 264 107 85 70 
173 761 242 73 81 91 
292 147 271 94 65 45 
341 750 201 173 166 163 
91 710 358 147 104 88 
264 408 181 23 55 105 
255 136 337 105 85 62 
208 437 284 80 100 120 
365 449 343 129 145 167 
309 180 213 59 48 49 
353 336 378 85 127 161 
301 628 207 64 63 67 
359 475 330 90 111 157 
378 203 259 122 86 60 
286 163 257 95 75 59 
325 264 197 103 67 72 
307 793 163 156 127 95 
255 859 262 165 123 92 
220 541 376 87 115 145 
344 652 260 95 121 157 
230 447 263 86 102 118 
259 590 190 111 115 124 
205 955 321 87 69 57 
359 213 211 143 59 59 
351 496 267 100 125 160 
303 768 285 166 164 167 
253 263 198 100 93 100 
379 315 335 125 133 145 
276 822 173 146 109 73 
208 163 242 86 72 57 
247 431 370 161 93 15 
240 448 200 85 102 131 
328 536 202 107 127 149 
354 188 202 33 39 51 
310 175 235 50 51 63 
262 143 276 101 89 80 
189 689 291 59 75 91 
356 473 264 123 145 175 
211 161 243 83 68 50 
330 690 182 77 98 124 
103 702 367 127 91 77 
284 653 322 179 153 149 
220 726 210 90 102 116 
274 162 301 80 67 54 
256 731 344 107 148 183 
344 509 314 116 136 171 
259 993 293 82 63 53 
205 270 220 158 155 157 
181 818 230 141 122 108 
281 926 306 170 124 94 
284 292 206 136 132 133 
363 621 218 107 94 82 
237 115 308 85 70 55 
365 242 242 57 80 101 
259 1005 267 133 104 81 
322 583 316 129 154 182 
307 142 295 111 78 43 
142 646 365 105 88 72 
262 539 173 101 124 166 
325 323 395 147 151 161 
122 803 307 148 169 200 
210 82 310 120 86 63 
224 140 327 109 88 66 
284 245 359 106 80 92 
206 762 338 108 136 162 
208 883 247 183 140 110 
269 928 254 82 66 54 
235 797 311 164 142 123 
183 750 239 86 98 111 
213 519 223 123 124 130 
193 819 316 98 91 99 
362 635 183 100 92 87 
195 960 302 97 81 67 
304 622 305 183 174 175 
356 759 147 141 29 35 
237 217 350 138 69 67 
325 538 351 170 173 185 
224 667 360 88 103 143 
199 830 298 155 114 74 
368 428 339 98 121 155 
209 597 365 102 124 146 
342 191 187 103 78 86 
164 837 317 106 120 140 
155 696 330 39 78 134 
361 193 225 74 88 102 
250 422 186 76 102 135 
342 136 324 110 97 86 
391 722 181 93 123 150 
246 469 370 114 100 86 
335 148 210 116 62 2 
356 478 302 163 170 184 
361 454 324 75 104 156 
370 237 343 96 48 43 
354 665 158 53 142 204 
214 162 245 75 72 73 
265 705 187 72 121 160 
146 751 300 17 51 89 
320 473 377 122 132 168 
320 588 310 140 158 180 
204 146 270 92 108 126 
340 690 178 64 90 131 
300 386 211 119 103 87 
270 759 312 151 104 104 
329 459 388 88 114 174 
213 164 246 72 71 75 
188 591 340 99 122 148 
312 285 375 71 107 136 
289 806 162 186 166 153 
204 923 249 72 59 48 
347 252 398 89 96 111 
189 486 284 107 116 129 
395 159 245 142 127 113 
236 649 220 102 45 39 
257 829 270 179 119 96 
279 363 199 79 73 90 
276 554 378 109 135 186 
196 944 259 99 78 62 
196 436 319 79 100 131 
227 702 342 150 145 147 
210 161 255 80 71 71 
211 160 255 79 70 70 
366 654 228 159 178 216 
313 323 210 151 150 156 
282 682 200 85 95 106 
374 383 337 142 148 161 
146 726 315 55 88 115 
382 712 153 84 97 113 
224 227 263 115 29 45 
211 870 268 169 122 92 
251 896 343 183 132 116 
368 349 282 173 151 131 
195 714 245 136 134 139 
334 548 320 70 107 157 
216 960 331 135 107 89 
321 776 227 111 77 58 
297 142 240 116 71 40 
216 1001 248 134 101 73 
225 163 335 132 60 5 
329 628 194 104 121 139 
242 194 290 62 44 66 
339 533 333 111 120 167 
226 473 235 144 141 143 
211 72 328 123 87 37 
340 660 264 109 77 103 
222 172 335 102 108 113 
329 673 275 74 85 98 
262 726 185 116 130 147 
259 472 388 93 122 151 
258 437 189 119 130 150 
163 689 366 144 148 158 
224 307 324 149 147 151 
210 165 252 79 72 72 
208 609 247 141 149 167 
280 240 213 99 82 74 
346 622 216 101 93 88 
304 815 225 200 144 108 
312 354 212 115 123 136 
331 484 370 177 176 183 
225 400 233 82 106 135 
287 179 218 118 101 84 
208 561 216 150 157 173 
290 153 249 89 79 74 
248 900 239 100 74 57 
268 677 192 134 141 157 
165 535 305 97 117 150 
212 161 254 78 69 70 
354 305 393 147 145 150 
279 913 310 176 130 101 
378 331 259 172 146 118 
331 733 259 126 115 109 
209 527 221 112 116 124 
124 808 300 164 183 206 
354 204 364 103 31 48 
380 173 252 92 89 88 
94 750 326 118 132 194 
233 263 291 68 86 104 
228 426 250 58 87 130 
252 1006 292 94 63 50 
304 714 161 73 75 80 
277 802 162 210 180 137 
350 700 192 120 71 94 
177 589 321 84 114 147 
334 342 207 125 133 150 
236 537 383 60 89 160 
304 780 270 208 153 121 
341 612 225 113 108 106 
352 151 197 133 103 71 
264 93 312 89 74 58 
296 656 309 65 103 133 
96 751 330 138 147 194 
295 145 240 113 80 62 
310 286 373 72 103 129 
363 220 235 103 59 73 
313 432 213 68 87 106 
193 592 260 109 126 153 
243 586 189 87 127 160 
354 731 150 122 126 135 
386 688 140 74 105 155 
404 737 179 138 160 185 
342 441 376 129 133 170 
331 556 304 51 88 163 
340 631 181 88 109 129 
366 414 286 127 113 103 
278 371 192 59 98 130 
253 608 184 153 159 175 
267 169 330 94 82 71 
319 550 349 169 174 187 
311 453 187 82 112 148 
187 685 338 70 103 173 
201 574 236 148 160 179 
220 132 276 100 83 64 
371 313 272 141 147 158 
276 736 322 169 115 91 
438 696 148 38 68 96 
189 673 333 76 111 157 
336 319 406 99 119 142 
213 164 253 76 69 71 
304 142 232 109 65 16 
357 732 189 105 61 78 
206 492 266 45 74 100 
289 220 362 107 83 93 
359 457 322 93 119 158 
359 453 257 93 120 168 
364 161 322 103 83 70 
269 975 311 99 80 65 
373 148 338 116 79 50 
205 869 258 185 131 99 
210 168 247 81 76 78 
230 588 369 47 117 159 
304 325 210 111 123 138 
383 178 228 148 46 72 
213 769 200 143 98 74 
249 610 188 144 142 145 
235 175 301 100 31 23 
262 435 183 116 132 169 
260 147 252 110 82 58 
221 229 263 105 7 45 
306 709 166 53 63 74 
256 176 219 116 104 95 
195 605 349 43 57 79 
243 378 198 51 90 127 
285 816 170 155 138 127 
352 209 409 104 109 120 
330 622 283 176 117 110 
351 178 301 87 54 41 
356 227 350 95 37 43 
333 413 402 159 143 129 
196 678 282 95 96 101 
297 384 382 134 25 65 
390 698 193 97 125 151 
252 698 194 85 108 130 
351 216 376 138 37 72 
208 668 357 74 92 132 
333 166 218 106 69 56 
349 732 148 137 98 87 
193 762 339 141 132 138 
212 618 244 95 106 122 
257 687 194 107 130 164 
305 462 180 105 121 138 
250 617 360 130 96 88 
318 339 209 101 117 136 
219 160 247 80 71 67 
130 734 298 35 70 100 
317 695 286 121 78 52 
203 410 313 111 120 134 
211 890 283 152 115 89 
235 822 291 135 139 148 
333 236 194 70 43 73 
231 152 306 114 53 11 
231 703 193 81 117 147 
239 563 194 148 156 171 
259 451 187 58 95 137 
257 1004 264 134 105 78 
329 552 215 151 156 167 
359 302 229 184 165 150 
174 794 333 163 66 68 
225 1017 263 155 124 94 
205 820 213 136 116 96 
324 466 383 135 150 184 
233 285 359 154 150 153 
244 681 336 68 80 109 
199 424 317 51 84 117 
311 715 154 114 118 126 
259 217 348 97 96 99 
323 770 158 149 121 93 
321 824 213 201 151 120 
294 349 201 136 125 121 
327 390 214 190 155 115 
337 293 200 86 119 148 
177 573 322 124 133 149 
220 664 236 123 118 120 
244 661 202 117 127 141 
393 657 153 112 118 128 
214 542 372 55 93 143 
291 139 295 94 61 18 
218 162 250 78 66 66 
256 996 294 73 57 40 
179 718 276 40 67 86 
245 771 328 59 52 100 
282 845 200 252 194 157 
248 896 238 117 85 59 
297 599 205 150 146 148 
329 191 387 99 91 110 
255 927 344 162 124 96 
243 619 372 122 98 80 
378 199 321 37 49 60 
249 285 357 140 26 74 
355 632 235 105 71 57 
280 338 199 81 127 165 
169 530 296 115 130 153 
214 981 256 87 70 52 
228 364 289 120 85 35 
205 980 260 100 80 59 
216 317 232 147 142 141 
346 803 202 162 161 165 
353 242 208 107 48 52 
439 695 157 70 90 108 
189 933 277 107 88 75 
369 310 263 93 122 149 
266 149 290 86 74 64 
360 344 350 113 132 153 
333 591 269 96 123 148 
264 426 179 99 116 137 
281 931 304 150 110 82 
350 651 255 98 121 160 
232 674 360 129 140 184 
355 614 227 107 95 86 
293 489 188 154 157 183 
369 411 350 81 116 150 
195 968 292 71 51 50 
371 657 143 146 149 159 
205 977 306 94 77 65 
338 673 209 119 143 181 
358 260 292 107 105 106 
222 271 207 141 45 25 
208 722 231 109 109 112 
352 297 387 124 131 143 
160 706 332 36 70 139 
225 135 212 124 99 69 
208 438 284 52 85 116 
256 352 187 120 138 168 
278 773 295 147 120 94 
134 681 369 163 111 86 
226 134 212 125 99 69 
245 626 374 147 99 89 
227 134 212 125 99 68 
304 410 205 50 84 115 
327 547 216 85 114 147 
219 367 326 135 134 139 
236 318 268 114 21 45 
263 149 265 104 87 74 
366 637 229 92 60 51 
151 833 317 156 25 57 
300 331 375 101 124 147 
192 592 260 111 126 152 
333 558 258 105 131 157 
359 755 146 109 38 61 
206 979 260 94 69 46 
308 211 203 117 104 98 
286 22 293 145 104 74 
231 129 213 114 93 68 
265 313 357 127 118 123 
216 974 323 102 84 71 
346 375 398 101 129 159 
263 455 380 124 112 102 
184 535 342 116 127 146 
305 812 168 136 136 140 
224 667 234 133 127 126 
231 378 364 195 166 135 
235 409 213 81 102 128 
283 843 190 251 180 138 
264 710 337 122 136 154 
138 658 371 126 97 72 
326 595 295 112 141 176 
328 710 275 138 55 30 
130 649 351 95 84 74 
259 136 277 102 91 83 
199 609 259 152 159 173 
251 581 176 84 116 144 
225 338 261 122 93 111 
383 221 249 105 97 114 
243 301 282 73 97 119 
137 825 309 199 50 79 
230 135 212 117 95 69 
260 357 183 111 135 180 
232 924 225 84 65 50 
364 426 360 105 128 153 
281 933 302 130 97 72 
373 257 305 72 93 112 
229 302 359 103 124 147 
273 792 288 195 169 145 
225 137 212 121 96 67 
229 402 253 72 96 137 
219 131 269 107 87 76 
202 710 374 58 109 169 
233 520 190 70 108 144 
227 442 275 92 100 110 
195 778 333 80 67 117 
227 136 212 125 99 68 
240 426 207 93 111 134 
358 305 355 77 115 145 
200 747 225 104 106 113 
349 218 406 105 102 116 
96 755 317 126 142 192 
270 521 179 142 149 163 
357 202 223 92 39 59 
356 189 356 46 48 65 
194 463 288 116 125 139 
346 788 203 116 72 80 
276 965 306 124 98 83 
191 475 284 84 102 127 
304 401 210 22 80 130 
195 584 251 162 164 174 
128 813 299 184 195 214 
329 184 274 72 53 49 
220 316 253 88 109 134 
211 1019 293 176 150 127 
384 248 332 82 112 136 
371 276 297 124 121 123 
419 719 142 122 140 181 
227 394 285 55 83 108 
333 808 170 192 173 170 
328 163 322 88 66 52 
259 876 324 146 106 85 
240 592 200 155 153 157 
170 529 292 103 123 149 
375 225 247 138 111 116 
226 132 328 109 88 64 
228 138 212 123 98 67 
269 974 256 148 117 84 
245 132 262 106 92 82 
261 151 241 102 84 64 
336 670 264 127 115 109 
227 1017 269 125 100 73 
355 478 299 156 162 176 
244 604 190 86 131 168 
335 523 251 65 96 132 
281 921 302 162 117 88 
280 661 324 78 116 146 
231 138 213 115 94 70 
220 261 205 138 44 49 
237 664 216 63 103 134 
228 140 211 123 97 67 
202 658 273 110 115 125 
229 140 211 122 97 68 
366 394 251 187 153 112 
206 411 303 35 81 110 
228 143 211 123 97 67 
213 295 249 111 129 150 
223 953 340 185 145 122 
299 129 291 101 80 62 
234 486 197 84 107 134 
250 590 171 108 123 142 
245 309 200 83 89 97 
231 899 225 140 108 82 
91 744 328 130 141 192 
90 724 308 113 129 154 
343 666 207 148 181 215 
257 518 389 123 137 180 
317 211 199 141 94 72 
231 142 212 121 97 69 
255 992 311 78 54 41 
223 607 228 116 141 169 
385 755 180 156 74 104 
360 795 184 182 151 117 
240 184 279 92 50 71 
173 853 264 187 146 99 
279 836 240 191 142 119 
339 529 259 106 124 149 
353 479 309 177 178 188 
348 637 232 48 50 55 
253 320 358 152 152 160 
356 474 271 169 178 193 
172 831 318 147 149 156 
235 129 214 113 92 69 
181 550 258 127 141 159 
179 716 300 54 80 103 
318 583 325 125 134 177 
235 131 214 112 92 70 
359 216 348 47 53 79 
342 389 231 136 39 84 
354 799 192 199 138 147 
383 202 240 97 119 143 
366 740 188 114 101 98 
346 377 396 121 130 144 
336 509 351 176 174 181 
207 728 353 158 176 198 
353 492 296 103 119 166 
327 625 284 163 123 130 
231 472 368 94 113 145 
244 565 171 156 165 180 
270 945 335 185 138 116 
275 943 327 178 135 107 
377 746 142 155 130 129 
235 134 213 110 90 69 
286 402 188 93 113 135 
349 364 363 114 128 146 
227 129 271 104 92 83 
286 229 361 98 99 107 
229 489 212 119 125 136 
319 626 207 78 75 74 
265 276 357 146 54 88 
237 130 213 116 94 71 
290 573 353 128 152 182 
353 197 412 155 106 93 
344 441 374 138 142 166 
196 741 231 85 92 102 
237 131 214 114 94 72 
378 242 267 121 88 81 
338 480 363 165 170 181 
265 830 180 220 155 111 
259 397 366 128 30 62 
246 407 188 101 122 144 
353 722 152 98 111 127 
289 603 326 144 154 171 
358 188 298 70 45 46 
201 160 264 72 79 94 
329 427 395 89 105 147 
244 865 288 109 85 56 
280 898 295 135 102 75 
380 250 266 125 77 82 
198 429 315 61 92 123 
309 779 262 205 150 120 
218 596 227 91 105 165 
158 802 332 175 87 115 
249 79 337 131 110 90 
200 416 325 79 99 123 
207 860 230 200 146 118 
243 256 197 96 73 92 
309 714 157 81 87 96 
329 561 218 135 141 152 
185 480 334 93 113 136 
375 373 346 165 132 90 
244 803 302 156 130 115 
241 524 386 110 136 177 
342 520 311 108 119 164 
301 160 216 66 53 56 
323 334 394 112 130 150 
186 620 325 78 108 136 
208 544 215 39 78 106 
106 670 332 105 94 84 
209 910 322 162 119 95 
166 639 371 125 103 81 
350 165 366 157 69 6 
286 155 272 91 62 34 
315 146 203 165 86 26 
349 241 366 101 53 53 
410 678 195 96 118 175 
301 779 278 149 124 104 
306 277 371 101 88 103 
355 164 330 95 65 51 
264 97 312 88 74 61 
261 637 170 121 130 154 
234 465 210 136 137 145 
212 95 315 132 83 73 
300 151 308 97 83 70 
366 247 349 93 68 74 
298 516 389 176 181 193 
283 952 294 102 81 65 
226 396 285 53 82 108 
130 806 281 146 157 174 
244 631 199 96 122 150 
380 254 263 123 7 49 
352 356 223 186 157 127 
260 621 206 43 49 62 
428 696 136 103 139 217 
231 278 291 122 119 120 
216 841 283 157 119 95 
237 339 271 110 95 112 
324 509 360 157 167 184 
243 649 200 103 153 193 
174 588 317 151 162 180 
317 182 376 123 53 5 
314 697 178 75 105 130 
253 1004 294 121 85 65 
367 236 278 74 39 46 
264 736 337 152 120 127 
198 952 312 88 73 62 
325 522 353 127 145 169 
208 864 266 175 128 97 
235 143 213 118 95 68 
310 341 212 103 122 144 
374 339 312 123 115 123 
393 656 161 89 92 100 
347 518 295 179 179 188 
269 440 378 162 75 8 
299 206 208 130 116 110 
160 804 252 183 81 94 
166 525 309 104 121 143 
