ply
format ascii 1.0
comment Created by CloudCompare v2.11.1 (Anoia)
comment Created 2/28/22 9:42 PM
obj_info Generated by CloudCompare!
element vertex 2018
property float x
property float y
property float z
property uchar red
property uchar green
property uchar blue
end_header
274 900 212 110 86 63 
236 978 219 115 87 51 
210 824 216 147 93 87 
339 817 291 213 146 119 
244 585 144 97 115 132 
374 273 311 139 123 137 
396 244 377 113 35 44 
328 402 292 49 62 93 
219 675 121 108 126 148 
372 248 332 140 98 111 
143 657 152 104 77 71 
259 571 337 152 155 165 
131 688 102 154 106 80 
223 783 130 69 56 85 
296 213 411 96 43 51 
212 635 312 90 72 69 
288 743 326 202 162 114 
328 233 454 109 99 114 
331 818 295 208 142 111 
318 498 327 97 106 123 
297 376 401 100 77 51 
153 653 137 89 76 70 
256 301 353 122 119 121 
344 226 223 99 118 138 
309 655 256 93 110 129 
258 469 396 126 152 191 
229 991 259 102 76 49 
323 524 304 89 114 151 
306 334 409 118 97 101 
229 910 227 86 68 50 
280 884 289 161 117 87 
242 81 304 95 82 70 
281 217 361 102 45 34 
261 250 227 128 122 120 
301 66 207 103 82 59 
216 963 235 125 99 76 
356 314 429 120 53 75 
288 204 370 86 50 62 
181 666 280 64 100 129 
282 66 276 120 108 101 
297 148 243 81 69 57 
330 753 243 105 87 71 
233 628 157 41 74 101 
332 384 303 75 80 110 
318 441 198 89 119 148 
228 402 321 61 90 136 
212 958 295 144 110 93 
278 280 420 143 143 148 
279 376 425 163 170 182 
237 430 408 149 159 177 
341 365 379 172 143 111 
318 634 243 197 198 209 
276 961 298 125 95 80 
206 284 307 120 127 139 
401 695 395 114 145 206 
387 748 350 154 42 88 
285 362 427 165 164 172 
262 658 175 79 126 165 
370 710 386 145 179 215 
265 289 362 80 111 137 
206 691 156 132 143 159 
262 557 163 117 132 153 
343 738 268 68 82 99 
380 695 395 110 134 198 
326 383 319 132 121 114 
268 168 218 83 49 66 
213 533 304 130 138 152 
239 126 263 83 72 62 
332 357 307 102 87 90 
368 219 407 59 37 28 
333 408 309 41 61 99 
314 147 377 129 75 17 
378 659 330 50 55 92 
189 668 304 63 69 81 
307 632 333 75 87 100 
322 227 415 73 45 54 
238 125 266 74 64 55 
395 720 379 151 183 215 
117 632 171 152 107 84 
165 689 130 59 83 107 
262 127 271 81 69 58 
324 519 243 88 108 131 
230 741 125 123 126 141 
303 816 277 194 145 118 
320 285 414 94 95 106 
254 988 215 110 83 48 
312 273 451 139 130 129 
373 265 333 115 116 123 
310 148 279 85 72 59 
281 880 263 158 116 86 
199 602 175 53 58 65 
290 489 361 75 108 178 
213 336 230 108 55 55 
274 151 331 66 76 88 
210 631 170 30 83 118 
197 312 300 106 114 126 
361 314 375 159 163 175 
279 284 424 145 145 151 
189 811 141 120 120 147 
237 328 213 139 136 138 
276 1005 238 154 123 95 
199 556 288 82 109 136 
285 598 335 151 144 145 
224 760 298 139 146 157 
289 382 210 35 79 118 
296 904 266 119 98 82 
341 352 254 175 173 177 
281 122 236 80 68 55 
216 317 315 104 103 106 
210 757 282 135 110 82 
322 272 389 55 71 86 
269 11 223 120 105 93 
304 417 195 71 101 129 
323 291 387 89 89 92 
191 710 101 167 170 189 
314 699 254 115 127 142 
270 890 214 135 91 70 
225 577 343 112 148 190 
226 888 255 114 86 61 
237 127 282 89 78 67 
293 491 333 155 150 153 
305 613 283 111 128 148 
171 683 89 99 125 154 
341 330 289 109 80 85 
191 692 289 111 78 71 
217 451 369 74 106 160 
279 777 304 205 153 120 
353 222 393 72 47 28 
282 749 197 121 40 36 
300 562 205 184 183 191 
239 127 282 89 78 67 
236 127 284 91 79 67 
353 349 338 154 161 175 
357 796 304 174 133 99 
222 600 155 73 96 116 
137 586 231 131 100 84 
281 67 271 114 102 94 
188 819 196 40 24 34 
175 664 250 63 59 94 
248 406 205 93 99 108 
337 373 350 168 33 83 
309 581 320 164 160 163 
291 359 425 176 171 174 
296 340 210 96 116 136 
251 736 166 121 132 147 
394 737 338 94 65 88 
207 624 184 38 69 107 
249 490 377 49 79 154 
263 258 327 141 66 7 
293 100 193 98 82 66 
239 126 284 90 79 68 
220 434 379 121 141 164 
288 466 376 126 145 174 
248 879 219 171 128 95 
280 937 300 125 96 73 
307 530 336 104 124 153 
261 965 308 127 92 77 
147 671 139 105 78 73 
252 99 287 90 73 53 
376 766 327 148 124 103 
319 366 293 108 80 81 
329 162 248 103 90 78 
300 135 338 111 92 79 
172 603 245 107 111 140 
295 87 215 117 97 77 
277 136 296 86 59 37 
228 650 125 64 98 133 
257 336 415 131 126 126 
284 30 326 120 111 106 
255 98 287 92 75 55 
231 395 340 107 126 146 
226 782 281 195 147 122 
281 125 235 80 68 56 
265 254 224 137 132 132 
350 333 309 112 120 134 
216 356 224 141 120 99 
299 680 359 138 167 197 
132 667 105 103 86 68 
321 581 266 122 154 188 
274 835 193 157 145 139 
203 262 289 87 89 97 
248 548 356 76 110 170 
319 193 407 79 41 43 
233 653 125 81 110 141 
254 100 286 91 74 55 
386 744 358 188 39 64 
254 101 286 92 74 54 
291 470 343 119 137 177 
255 101 286 90 73 53 
178 410 285 130 134 144 
286 895 232 90 65 51 
230 969 308 86 70 60 
302 420 196 62 96 126 
366 255 281 157 88 73 
118 596 197 111 97 84 
355 177 265 133 97 69 
267 262 221 114 122 133 
296 461 188 128 136 148 
370 323 403 166 167 176 
240 536 176 115 122 132 
251 105 286 86 70 53 
275 422 405 93 116 168 
326 147 343 103 83 70 
203 661 198 70 84 120 
318 687 264 109 119 133 
261 357 433 166 120 55 
390 711 389 151 179 216 
326 393 347 134 121 149 
256 278 325 110 119 133 
249 108 287 75 62 49 
261 180 236 43 45 60 
184 682 96 103 119 139 
176 747 165 87 91 111 
207 917 269 92 71 56 
257 580 335 139 149 164 
265 542 345 106 120 157 
285 603 331 155 146 145 
372 179 335 83 71 61 
254 649 346 132 95 85 
276 258 386 80 113 140 
250 109 287 76 64 51 
179 427 287 111 125 146 
284 377 213 49 94 127 
257 662 161 78 127 165 
251 111 285 79 67 55 
319 452 203 168 166 172 
233 946 215 77 57 40 
205 690 153 144 148 159 
224 454 382 102 127 165 
253 105 285 88 71 54 
393 246 375 114 28 58 
323 496 245 110 123 140 
376 240 307 99 108 122 
131 619 206 145 106 93 
252 107 285 84 69 53 
235 378 345 71 112 144 
306 411 300 80 106 132 
374 189 401 88 77 66 
252 107 286 83 68 52 
290 175 342 49 53 72 
284 343 436 177 172 176 
126 641 129 95 83 72 
190 668 118 56 87 125 
309 146 299 101 80 68 
222 384 369 81 108 135 
233 312 341 132 133 139 
339 394 393 178 0 78 
303 143 346 123 61 5 
349 354 383 167 142 117 
316 409 350 173 160 154 
296 202 394 41 60 88 
226 372 196 138 67 0 
253 310 371 94 106 121 
247 399 333 90 111 134 
304 144 288 96 74 58 
280 61 302 96 83 71 
176 573 258 75 103 129 
258 314 398 113 92 95 
240 348 347 101 118 139 
204 424 298 74 92 131 
185 763 263 163 148 170 
251 925 322 97 80 65 
255 698 171 154 157 168 
191 345 295 165 139 111 
216 292 315 73 67 74 
281 41 342 136 113 91 
303 111 193 146 125 108 
304 143 318 104 86 71 
316 337 215 119 84 92 
295 544 172 143 153 170 
243 123 256 74 62 50 
239 456 176 87 97 108 
285 422 207 107 113 122 
225 886 259 116 91 65 
284 675 362 110 141 207 
347 286 270 76 46 64 
413 680 367 100 126 159 
276 20 205 122 105 90 
173 537 193 87 94 101 
173 684 124 66 92 116 
262 24 373 145 109 85 
221 460 372 91 117 161 
316 621 226 167 173 188 
255 358 382 101 102 116 
165 677 91 67 91 112 
251 311 369 91 102 115 
205 296 310 99 115 134 
207 919 253 104 78 52 
217 572 325 107 125 152 
225 366 207 134 114 93 
376 238 314 101 83 102 
190 742 108 178 179 200 
242 125 258 70 59 48 
330 388 411 178 10 75 
265 314 223 108 111 117 
243 124 259 76 65 55 
243 125 259 79 68 58 
357 289 286 143 25 68 
308 132 215 74 63 53 
268 211 221 124 42 12 
171 706 270 123 147 173 
362 700 391 122 136 177 
243 641 144 160 171 194 
243 772 301 214 159 129 
268 493 182 88 103 126 
322 179 463 120 117 118 
216 529 334 120 137 157 
357 789 286 161 148 140 
360 259 409 60 35 47 
236 940 322 193 153 128 
396 235 437 102 93 118 
151 655 150 81 67 67 
162 702 255 106 133 160 
163 471 251 119 126 138 
319 357 412 112 124 140 
120 671 124 137 97 64 
378 288 379 173 30 104 
245 122 257 78 66 55 
343 483 297 118 135 161 
220 438 172 88 111 136 
314 273 449 163 96 71 
283 601 194 179 175 179 
302 53 213 117 108 103 
348 239 250 53 48 62 
234 1011 260 139 110 80 
316 705 336 179 145 107 
272 160 211 79 49 61 
225 984 246 69 54 39 
177 579 259 76 67 76 
361 706 384 142 176 211 
346 316 246 98 130 162 
336 738 337 117 96 84 
263 459 188 119 121 127 
334 299 226 132 129 132 
287 75 225 117 96 75 
238 396 411 68 114 150 
304 50 208 105 93 83 
246 123 261 85 75 66 
313 557 330 107 126 161 
379 188 336 107 97 88 
344 692 390 124 150 195 
330 331 414 67 81 96 
244 124 261 86 77 68 
244 125 261 86 77 69 
329 237 214 173 169 173 
279 832 197 88 94 102 
296 512 337 103 117 149 
233 265 224 90 99 111 
326 362 234 69 121 162 
320 197 458 84 104 123 
220 310 315 97 99 104 
267 244 328 152 126 95 
268 761 315 182 138 112 
316 921 265 145 111 87 
216 778 273 102 102 110 
294 161 200 119 28 42 
222 472 293 95 107 135 
376 697 394 110 121 186 
191 733 163 121 130 145 
324 526 302 98 116 153 
245 865 305 165 120 105 
235 846 213 196 147 120 
278 591 165 149 154 165 
364 316 360 61 125 172 
139 586 204 81 72 65 
225 333 196 131 132 138 
257 950 215 81 60 41 
365 309 330 89 137 173 
353 338 423 173 176 188 
282 526 341 113 121 150 
244 483 173 112 122 135 
289 48 206 126 113 103 
392 709 328 133 140 153 
220 431 342 106 124 144 
254 681 348 77 124 158 
293 579 203 196 187 187 
302 847 226 182 136 99 
297 240 434 47 71 100 
370 284 435 162 82 97 
207 679 112 164 169 181 
162 704 255 121 144 167 
152 716 94 145 164 202 
239 330 215 146 142 144 
189 377 297 117 104 89 
361 762 343 112 98 93 
241 125 268 85 74 63 
337 765 251 116 105 97 
370 714 297 140 29 24 
321 522 308 68 87 151 
260 929 204 68 52 42 
374 254 294 151 55 83 
267 290 383 100 116 133 
301 228 203 80 113 144 
198 310 273 131 21 58 
253 849 189 146 116 78 
192 607 187 50 68 84 
257 77 290 88 76 63 
305 627 300 48 60 72 
269 154 328 81 64 62 
241 886 230 157 122 91 
267 766 308 206 153 123 
242 421 305 93 107 133 
285 972 275 83 67 57 
118 635 160 130 94 66 
391 234 439 120 94 111 
264 33 353 148 128 127 
281 936 298 118 90 70 
345 379 275 85 112 160 
372 275 341 118 90 118 
299 489 331 133 134 141 
242 943 210 81 59 48 
350 363 409 168 56 86 
313 592 291 135 151 172 
328 240 417 80 41 51 
334 432 269 119 136 157 
282 444 393 112 113 146 
174 591 200 95 109 129 
287 954 222 79 59 46 
337 148 412 108 98 91 
226 330 193 128 139 154 
348 289 277 131 32 68 
371 697 394 132 153 202 
295 290 209 145 23 58 
246 126 265 86 76 67 
227 413 391 50 89 148 
250 698 141 68 121 159 
182 376 274 144 57 0 
340 158 321 87 72 60 
381 203 300 176 74 4 
137 651 119 99 86 73 
247 127 267 85 75 66 
315 151 397 130 68 0 
244 125 269 87 75 64 
268 709 335 55 55 87 
172 671 248 58 77 117 
284 899 280 161 120 90 
183 659 117 111 118 130 
333 633 349 14 50 108 
315 725 331 157 132 109 
269 251 333 147 74 0 
290 254 205 135 90 77 
116 621 191 171 117 98 
274 342 438 176 174 180 
337 320 232 161 106 8 
225 388 383 51 85 130 
295 299 210 136 17 40 
203 930 251 75 59 48 
211 519 323 109 121 161 
299 441 350 161 95 63 
178 685 279 119 144 170 
193 704 195 55 64 114 
278 279 417 148 145 149 
325 252 399 80 39 32 
409 680 398 164 174 196 
168 809 158 64 62 79 
162 591 209 43 77 103 
293 333 211 137 62 76 
274 232 333 112 61 72 
219 387 209 121 61 3 
248 122 258 89 77 66 
252 685 349 65 91 139 
172 686 270 115 129 147 
155 744 147 126 135 158 
225 380 191 126 111 99 
247 363 410 144 100 115 
185 603 285 99 119 142 
341 360 258 85 121 158 
251 122 256 96 82 70 
285 19 331 114 103 96 
209 942 230 113 90 74 
262 670 348 79 116 147 
351 339 282 93 114 156 
295 199 202 113 27 34 
290 525 340 131 146 168 
375 266 316 121 99 119 
210 644 130 28 58 85 
339 208 218 117 101 100 
347 269 398 78 34 42 
279 722 330 148 115 103 
124 629 190 183 129 111 
372 671 303 150 146 147 
287 368 424 154 159 172 
212 472 286 61 75 124 
328 171 242 103 51 24 
369 328 404 174 172 179 
117 616 177 121 93 65 
201 934 272 77 63 52 
254 979 302 97 77 63 
276 182 334 87 47 44 
285 948 217 110 84 57 
213 828 157 58 54 107 
157 776 142 129 147 172 
251 124 262 85 74 65 
360 273 421 61 24 55 
218 537 339 104 122 153 
395 688 399 113 134 200 
304 465 371 180 155 147 
333 193 444 115 78 73 
285 631 318 63 60 60 
252 122 258 93 80 69 
293 384 399 94 82 78 
324 154 201 105 97 117 
182 741 198 106 119 135 
397 212 375 105 58 57 
243 628 345 116 97 84 
342 158 327 88 70 59 
190 641 201 104 113 154 
264 167 326 65 73 85 
205 515 287 147 155 169 
378 289 372 146 68 106 
225 1012 247 177 147 118 
371 650 329 32 68 124 
265 91 233 103 83 61 
277 466 190 120 123 131 
271 345 437 159 163 175 
274 219 212 109 74 80 
231 410 336 54 92 140 
327 339 227 118 129 147 
314 787 311 189 143 114 
343 737 269 63 55 82 
285 767 315 153 113 85 
327 311 225 193 150 96 
384 280 387 152 0 63 
296 695 226 81 112 138 
319 291 400 82 83 91 
184 724 287 110 53 59 
286 57 198 116 92 64 
282 591 187 152 155 165 
282 51 286 115 109 105 
221 350 325 90 100 121 
255 124 261 87 76 66 
330 430 314 50 62 98 
251 663 141 121 123 132 
227 889 249 152 120 90 
402 187 429 98 81 66 
214 920 305 140 117 94 
402 709 383 114 139 207 
385 208 360 114 113 115 
279 230 342 121 29 45 
407 182 403 92 83 73 
238 543 169 112 122 135 
160 698 249 134 145 161 
209 699 116 144 155 178 
254 696 171 162 163 171 
312 599 256 173 179 194 
191 653 132 90 111 151 
251 362 421 167 135 95 
248 127 267 85 75 65 
340 382 266 55 90 139 
135 618 189 96 81 74 
249 127 267 84 74 65 
249 550 185 117 125 140 
278 241 354 125 124 130 
262 631 144 138 148 164 
325 255 443 136 50 84 
375 308 423 82 134 172 
383 647 357 99 114 137 
250 126 265 84 74 65 
309 395 293 61 82 120 
302 670 230 173 173 191 
328 520 298 75 106 145 
300 311 212 137 4 55 
341 318 237 193 151 112 
363 275 287 87 119 146 
277 464 390 102 133 181 
366 261 422 72 19 35 
246 855 201 212 158 123 
264 181 230 97 44 40 
325 149 337 104 83 70 
214 472 286 55 74 123 
291 197 360 55 49 65 
383 184 302 100 80 63 
322 582 259 103 136 178 
272 89 234 96 78 60 
263 193 326 108 43 51 
255 992 283 90 73 63 
229 1006 239 145 117 97 
350 357 414 185 174 170 
231 391 343 100 122 145 
192 437 290 125 133 148 
302 618 260 49 80 104 
196 501 183 132 130 133 
334 533 261 112 123 141 
274 12 345 58 52 48 
245 885 313 160 121 97 
303 624 256 57 66 81 
165 785 172 169 119 121 
168 772 122 138 150 196 
345 359 268 115 135 164 
341 163 279 135 115 100 
311 401 369 129 30 54 
174 583 263 98 84 81 
297 258 387 85 63 78 
332 189 401 48 36 69 
228 726 131 95 103 116 
348 275 402 76 42 55 
236 844 182 172 155 146 
254 125 264 83 73 63 
292 884 233 130 94 72 
217 332 323 143 141 145 
241 878 310 104 43 40 
254 125 266 82 72 62 
349 367 386 183 155 127 
160 573 250 147 108 99 
404 181 405 70 51 43 
254 126 267 82 72 62 
299 449 347 161 145 137 
202 491 312 94 113 136 
277 983 275 85 69 58 
370 677 298 90 105 125 
313 274 213 145 148 158 
151 753 125 113 126 185 
370 315 425 74 129 169 
261 746 325 174 163 159 
215 536 313 112 131 156 
137 705 126 81 119 169 
148 615 212 178 124 119 
253 127 271 83 73 63 
254 126 268 82 72 62 
254 515 370 144 158 198 
231 459 173 97 102 110 
286 798 291 212 156 128 
326 258 437 120 65 91 
295 820 207 125 104 85 
277 95 298 87 70 53 
270 95 285 72 57 42 
338 360 301 84 67 91 
211 604 168 67 63 70 
317 400 317 81 96 125 
218 926 221 95 73 56 
267 1004 266 151 121 91 
209 275 310 87 110 132 
137 579 205 102 92 83 
205 933 285 133 106 81 
315 271 214 120 129 142 
143 642 133 106 93 80 
329 418 295 40 57 86 
246 724 160 161 165 176 
368 303 377 169 157 149 
349 802 275 169 119 82 
337 159 455 122 109 97 
300 622 296 48 65 79 
167 756 234 175 100 106 
336 779 245 101 90 83 
388 651 334 66 103 142 
208 661 325 130 99 61 
318 428 371 176 145 110 
246 119 285 86 75 65 
293 787 300 206 151 122 
201 637 136 77 123 160 
331 469 312 149 160 182 
342 365 301 57 76 107 
117 632 168 143 101 75 
364 735 362 168 104 95 
258 583 152 128 128 133 
286 282 438 145 145 151 
201 748 278 55 62 71 
386 200 442 134 54 0 
174 532 246 123 126 135 
259 371 432 149 107 38 
312 202 437 120 67 58 
218 553 316 109 125 144 
261 126 262 84 73 62 
263 451 404 146 170 199 
337 491 296 109 123 157 
178 643 252 57 69 80 
374 257 438 109 112 128 
370 733 365 157 51 65 
343 390 277 83 114 160 
240 412 316 100 112 133 
377 698 306 156 159 169 
240 742 147 110 118 147 
274 499 367 133 151 191 
217 914 237 111 69 44 
172 702 272 119 146 174 
201 751 115 134 150 187 
263 238 227 137 129 126 
241 126 277 87 75 64 
267 441 407 62 94 167 
305 237 397 88 46 51 
350 301 408 124 70 48 
120 667 126 135 95 67 
200 665 324 156 101 55 
324 762 328 186 172 165 
411 693 379 95 126 181 
297 369 203 78 98 119 
233 640 337 158 119 108 
331 219 212 148 144 146 
282 504 177 62 81 108 
269 627 356 119 98 79 
251 876 214 171 128 97 
242 126 279 87 76 66 
243 126 278 88 76 66 
203 519 285 99 120 151 
323 272 415 76 65 76 
304 57 184 136 120 107 
242 720 134 133 145 182 
280 508 341 143 149 162 
286 987 252 114 83 64 
281 656 212 70 111 143 
231 832 165 163 145 137 
306 943 288 105 84 67 
274 951 306 140 106 85 
357 774 272 173 151 132 
190 525 182 105 111 120 
246 126 272 88 76 66 
308 404 311 49 87 131 
280 671 345 89 134 171 
222 534 163 133 142 160 
283 213 349 92 50 56 
302 163 352 82 51 57 
319 637 260 86 69 87 
331 374 354 167 47 76 
215 586 321 109 132 157 
166 764 165 117 127 142 
335 761 250 115 107 102 
218 288 230 142 142 149 
322 405 372 144 6 57 
293 473 184 122 126 135 
306 629 316 65 78 92 
215 805 251 173 153 136 
181 648 277 50 90 118 
203 639 159 129 142 158 
285 933 293 94 71 51 
310 322 405 89 89 95 
247 125 277 89 78 68 
289 252 424 112 82 92 
183 660 103 119 128 141 
304 163 354 83 49 50 
247 124 278 90 79 69 
319 296 402 87 89 98 
207 433 200 39 79 106 
293 448 328 143 142 148 
204 612 179 22 39 73 
288 141 334 115 65 36 
309 381 407 171 144 116 
219 710 326 93 72 82 
152 700 89 117 137 200 
202 632 148 51 95 137 
324 210 403 99 43 33 
349 290 405 78 86 96 
199 499 300 75 103 128 
199 278 279 126 125 130 
335 647 372 105 89 73 
311 454 312 95 108 129 
325 634 285 83 89 97 
240 125 283 89 78 68 
268 523 355 71 106 169 
146 640 149 91 77 71 
188 388 239 163 136 107 
214 362 224 141 120 97 
398 651 351 87 104 123 
181 757 266 169 182 205 
127 584 203 95 87 80 
279 765 316 168 125 98 
296 554 189 140 159 184 
311 508 196 122 140 163 
268 843 192 168 137 104 
285 75 189 141 111 77 
400 716 342 136 156 179 
336 380 329 68 101 152 
353 312 298 101 120 141 
315 642 369 112 95 78 
290 53 226 116 96 76 
171 475 269 153 153 159 
220 256 317 129 126 129 
252 698 166 124 128 142 
249 532 190 99 106 116 
289 888 231 118 90 67 
288 345 212 128 98 102 
310 433 305 74 85 124 
260 185 236 33 50 76 
270 406 419 101 129 171 
153 749 143 160 155 156 
291 237 202 88 129 162 
355 343 338 170 169 175 
207 669 148 112 122 154 
345 336 305 92 83 95 
259 338 427 163 122 73 
240 125 286 90 79 68 
283 413 392 46 62 93 
212 641 135 15 60 105 
365 168 353 116 96 79 
215 273 315 76 103 127 
242 862 228 173 131 102 
130 693 107 166 115 89 
228 538 361 127 139 185 
353 310 296 127 135 149 
196 269 270 150 148 154 
255 342 416 146 111 83 
335 819 274 218 153 118 
306 616 250 57 108 147 
246 122 283 89 78 68 
197 609 297 95 120 156 
283 216 370 76 49 50 
323 659 278 106 112 122 
314 203 442 124 73 63 
318 454 307 52 61 77 
334 151 351 106 86 75 
283 47 309 116 106 99 
319 210 459 135 75 78 
281 996 248 137 107 80 
305 613 297 109 104 108 
306 219 438 98 45 54 
245 120 287 88 77 68 
299 793 297 197 149 117 
287 883 249 139 108 83 
327 518 299 131 147 167 
229 806 151 178 52 63 
218 541 347 67 96 149 
268 548 339 68 88 134 
246 121 284 88 77 68 
377 198 284 151 74 3 
247 120 284 87 76 67 
229 554 159 142 144 152 
253 577 338 147 158 173 
246 120 286 88 77 67 
288 566 169 150 161 183 
318 217 400 61 47 79 
412 197 406 147 64 0 
315 598 247 179 181 192 
244 967 222 128 89 59 
280 281 424 142 142 148 
175 425 283 142 141 147 
290 432 202 79 98 118 
393 189 441 108 97 86 
165 738 264 70 60 120 
362 675 291 133 140 153 
259 899 208 91 67 53 
172 449 229 78 101 124 
217 567 337 151 161 177 
247 124 280 90 79 69 
203 628 175 66 89 112 
118 666 133 137 98 67 
320 310 223 159 122 63 
232 472 166 45 73 100 
209 494 331 98 116 156 
298 85 213 120 98 77 
247 725 164 107 131 158 
374 296 368 79 140 182 
374 227 329 152 99 90 
355 341 335 164 164 173 
249 114 286 81 69 59 
323 442 251 140 149 164 
345 347 360 134 153 176 
347 767 337 113 94 71 
295 182 350 93 59 63 
380 184 409 94 52 9 
269 193 216 108 48 28 
224 995 243 135 115 96 
322 276 413 88 88 96 
337 198 457 139 113 90 
299 936 256 85 67 56 
194 705 101 120 139 188 
320 681 384 126 152 195 
290 761 206 106 68 60 
316 444 240 136 141 152 
216 494 350 73 103 153 
287 418 207 129 130 136 
316 340 214 108 117 129 
298 137 234 86 72 57 
211 449 294 84 96 129 
211 300 251 134 125 119 
162 500 236 80 101 136 
331 205 401 91 40 38 
278 601 338 126 126 134 
203 804 235 151 131 113 
201 358 230 111 34 20 
334 819 265 218 159 123 
307 599 237 88 89 103 
250 117 284 83 71 62 
354 315 301 114 125 139 
332 495 297 104 119 151 
230 986 279 100 76 52 
312 477 320 80 96 122 
203 784 259 170 119 61 
251 118 284 83 71 62 
201 635 170 72 108 149 
303 625 229 74 110 142 
173 422 249 120 113 110 
280 246 398 120 49 71 
326 792 229 128 122 121 
280 852 204 177 131 97 
196 755 114 151 165 208 
380 183 294 108 94 82 
267 456 388 92 112 163 
376 753 349 127 138 160 
317 347 400 91 88 95 
254 112 284 81 68 55 
192 654 294 102 105 112 
186 365 281 141 82 0 
170 662 105 81 117 146 
276 660 203 81 133 172 
299 104 206 118 94 68 
269 997 216 155 115 75 
339 452 316 158 166 181 
255 114 284 81 68 56 
221 467 317 99 110 125 
206 480 331 140 146 159 
269 334 437 158 159 168 
150 561 232 96 74 68 
320 624 229 131 108 122 
313 438 226 96 116 150 
339 153 350 105 85 74 
197 673 294 108 67 86 
118 662 142 154 108 79 
302 815 279 195 146 120 
137 697 94 100 75 68 
206 474 327 97 115 134 
259 37 233 110 83 63 
177 407 282 90 108 127 
303 251 452 89 66 74 
377 224 292 53 88 115 
304 144 293 99 76 58 
339 408 279 116 137 168 
327 216 426 100 39 48 
190 722 191 68 86 104 
250 509 177 112 128 150 
223 399 359 88 118 152 
210 673 175 136 140 152 
248 126 272 86 76 66 
178 761 112 141 166 208 
188 355 288 160 138 116 
318 173 199 139 58 61 
234 554 168 131 135 146 
238 264 317 116 116 121 
274 285 413 138 139 145 
249 713 165 92 130 163 
364 190 397 83 46 22 
223 960 308 151 116 100 
209 264 300 128 129 134 
383 197 307 119 107 94 
251 126 273 84 73 64 
199 628 295 140 138 145 
161 536 207 69 102 128 
210 258 301 140 135 136 
318 418 241 121 131 147 
263 119 209 113 99 88 
224 502 160 123 130 144 
336 513 270 48 76 108 
212 309 243 114 109 106 
328 758 330 164 129 92 
214 607 164 66 90 114 
248 124 279 91 79 70 
248 125 278 90 78 69 
213 394 309 70 86 124 
340 371 414 159 121 143 
344 668 284 71 76 90 
324 378 308 120 102 84 
336 156 315 103 87 74 
200 707 178 110 118 137 
279 255 211 150 145 148 
230 260 220 117 105 97 
195 635 150 112 127 151 
162 790 161 152 160 175 
276 597 170 127 146 170 
191 502 185 119 118 123 
218 551 336 105 135 167 
306 713 228 109 122 137 
355 795 288 182 156 129 
270 1001 261 124 102 84 
318 302 391 83 85 92 
312 386 409 199 171 145 
219 460 324 96 109 125 
281 414 393 92 108 140 
251 480 377 129 146 188 
230 387 392 88 115 140 
290 80 220 112 92 72 
321 275 395 66 71 82 
237 451 180 66 85 102 
179 577 189 34 49 60 
254 126 274 85 73 63 
127 639 130 96 86 78 
312 380 409 170 141 112 
206 920 277 141 109 83 
247 760 161 128 135 146 
252 125 277 87 75 66 
293 625 223 160 160 171 
200 399 214 134 61 0 
213 747 113 71 101 143 
349 709 356 164 81 80 
355 254 265 86 56 80 
253 124 279 87 75 66 
211 526 304 126 145 166 
291 494 178 95 110 127 
311 313 431 115 139 165 
249 534 189 105 114 126 
194 674 199 59 82 109 
343 756 264 110 100 92 
322 774 325 84 65 64 
316 489 211 167 167 174 
287 820 201 147 131 118 
182 560 186 80 85 91 
204 922 254 80 55 43 
113 603 195 136 101 82 
322 445 249 152 156 166 
182 758 187 106 118 133 
229 870 272 111 86 57 
307 612 232 54 98 132 
215 300 238 118 118 123 
217 591 157 116 105 104 
239 850 252 163 121 96 
348 748 269 139 107 63 
167 808 179 172 142 108 
240 982 301 93 72 55 
276 745 192 121 133 148 
308 600 304 165 160 162 
298 455 342 160 148 147 
311 398 409 197 165 132 
236 680 139 73 98 134 
350 255 396 77 28 30 
275 295 216 97 116 137 
250 482 370 123 145 188 
173 685 269 125 137 154 
225 375 206 111 95 78 
269 286 402 109 98 98 
348 700 360 170 90 101 
275 984 276 92 76 62 
222 418 306 141 141 148 
298 140 339 119 68 31 
266 978 293 96 73 55 
342 250 388 82 28 20 
316 566 240 172 159 152 
278 381 215 61 91 118 
207 692 173 119 128 145 
301 133 226 89 76 62 
314 790 219 135 106 74 
350 659 385 122 97 69 
349 347 382 169 143 117 
328 240 448 158 108 90 
334 189 445 123 89 73 
300 710 228 103 118 135 
306 437 392 161 138 126 
256 309 227 133 131 134 
189 475 194 124 125 130 
182 680 123 43 70 123 
267 232 224 77 98 117 
353 271 407 78 31 36 
147 615 218 196 144 132 
188 676 123 94 112 137 
129 587 221 114 93 72 
381 191 288 120 108 95 
206 668 186 45 46 97 
186 520 186 114 119 128 
232 760 306 118 111 109 
390 186 357 130 114 100 
254 123 280 87 75 66 
204 279 290 139 136 140 
376 183 331 79 68 57 
281 42 340 129 108 88 
338 390 264 53 91 145 
258 231 231 119 103 96 
310 363 396 100 87 80 
339 509 274 46 83 130 
344 337 305 85 110 132 
359 179 268 128 109 87 
168 585 259 106 88 77 
345 725 273 132 92 62 
144 721 130 123 125 156 
336 183 453 126 61 76 
257 124 218 132 81 18 
334 209 437 90 52 61 
271 781 182 131 107 77 
195 666 201 90 100 116 
269 307 421 94 121 148 
209 922 229 137 110 88 
299 656 223 73 107 143 
236 99 303 97 80 63 
287 139 332 111 67 40 
207 369 319 97 112 134 
248 916 204 71 57 47 
292 130 195 135 138 143 
334 454 309 109 118 160 
375 205 405 62 33 31 
293 732 329 175 161 154 
348 406 307 123 144 166 
335 146 392 109 97 89 
321 142 365 113 97 83 
337 521 284 135 149 168 
290 907 244 95 75 57 
238 99 302 98 81 64 
223 622 323 115 83 86 
330 385 349 130 144 167 
376 235 314 92 76 92 
315 488 236 147 148 154 
375 222 326 143 59 82 
301 70 213 120 96 74 
297 258 388 87 62 72 
343 281 230 114 131 151 
325 507 337 110 128 176 
208 462 340 127 138 155 
359 219 266 42 54 85 
384 291 403 90 135 169 
208 280 310 87 81 84 
243 356 217 130 127 128 
306 215 436 104 43 54 
233 362 380 98 107 127 
176 695 275 105 134 162 
209 646 174 38 94 130 
216 576 312 125 137 154 
180 704 206 87 98 127 
312 61 196 156 138 126 
310 261 454 111 90 104 
327 184 233 63 38 48 
165 751 252 158 56 74 
234 309 212 82 113 141 
380 760 332 155 132 112 
395 219 371 112 97 100 
340 776 253 117 102 89 
345 276 230 104 56 55 
205 678 189 50 82 108 
323 265 405 74 61 74 
382 709 312 132 30 27 
247 816 163 99 85 89 
227 367 191 128 98 84 
344 334 302 119 107 104 
318 380 217 86 113 144 
206 667 188 34 47 95 
288 460 391 147 163 191 
256 505 180 68 98 129 
346 223 395 62 42 39 
293 256 441 112 36 63 
377 638 339 61 87 109 
216 514 159 77 103 129 
339 310 231 171 138 96 
314 628 317 76 92 109 
341 316 237 190 153 106 
195 320 299 157 134 111 
274 349 219 158 114 69 
188 339 256 157 134 111 
244 496 170 111 126 149 
162 529 236 98 113 132 
202 571 296 126 135 152 
230 330 339 85 111 136 
351 317 259 135 147 163 
166 527 198 106 110 117 
388 747 338 163 112 109 
198 816 209 124 104 89 
186 694 282 87 124 158 
241 387 344 93 103 131 
239 104 300 96 79 61 
332 472 308 103 115 168 
264 918 202 65 51 42 
412 681 394 134 148 198 
170 809 152 204 10 58 
274 585 154 164 166 175 
326 183 233 61 44 46 
374 220 343 132 125 122 
244 1009 219 104 77 48 
224 475 295 91 101 113 
257 700 344 166 120 87 
225 341 195 164 144 124 
305 670 380 112 143 175 
246 568 165 139 133 130 
162 486 243 156 149 149 
239 111 298 85 72 58 
203 401 213 129 69 0 
203 694 109 124 138 158 
212 477 347 78 105 146 
287 204 202 143 25 31 
236 108 302 87 73 58 
236 108 303 88 73 58 
216 923 310 106 80 64 
192 523 277 98 127 167 
285 112 194 152 134 118 
327 388 279 38 58 81 
359 325 328 173 169 173 
214 443 345 100 120 145 
270 40 206 109 89 69 
406 662 359 99 121 150 
330 309 399 91 91 96 
324 380 373 166 133 94 
346 207 397 64 41 43 
312 56 192 128 113 101 
136 613 217 196 150 130 
242 334 385 124 64 87 
187 363 285 145 60 0 
239 589 345 18 80 144 
344 344 256 123 134 156 
276 601 172 102 133 164 
146 600 209 81 75 71 
305 622 230 72 108 139 
275 246 214 148 139 136 
224 401 194 112 105 102 
235 97 306 101 83 64 
384 682 322 55 63 74 
249 735 165 105 119 137 
235 98 305 100 82 64 
353 306 266 145 146 153 
217 954 307 197 149 126 
267 683 343 80 128 164 
216 548 313 118 123 140 
189 743 187 101 108 119 
369 682 396 209 210 221 
344 795 255 73 109 137 
160 582 249 93 77 78 
265 18 199 150 135 124 
413 683 369 120 138 174 
280 38 206 100 87 79 
156 736 223 136 153 174 
270 956 215 79 58 42 
210 940 302 170 133 106 
274 636 365 156 121 104 
208 632 161 104 124 146 
366 166 365 114 95 80 
393 694 396 202 205 217 
337 370 351 161 29 75 
394 277 413 73 124 161 
303 392 403 174 147 120 
274 985 273 102 85 70 
308 502 182 182 181 188 
364 751 351 153 120 108 
164 700 239 123 131 143 
177 611 199 30 58 83 
299 910 266 100 84 70 
270 180 215 37 49 66 
185 750 192 110 124 142 
379 688 396 140 150 191 
242 656 343 92 97 109 
382 641 336 53 79 101 
241 915 214 66 52 44 
329 540 255 138 140 149 
234 101 306 100 83 66 
369 321 399 173 171 176 
308 268 209 137 142 154 
267 296 402 141 143 151 
207 723 113 75 105 144 
235 102 305 95 79 62 
274 949 214 78 61 47 
269 453 192 77 95 117 
290 287 446 118 131 148 
234 102 307 100 83 65 
280 440 200 83 98 113 
340 811 263 197 141 108 
287 767 198 107 77 82 
212 543 300 120 129 144 
350 160 404 129 64 0 
238 468 171 72 96 117 
149 601 233 179 131 122 
377 224 293 68 82 106 
345 209 399 51 49 55 
268 83 234 107 87 67 
380 285 377 154 68 106 
357 162 354 102 85 71 
275 46 209 96 78 56 
290 469 348 69 99 160 
169 620 234 84 87 106 
239 348 363 165 125 75 
234 101 310 106 88 69 
288 631 353 90 84 81 
260 495 379 132 154 199 
268 14 243 96 85 77 
292 267 206 153 151 154 
266 159 329 86 72 62 
339 705 348 107 66 64 
269 979 290 87 68 58 
231 460 173 106 108 113 
347 401 308 153 158 170 
182 571 266 70 110 141 
192 335 293 157 135 112 
181 760 195 86 92 99 
177 540 252 111 113 122 
349 339 266 102 119 143 
210 466 346 112 130 155 
326 342 417 93 75 87 
360 166 348 103 85 71 
203 501 316 95 121 163 
376 249 351 139 72 74 
283 760 196 107 31 32 
338 245 389 79 34 23 
315 499 325 90 96 107 
297 366 408 120 131 146 
314 143 372 113 93 78 
138 572 210 107 96 87 
303 531 187 90 122 166 
204 660 143 101 125 152 
255 347 223 107 114 124 
203 714 114 117 135 174 
290 31 216 104 88 72 
284 797 292 215 159 130 
345 194 253 61 47 42 
344 360 325 128 149 175 
234 340 339 142 143 151 
313 225 207 83 116 144 
140 567 222 112 86 69 
185 597 192 90 99 113 
362 290 293 138 28 64 
234 96 319 111 91 72 
321 282 419 92 100 113 
322 829 252 219 163 129 
289 259 430 73 109 133 
398 242 432 131 79 99 
147 565 230 102 75 67 
279 934 299 148 112 88 
342 198 217 66 96 124 
273 671 342 116 140 166 
234 99 318 110 90 70 
321 165 464 148 66 3 
171 456 224 67 97 124 
214 465 173 87 101 120 
242 420 414 134 153 177 
262 688 184 115 58 76 
233 100 314 109 90 70 
278 13 345 56 50 45 
239 463 396 135 152 185 
217 975 286 96 77 62 
233 102 312 109 90 70 
253 626 343 51 54 59 
196 682 196 23 55 97 
335 625 316 66 103 134 
276 51 289 103 94 88 
331 368 375 173 143 110 
403 698 391 194 204 223 
164 478 257 75 95 139 
302 621 277 82 87 95 
286 788 298 210 155 124 
178 721 204 60 69 79 
215 536 314 111 134 158 
328 154 448 118 106 96 
344 239 225 150 148 152 
234 100 317 110 90 70 
217 417 197 91 100 111 
348 333 261 99 121 148 
352 707 359 122 45 52 
190 688 199 70 88 107 
263 31 239 108 72 63 
277 50 290 102 94 88 
313 593 292 120 139 161 
234 102 317 110 91 69 
324 270 420 80 75 84 
212 955 234 123 96 71 
343 257 225 83 119 149 
268 698 339 166 87 110 
327 810 233 164 123 84 
398 731 352 201 202 212 
333 461 317 128 144 181 
314 487 219 100 118 149 
305 335 426 96 138 173 
320 201 458 124 100 101 
192 315 263 161 139 114 
222 719 122 63 101 151 
338 623 320 70 104 133 
362 632 338 14 61 88 
333 181 222 68 59 68 
121 661 125 137 101 72 
248 661 352 80 87 118 
404 685 399 127 143 205 
304 436 348 184 72 3 
311 421 325 91 87 101 
114 606 204 149 108 93 
320 459 308 54 66 79 
203 800 240 186 156 126 
365 308 379 163 165 176 
235 106 306 96 80 63 
255 722 337 186 158 152 
258 521 363 139 151 176 
182 709 97 135 145 180 
323 382 356 179 145 106 
157 679 88 55 84 106 
218 409 199 110 97 83 
158 707 247 126 138 153 
355 345 419 173 174 184 
205 483 316 128 133 143 
342 694 384 143 170 205 
271 974 294 108 90 77 
317 212 401 103 36 45 
373 275 346 94 91 112 
285 137 279 83 65 50 
324 506 322 132 146 175 
205 287 307 91 111 132 
322 586 241 136 164 196 
393 736 332 168 44 48 
324 631 344 57 79 98 
227 298 201 79 117 154 
349 173 400 101 99 99 
262 990 217 133 103 63 
204 547 291 126 131 142 
240 382 409 127 139 156 
259 916 202 65 55 47 
402 208 382 155 53 58 
136 627 174 97 78 70 
321 142 197 100 87 93 
173 802 141 186 196 211 
234 394 202 71 97 120 
367 311 354 82 141 183 
367 236 413 38 39 49 
323 417 248 109 127 150 
359 171 277 145 128 114 
387 669 380 94 79 66 
234 110 304 91 76 60 
402 236 384 129 52 32 
348 259 258 84 29 36 
181 643 210 56 68 94 
334 790 238 130 112 97 
176 457 213 84 108 132 
298 564 203 151 165 186 
282 45 214 84 69 51 
297 956 245 90 69 54 
275 249 341 108 120 135 
302 247 387 92 31 40 
258 611 331 127 130 139 
361 191 270 146 66 5 
299 906 261 129 101 77 
227 723 327 93 101 117 
233 109 311 108 89 68 
190 710 197 46 58 107 
280 892 296 169 120 93 
315 426 235 117 134 155 
241 486 167 80 103 128 
276 613 331 64 111 146 
233 110 311 107 88 67 
208 494 175 126 123 126 
249 458 273 130 132 138 
282 583 177 88 117 165 
351 350 347 171 169 175 
250 492 353 79 102 160 
229 884 253 144 112 86 
123 646 128 110 94 79 
366 174 288 118 103 92 
335 229 396 55 39 26 
117 601 214 136 103 86 
212 275 257 62 86 106 
279 996 235 150 125 101 
306 668 229 176 167 183 
404 248 415 152 45 73 
268 283 363 76 112 141 
220 416 195 95 96 101 
234 792 279 202 150 127 
344 195 219 101 97 111 
213 900 292 162 123 97 
203 353 234 105 53 32 
284 404 399 69 89 137 
235 475 390 98 118 176 
178 390 271 117 108 103 
180 743 105 119 127 201 
233 105 316 111 91 71 
337 682 388 128 151 185 
293 810 282 211 156 126 
179 688 213 114 117 130 
178 639 260 133 130 134 
410 201 426 152 71 0 
208 650 313 48 39 47 
195 332 305 159 132 103 
321 223 460 131 76 88 
283 431 392 72 71 76 
233 687 133 87 113 149 
257 342 400 111 103 113 
252 323 225 113 117 126 
234 106 318 112 91 70 
163 596 243 104 79 84 
323 262 395 80 50 55 
340 791 247 140 136 137 
304 440 190 83 101 119 
219 731 313 153 134 118 
211 663 328 137 100 59 
328 643 357 23 42 59 
340 357 253 49 90 130 
215 755 114 79 71 132 
313 436 220 118 136 158 
278 897 220 105 81 59 
134 619 180 95 83 76 
342 367 414 205 176 140 
228 1000 263 132 108 81 
239 470 388 161 167 194 
299 237 202 89 127 159 
226 291 202 75 113 146 
179 406 249 99 88 78 
362 692 393 125 153 200 
346 626 322 79 107 132 
268 93 309 86 69 50 
176 766 236 107 100 130 
300 623 295 48 63 76 
308 425 349 194 163 131 
314 151 391 134 73 1 
167 722 265 112 129 146 
331 519 293 84 106 141 
234 108 318 112 91 70 
337 727 340 100 102 113 
240 679 342 166 142 118 
157 717 251 153 162 178 
364 337 407 173 172 180 
172 439 234 52 84 112 
289 787 204 140 133 130 
280 637 367 139 113 93 
367 306 372 136 93 106 
230 434 310 97 113 137 
211 447 350 97 124 150 
299 519 335 87 99 144 
269 227 221 88 78 90 
227 840 176 211 166 112 
183 549 266 144 143 148 
378 287 362 104 81 109 
236 676 135 83 118 165 
234 113 303 88 74 60 
286 387 212 81 103 126 
258 208 325 117 89 80 
228 646 131 58 95 123 
272 942 309 160 123 98 
260 321 226 84 100 118 
359 743 354 59 80 115 
166 787 176 166 88 93 
127 621 204 160 115 98 
287 970 275 91 73 59 
203 931 246 90 75 62 
346 355 351 160 160 168 
325 210 426 100 35 47 
219 981 253 68 46 36 
220 435 377 111 136 167 
214 438 347 130 138 153 
335 147 382 110 93 80 
209 328 238 106 41 35 
214 703 116 55 105 141 
198 706 150 60 68 128 
301 212 418 101 40 42 
282 64 297 103 91 80 
162 769 162 140 149 163 
293 441 398 160 139 118 
273 136 295 85 61 40 
166 447 250 112 120 133 
239 501 318 91 112 163 
224 597 154 83 115 142 
399 652 366 127 133 145 
143 732 112 180 184 204 
266 873 302 152 118 87 
306 616 248 56 103 141 
291 723 331 151 127 111 
353 645 304 96 108 124 
341 406 282 76 108 153 
290 218 396 107 42 46 
225 470 165 127 129 134 
237 458 401 148 161 180 
187 642 121 84 122 154 
359 745 352 74 90 114 
300 48 198 120 105 89 
290 959 278 95 77 63 
303 542 198 124 142 172 
290 884 230 103 73 49 
307 114 190 145 111 88 
278 392 213 100 111 125 
261 479 182 122 127 137 
405 195 386 159 83 3 
296 435 355 129 53 2 
212 958 240 81 63 52 
319 604 236 180 182 194 
287 632 217 164 161 166 
209 480 341 135 148 166 
291 379 209 57 92 129 
207 471 185 73 98 121 
222 974 235 111 78 53 
310 672 250 130 132 139 
172 762 227 177 104 100 
318 701 244 119 131 147 
372 230 334 142 120 100 
229 769 296 182 154 129 
229 368 373 119 130 146 
269 20 201 153 137 125 
202 837 188 192 163 133 
310 745 328 152 134 119 
215 919 225 152 121 89 
311 218 448 124 52 68 
320 341 398 64 74 85 
307 499 328 112 122 143 
269 375 432 132 151 174 
313 455 224 113 133 156 
241 1005 270 124 89 62 
198 627 191 28 50 94 
304 334 428 84 137 177 
225 391 193 124 111 99 
317 482 317 72 76 83 
184 408 223 153 70 0 
204 275 288 140 137 141 
219 716 114 55 71 96 
315 528 227 99 117 142 
300 452 319 153 147 147 
256 730 334 176 156 140 
229 361 195 117 100 85 
397 192 375 147 81 3 
353 274 407 83 31 43 
265 347 405 129 86 108 
320 482 245 103 120 139 
194 493 283 53 72 139 
311 600 289 141 155 175 
348 198 255 67 38 34 
373 654 349 39 63 93 
145 614 209 190 135 125 
283 666 217 144 146 155 
376 178 350 114 96 82 
302 768 214 115 98 83 
298 104 196 116 95 73 
235 127 293 101 88 76 
193 737 171 95 101 139 
401 201 444 166 73 3 
376 301 397 155 117 118 
278 235 208 78 108 135 
344 348 360 113 137 163 
314 156 249 82 71 60 
282 872 215 195 146 112 
131 601 225 169 127 110 
205 937 289 134 107 87 
300 766 321 152 138 127 
237 123 295 95 83 71 
303 95 206 117 85 68 
232 983 218 124 98 68 
210 657 188 30 47 94 
218 932 313 175 134 110 
335 452 270 108 137 171 
238 121 294 96 84 71 
282 600 192 179 175 180 
224 981 282 78 63 55 
321 273 435 165 75 4 
286 982 258 159 128 94 
268 919 311 143 113 87 
259 14 246 108 99 94 
281 139 313 107 69 48 
260 87 206 132 105 76 
215 529 158 144 146 153 
380 178 358 123 102 86 
238 122 295 96 83 70 
395 234 439 101 75 104 
269 530 173 142 141 143 
270 126 207 162 62 0 
256 1009 225 165 140 116 
269 100 305 79 64 47 
300 673 342 101 138 170 
322 658 278 105 112 123 
341 150 378 110 84 69 
366 783 306 195 168 144 
353 154 377 99 80 68 
268 58 292 100 89 80 
243 861 215 195 147 115 
324 723 333 140 147 159 
272 499 367 137 152 179 
267 501 367 140 152 180 
188 712 297 211 176 138 
310 171 400 103 47 43 
263 127 264 82 71 61 
213 902 259 132 100 72 
211 415 205 117 107 99 
206 919 276 129 99 76 
192 349 299 169 140 109 
238 610 144 145 141 142 
305 342 401 83 71 81 
341 233 220 101 119 140 
332 188 227 74 27 27 
214 358 321 83 90 113 
271 117 203 124 106 87 
318 146 213 100 52 5 
210 945 232 97 77 62 
278 610 332 76 112 141 
318 531 324 94 113 159 
295 120 192 150 61 1 
329 152 329 105 85 72 
309 556 338 119 145 177 
283 893 284 169 125 96 
263 806 172 129 117 108 
231 426 323 96 115 138 
198 468 290 65 86 129 
361 322 428 127 91 104 
255 929 322 162 133 108 
352 349 385 164 141 116 
408 228 397 45 44 51 
268 655 189 165 165 172 
281 886 263 159 116 88 
275 890 303 168 122 94 
256 844 255 167 123 98 
339 157 323 93 76 64 
291 475 372 153 167 192 
197 630 291 136 135 138 
357 779 276 148 140 137 
395 239 375 145 64 49 
169 571 258 139 98 94 
330 442 260 124 142 165 
261 564 159 116 119 125 
294 686 336 150 45 54 
225 963 307 138 110 97 
263 331 415 131 130 134 
291 366 421 176 171 174 
235 120 300 87 75 63 
232 666 125 120 138 170 
200 260 274 53 72 99 
309 586 238 76 104 129 
234 120 302 92 79 66 
234 120 303 93 80 67 
338 387 263 75 108 154 
279 947 215 68 54 43 
175 582 264 90 69 71 
234 122 300 86 74 61 
225 378 373 79 107 132 
206 508 316 143 157 180 
228 404 184 51 94 134 
260 853 196 230 162 121 
230 769 296 170 152 137 
233 125 298 87 75 64 
246 769 160 166 134 138 
383 672 327 32 47 96 
314 325 387 72 81 92 
217 574 328 107 123 151 
359 682 393 180 186 202 
232 127 298 91 80 69 
305 144 304 102 77 57 
300 398 402 174 147 119 
270 258 336 118 112 108 
351 339 358 171 169 176 
206 697 166 140 141 148 
287 127 234 83 69 56 
233 833 237 187 131 107 
241 626 143 104 127 156 
235 125 296 98 84 71 
235 575 148 83 106 131 
138 599 202 80 69 65 
272 573 157 116 128 143 
234 125 298 90 77 65 
335 168 409 115 112 110 
309 517 194 147 157 174 
324 390 373 150 108 60 
210 935 227 84 69 59 
317 813 297 204 152 122 
213 613 168 57 75 95 
324 180 233 57 52 47 
300 390 200 51 94 128 
321 276 433 167 77 4 
348 643 320 78 98 118 
171 420 260 115 120 131 
259 173 240 95 46 49 
194 385 306 82 100 121 
271 870 281 128 87 55 
329 421 256 127 142 163 
233 124 303 90 76 61 
236 325 348 109 125 144 
366 314 350 84 142 185 
386 709 390 156 175 218 
394 241 374 148 68 56 
299 522 172 119 131 150 
313 549 225 156 167 185 
300 143 294 100 75 55 
278 607 334 111 47 53 
265 328 428 105 125 146 
329 366 374 160 131 97 
372 744 358 176 144 131 
191 545 274 155 150 152 
196 398 215 131 62 0 
284 950 218 112 88 64 
338 417 282 103 131 171 
174 797 136 197 204 219 
335 632 348 69 95 126 
143 664 150 118 85 76 
292 868 225 173 128 98 
185 790 217 135 80 85 
310 151 359 133 66 3 
222 891 260 119 94 65 
164 733 262 56 99 138 
165 531 237 125 131 142 
280 623 324 60 95 123 
198 646 198 75 85 119 
314 322 399 69 69 73 
329 395 407 173 82 73 
238 489 392 174 182 199 
250 348 408 140 66 96 
324 523 303 84 109 154 
212 405 305 72 86 122 
321 514 319 158 164 178 
298 625 305 45 57 69 
115 647 155 146 103 77 
238 499 163 95 117 145 
318 532 312 49 83 152 
185 749 193 111 126 145 
331 468 330 97 115 138 
231 125 308 102 83 62 
213 732 297 151 141 136 
270 260 338 118 121 128 
309 605 255 88 73 102 
350 344 422 131 148 169 
177 618 188 55 80 123 
315 451 216 167 167 174 
154 615 222 172 123 118 
318 499 237 125 135 149 
254 495 378 44 69 137 
214 499 345 91 115 152 
321 277 405 93 94 102 
264 300 397 134 136 144 
332 381 348 149 131 148 
213 294 315 116 114 117 
300 434 194 138 144 154 
234 112 304 90 76 60 
276 628 327 36 55 70 
234 113 304 90 75 60 
237 409 411 47 91 142 
205 484 327 166 166 173 
234 113 306 97 81 64 
211 511 332 135 145 160 
274 893 305 167 123 95 
298 340 210 108 120 135 
312 485 227 101 129 158 
242 312 219 148 142 140 
304 60 185 148 133 121 
259 123 247 131 95 80 
308 600 275 170 165 169 
285 269 425 96 85 82 
232 411 194 62 91 127 
348 328 303 157 156 162 
208 832 161 110 143 173 
307 314 435 123 145 170 
327 338 227 123 119 119 
310 667 250 117 115 118 
250 475 386 120 133 182 
231 406 189 43 91 145 
292 598 212 136 152 174 
233 114 308 102 84 66 
353 256 251 103 120 139 
161 728 152 128 132 140 
226 343 196 144 123 101 
286 963 280 112 95 80 
319 535 336 98 122 175 
400 668 360 68 83 98 
243 583 348 67 130 174 
327 450 257 133 146 166 
301 669 230 147 152 172 
309 143 359 128 70 5 
233 117 306 98 82 64 
224 416 174 66 99 132 
182 687 127 59 95 126 
254 329 404 124 28 58 
233 119 305 94 79 64 
246 494 343 121 138 174 
285 467 382 165 181 211 
217 297 315 94 80 82 
261 114 313 70 60 49 
310 160 363 94 69 62 
203 935 282 101 80 64 
234 116 305 94 79 63 
224 384 362 55 96 126 
257 106 212 127 102 74 
176 533 193 73 83 95 
353 362 397 161 0 74 
211 904 287 162 123 95 
232 116 308 104 86 66 
330 291 391 90 90 94 
294 67 194 131 98 52 
220 591 335 123 147 185 
211 631 171 38 86 117 
342 372 340 196 165 132 
238 982 218 107 83 54 
240 327 373 157 121 79 
238 302 334 62 93 118 
337 750 258 93 79 65 
271 271 381 138 137 141 
268 125 207 163 65 0 
223 262 318 90 103 118 
232 118 311 109 88 66 
302 625 265 53 64 76 
329 187 438 91 56 52 
279 564 159 168 167 172 
212 668 116 107 115 149 
149 665 100 95 84 74 
229 406 184 38 95 148 
163 552 201 46 66 91 
189 644 138 55 88 132 
170 686 89 76 106 155 
164 487 256 166 158 157 
316 441 192 82 115 152 
210 691 323 160 107 88 
218 912 303 118 91 84 
246 347 391 113 105 121 
357 283 430 115 45 61 
324 359 288 96 61 81 
269 244 221 136 128 127 
315 505 329 131 137 148 
359 702 289 137 32 35 
272 984 235 77 52 30 
227 452 392 90 119 162 
350 322 301 91 119 145 
316 262 451 120 66 86 
233 113 316 113 91 67 
374 271 436 161 128 121 
309 657 249 69 103 131 
169 456 270 89 106 140 
185 647 207 75 83 125 
357 167 335 84 70 60 
350 235 391 49 39 39 
213 460 184 91 100 110 
324 554 295 119 138 160 
161 756 116 173 181 199 
280 105 197 92 78 64 
316 252 454 138 96 91 
197 719 106 101 125 163 
385 291 412 178 38 96 
291 206 376 71 56 65 
302 455 379 153 133 112 
411 686 387 122 141 189 
344 360 326 128 150 175 
373 226 333 153 92 88 
388 218 364 71 97 120 
269 149 214 113 43 32 
190 425 293 117 128 145 
344 215 245 97 52 46 
194 267 272 147 146 150 
208 265 297 144 139 140 
260 663 152 150 147 154 
271 54 337 122 96 80 
213 947 226 110 88 67 
136 627 177 99 78 69 
134 710 106 56 92 158 
145 565 215 99 91 85 
207 280 266 117 116 117 
278 879 275 133 95 65 
259 366 378 100 114 132 
246 831 169 206 173 142 
376 641 330 48 69 98 
307 682 357 138 161 188 
381 729 310 151 121 86 
377 288 381 138 122 143 
229 748 123 135 136 142 
150 649 133 101 90 80 
325 400 406 219 184 149 
229 779 285 198 147 121 
293 193 202 88 41 28 
239 713 332 131 77 58 
309 404 311 45 83 130 
187 393 235 168 141 113 
261 325 226 148 126 101 
124 640 132 104 89 73 
235 117 319 114 92 69 
406 227 391 70 55 75 
281 462 357 91 79 71 
367 276 294 63 117 155 
234 119 317 113 91 67 
357 779 278 99 99 103 
214 574 308 90 113 138 
204 799 131 181 202 225 
366 246 423 72 18 31 
318 379 360 170 143 116 
236 117 319 114 92 69 
178 714 209 86 95 107 
267 114 305 70 59 48 
218 973 240 106 85 70 
179 443 216 70 97 122 
177 656 117 38 74 100 
233 120 305 95 79 63 
258 255 228 107 116 130 
224 879 266 125 99 72 
378 164 396 96 78 71 
289 166 203 102 28 32 
257 94 226 106 87 67 
269 765 180 44 53 96 
354 180 263 131 67 0 
172 548 193 107 104 104 
381 205 429 122 41 7 
343 154 361 98 80 70 
308 606 255 75 136 176 
379 696 394 154 171 207 
313 774 219 154 140 132 
319 416 241 117 124 138 
374 239 438 98 109 124 
157 750 152 98 107 141 
300 163 198 121 27 43 
258 820 270 182 132 113 
246 343 390 102 106 116 
232 399 197 62 93 130 
335 359 374 158 131 102 
391 650 339 36 76 106 
195 588 292 122 134 151 
267 224 223 102 59 60 
362 320 356 78 141 185 
350 300 421 120 123 129 
232 580 345 47 68 94 
330 366 417 172 165 164 
344 312 406 100 96 96 
343 495 292 98 120 165 
335 475 328 168 175 190 
232 122 310 107 87 66 
187 798 134 202 210 227 
304 415 306 79 96 132 
270 611 150 77 119 153 
132 709 117 147 162 188 
299 363 203 55 86 114 
232 125 304 93 77 61 
250 357 415 147 90 112 
320 516 314 111 126 159 
359 320 428 150 127 127 
298 473 370 112 135 190 
206 832 201 151 130 111 
348 160 337 90 74 65 
327 194 467 115 100 115 
163 472 252 127 129 137 
283 906 223 81 62 51 
315 141 215 96 87 80 
377 230 304 67 76 93 
295 109 193 173 150 132 
316 643 263 139 144 156 
290 98 222 105 86 66 
298 196 386 74 50 57 
225 572 345 88 120 168 
282 24 237 129 117 111 
334 407 382 171 125 82 
219 712 115 41 72 103 
205 934 288 139 111 85 
186 473 197 84 102 121 
303 414 405 186 75 15 
245 739 161 89 116 152 
279 925 211 84 68 54 
188 467 282 133 144 161 
279 655 208 84 129 166 
388 748 343 196 31 52 
395 667 358 70 83 98 
260 239 229 121 114 112 
320 630 261 74 112 144 
249 368 369 125 125 141 
229 394 325 67 90 137 
258 138 232 127 108 95 
380 650 330 53 84 151 
229 617 152 79 96 112 
198 632 159 86 114 155 
341 282 397 89 87 89 
262 987 286 126 99 81 
234 120 315 112 90 66 
327 384 373 171 138 100 
312 220 453 121 54 69 
288 251 422 107 69 87 
