ply
format ascii 1.0
comment Created by CloudCompare v2.11.1 (Anoia)
comment Created 2/28/22 9:42 PM
obj_info Generated by CloudCompare!
element vertex 2014
property float x
property float y
property float z
property uchar red
property uchar green
property uchar blue
end_header
176 655 233 141 141 148 
155 727 114 102 119 168 
139 676 126 181 124 103 
296 958 272 92 71 53 
258 863 278 119 84 50 
285 791 296 209 157 126 
358 317 383 170 169 178 
325 363 242 75 121 157 
288 973 267 85 69 58 
274 550 345 120 134 152 
346 713 365 60 101 144 
296 42 209 105 92 79 
299 551 189 138 158 183 
131 656 138 177 126 102 
219 212 236 117 97 89 
328 154 254 92 79 63 
239 643 137 85 104 121 
260 774 161 148 93 99 
220 209 235 105 100 102 
352 637 301 128 134 145 
384 253 453 134 89 86 
202 726 155 84 108 139 
247 561 347 62 89 147 
221 211 233 92 99 109 
129 655 119 135 96 68 
172 602 248 94 121 151 
249 884 222 161 123 92 
394 250 396 131 39 68 
308 407 409 223 186 147 
369 765 341 152 137 128 
309 534 209 116 141 169 
275 253 221 141 136 136 
212 472 331 73 103 146 
306 931 265 132 98 80 
365 675 406 78 119 172 
199 332 252 135 25 71 
288 447 362 94 67 53 
222 211 233 90 96 108 
208 585 319 107 128 151 
196 442 191 125 127 134 
189 661 288 148 99 108 
285 917 286 145 97 73 
358 292 298 160 24 62 
185 421 225 92 85 79 
289 936 288 88 66 49 
313 699 254 123 130 141 
294 881 245 148 112 86 
238 1004 220 117 86 61 
252 899 213 88 73 61 
323 425 263 111 130 152 
221 215 233 128 106 89 
186 756 263 144 116 115 
190 582 179 43 58 71 
331 387 385 181 151 118 
324 250 408 67 36 36 
216 460 349 78 103 147 
371 661 362 21 55 80 
283 831 197 96 98 104 
248 341 208 111 121 135 
273 66 331 116 98 81 
261 509 363 119 142 194 
216 538 157 71 81 92 
189 684 300 147 102 34 
306 840 250 213 155 124 
310 580 242 70 102 130 
336 738 347 140 101 108 
351 651 292 75 107 154 
246 465 392 89 105 181 
332 199 442 52 56 70 
154 719 117 128 133 148 
354 268 421 39 35 59 
226 909 228 103 80 51 
207 577 156 144 142 146 
228 454 293 89 101 123 
379 218 330 107 118 130 
173 675 255 135 142 155 
381 694 402 216 219 232 
184 665 114 93 100 111 
213 477 287 84 101 151 
198 424 293 66 83 129 
327 185 415 59 51 63 
367 770 317 142 123 105 
165 686 236 100 118 140 
342 365 401 173 128 79 
391 218 379 50 74 97 
359 330 411 180 176 182 
327 415 216 87 111 134 
229 351 316 90 108 134 
177 768 216 171 149 129 
400 234 403 133 81 83 
351 332 393 148 97 83 
205 806 135 213 79 99 
219 264 250 72 99 123 
332 374 329 108 129 154 
139 601 167 96 88 83 
318 727 232 129 33 35 
290 949 223 67 53 44 
188 636 194 133 152 183 
294 41 209 112 98 84 
195 679 194 86 100 119 
217 655 328 53 52 51 
261 297 411 113 117 125 
184 396 288 103 114 138 
252 316 218 155 149 149 
192 541 268 129 139 153 
287 106 198 121 107 95 
147 634 116 94 85 77 
318 284 407 81 80 83 
238 631 147 48 55 81 
142 681 101 157 107 78 
211 921 302 137 105 85 
368 277 302 93 121 151 
238 839 233 184 140 115 
277 16 342 85 75 67 
402 670 380 89 118 167 
170 795 161 142 140 149 
196 341 257 139 119 96 
338 790 249 89 95 103 
263 122 250 98 76 65 
165 458 247 133 133 140 
208 764 273 175 153 136 
301 787 212 131 116 105 
325 160 465 114 103 95 
282 639 368 128 106 86 
209 932 230 84 71 61 
262 19 375 75 60 56 
304 115 210 96 83 70 
242 936 208 66 52 41 
322 371 371 185 156 126 
186 756 167 101 119 138 
291 975 262 104 84 65 
329 645 359 31 47 75 
271 411 207 49 80 108 
261 100 230 93 77 61 
352 776 337 200 175 155 
183 721 89 167 166 202 
217 438 360 77 106 148 
173 681 220 130 130 137 
195 675 195 73 84 104 
373 194 425 106 49 9 
290 892 234 94 69 54 
286 200 361 77 54 51 
319 454 311 49 61 82 
135 576 219 121 96 78 
349 304 295 109 118 130 
295 867 226 170 126 95 
327 431 300 107 114 146 
251 626 346 91 86 84 
222 425 192 84 100 118 
214 720 308 137 119 104 
307 194 206 107 33 38 
335 350 372 161 8 66 
180 684 205 83 94 113 
294 446 349 117 95 92 
322 156 445 114 102 93 
346 348 395 141 24 82 
330 219 409 42 51 61 
309 902 262 124 107 93 
250 518 156 88 101 116 
216 220 239 127 103 91 
334 190 464 135 61 73 
207 502 280 104 122 145 
257 428 192 98 107 119 
277 558 347 154 163 180 
193 325 241 168 143 116 
359 288 297 41 83 123 
217 222 236 136 108 100 
246 297 201 68 87 104 
216 442 189 122 126 135 
367 232 447 107 89 93 
334 745 262 132 112 91 
354 164 349 82 63 52 
275 43 321 81 60 45 
309 388 367 145 104 74 
195 548 278 167 160 160 
370 291 333 157 81 90 
227 361 379 114 126 142 
298 846 250 199 145 116 
191 353 300 129 102 86 
221 218 232 136 107 74 
335 213 402 47 46 49 
306 754 219 68 89 108 
320 431 254 114 130 157 
235 378 408 156 155 162 
354 639 325 25 71 121 
326 282 403 92 89 89 
322 445 260 166 167 174 
329 444 286 139 146 158 
232 419 313 106 120 143 
267 125 260 84 72 61 
209 686 327 137 109 79 
320 359 207 74 98 122 
210 914 293 136 110 83 
261 58 235 109 87 65 
270 699 186 148 149 157 
229 366 333 79 104 140 
243 1008 235 122 92 71 
316 604 244 153 154 166 
313 702 249 120 126 135 
393 697 351 99 113 133 
345 158 358 100 71 52 
314 388 309 81 94 129 
213 209 247 99 87 108 
315 823 272 216 160 132 
261 288 381 129 131 139 
197 382 208 145 113 65 
194 340 236 159 139 116 
222 394 386 56 105 139 
236 409 181 72 91 109 
240 537 358 108 121 179 
260 631 145 141 149 164 
377 178 366 93 65 46 
296 686 230 96 112 133 
299 337 211 135 69 82 
300 421 356 175 142 106 
198 753 103 163 174 211 
301 962 257 123 99 76 
373 176 366 98 61 50 
235 280 217 103 119 138 
185 652 302 79 68 58 
284 400 210 84 101 118 
215 213 242 121 115 122 
272 544 155 122 137 156 
287 906 222 77 58 50 
204 932 283 132 107 83 
204 680 325 175 140 98 
271 476 373 107 132 181 
284 894 278 160 120 90 
203 943 262 85 69 56 
196 712 89 121 127 164 
396 226 395 102 81 89 
211 707 302 114 114 118 
342 209 224 119 5 66 
358 315 323 170 169 175 
316 163 454 130 97 48 
293 595 325 134 133 138 
323 273 224 145 145 151 
223 938 316 179 138 115 
273 820 274 197 146 123 
198 281 301 135 134 140 
319 414 390 208 170 126 
298 858 223 186 139 106 
392 200 382 145 76 5 
192 354 302 132 116 105 
352 320 283 126 140 158 
266 748 167 150 153 163 
310 575 308 120 137 157 
214 215 245 119 121 130 
133 594 163 103 94 87 
213 208 248 105 82 108 
282 474 345 105 116 167 
312 162 373 111 77 66 
167 675 238 91 103 119 
227 663 116 24 64 104 
359 166 364 92 76 65 
169 625 207 133 155 176 
388 727 341 160 53 63 
167 747 146 88 97 141 
233 336 373 113 87 99 
294 632 228 135 137 144 
285 240 414 86 59 86 
164 563 197 41 64 83 
213 210 251 117 108 108 
281 731 328 167 154 146 
203 533 170 87 91 98 
214 457 346 73 104 152 
297 963 247 117 95 73 
213 209 252 137 98 98 
134 577 217 123 99 77 
324 316 217 126 71 80 
231 299 329 141 139 144 
370 703 309 101 68 71 
213 209 255 147 97 80 
306 144 306 107 78 57 
315 532 313 85 116 149 
246 425 184 65 86 105 
294 484 332 151 146 148 
277 322 433 83 135 174 
275 572 347 118 138 168 
340 306 417 139 61 0 
216 534 352 115 127 174 
322 153 432 115 104 96 
345 377 309 70 102 152 
320 483 196 110 132 166 
256 315 418 111 129 149 
297 587 327 105 119 136 
325 145 355 89 76 67 
295 900 259 147 111 85 
213 571 318 101 115 144 
320 394 291 38 58 82 
277 806 283 208 152 129 
362 308 385 176 166 162 
300 519 334 72 90 121 
205 927 234 95 82 70 
360 169 349 77 62 52 
282 133 247 80 67 54 
237 720 329 96 86 82 
339 629 340 91 105 119 
279 433 400 150 137 134 
367 208 417 95 32 23 
322 412 382 188 155 117 
290 31 217 103 88 73 
238 847 203 209 155 125 
295 799 207 111 94 77 
208 698 301 175 145 123 
378 217 335 126 101 91 
348 779 334 216 194 179 
178 391 254 113 100 87 
355 270 279 95 41 51 
172 788 172 149 0 44 
252 314 392 126 70 49 
202 767 265 153 130 111 
213 215 255 102 98 101 
331 439 328 89 98 114 
214 431 350 63 94 143 
199 273 301 80 63 65 
167 618 215 67 105 157 
137 615 136 105 94 84 
323 688 368 134 163 193 
193 325 303 150 129 108 
317 301 219 123 115 123 
297 626 291 47 58 69 
174 692 83 155 159 193 
293 188 361 91 53 54 
330 723 348 59 38 83 
286 405 402 93 77 85 
397 650 383 134 147 164 
186 626 279 142 138 142 
181 519 253 89 104 128 
352 635 327 89 117 149 
354 729 368 164 137 104 
197 369 212 174 147 119 
176 816 167 168 109 78 
288 512 177 89 105 122 
311 643 362 80 76 74 
283 895 286 171 126 96 
321 374 231 128 147 169 
298 798 295 194 145 113 
330 489 306 109 130 157 
268 468 389 165 178 205 
301 470 324 145 145 151 
254 1002 273 152 118 90 
323 399 254 102 127 154 
201 831 187 167 143 123 
360 768 295 116 99 81 
214 219 244 122 112 113 
214 219 245 120 113 117 
349 712 369 131 54 84 
263 370 424 165 173 187 
213 925 222 109 78 63 
189 415 223 82 76 72 
336 182 411 73 33 37 
270 629 351 98 89 84 
307 616 261 56 83 108 
301 194 407 91 60 57 
201 678 190 33 46 93 
286 899 272 126 85 63 
265 845 189 123 98 76 
272 258 354 138 135 138 
172 601 247 95 115 143 
257 305 410 92 116 140 
182 497 261 112 124 149 
327 686 281 113 123 136 
233 682 334 186 158 127 
203 270 269 134 133 138 
310 141 353 130 73 32 
170 536 239 125 108 110 
325 788 324 193 143 115 
219 424 335 80 105 134 
290 503 336 127 132 145 
135 613 141 101 91 82 
293 553 344 112 136 166 
226 452 180 102 110 122 
220 809 142 201 45 64 
349 346 295 115 133 155 
305 93 209 114 86 68 
311 692 256 118 125 137 
295 559 186 165 171 184 
343 341 389 110 123 144 
175 677 215 98 108 126 
183 656 300 50 39 85 
296 47 219 115 106 101 
296 249 207 98 65 67 
312 809 300 198 146 117 
328 514 295 106 117 148 
320 452 194 104 122 146 
265 13 370 115 101 91 
288 414 405 162 108 77 
293 37 219 107 93 79 
347 730 360 127 36 72 
264 637 365 144 116 96 
301 795 212 123 101 80 
341 335 432 172 174 185 
215 275 308 66 95 119 
275 654 368 126 83 71 
274 131 271 82 70 58 
367 300 344 147 56 87 
373 203 452 131 70 3 
330 177 248 83 82 84 
153 546 205 91 83 77 
335 481 290 88 115 149 
264 15 201 152 136 124 
210 907 268 127 94 69 
273 155 319 53 64 77 
252 415 413 103 133 185 
276 132 292 84 58 33 
215 839 170 201 166 138 
335 196 453 105 73 65 
232 499 152 131 129 131 
283 938 295 95 75 56 
336 196 218 65 104 134 
380 717 326 142 140 146 
339 661 391 124 99 73 
286 688 212 83 115 143 
396 256 416 167 56 47 
233 573 143 78 111 139 
364 163 404 109 77 52 
170 660 118 86 75 72 
213 565 327 119 134 153 
296 411 410 207 179 152 
214 217 255 108 103 110 
242 629 348 120 104 90 
167 747 207 88 107 126 
251 516 363 137 148 178 
400 657 394 156 161 172 
320 627 249 180 180 189 
375 221 458 135 46 77 
320 894 262 150 121 98 
216 535 350 112 124 167 
370 652 326 68 84 99 
326 293 405 59 71 83 
300 790 211 146 128 112 
319 418 238 141 151 167 
235 880 308 156 124 104 
267 10 227 117 102 91 
301 167 350 112 44 20 
371 667 391 105 86 67 
186 699 132 65 87 117 
259 259 230 132 128 130 
186 665 91 46 86 117 
216 719 98 80 125 175 
206 928 286 148 115 86 
308 653 382 133 104 76 
214 223 249 71 110 141 
194 390 212 162 69 0 
323 155 436 114 102 94 
179 456 207 87 95 105 
284 662 212 142 144 153 
184 686 125 46 72 108 
351 749 277 104 92 83 
288 217 391 97 49 63 
214 221 253 70 107 136 
285 187 334 95 51 31 
213 946 226 105 85 66 
197 297 301 142 140 145 
297 474 327 97 110 138 
180 374 277 131 120 115 
298 856 220 172 125 91 
280 150 322 63 59 66 
280 951 297 101 79 66 
194 670 316 155 112 62 
214 223 253 63 101 130 
282 690 207 101 123 146 
219 485 360 91 116 159 
196 639 130 82 110 144 
323 572 247 75 121 156 
268 628 349 94 84 78 
300 251 453 142 94 92 
292 249 207 131 88 72 
327 409 314 45 59 95 
256 710 160 88 132 167 
366 232 443 88 80 88 
207 395 205 124 61 2 
322 476 336 77 104 150 
260 274 336 79 101 122 
290 602 325 153 144 142 
338 398 292 137 151 170 
303 688 339 124 45 58 
274 93 288 74 59 44 
268 636 161 158 154 157 
314 322 401 66 73 82 
274 51 321 91 74 56 
259 358 217 115 114 117 
343 324 302 80 105 132 
177 682 272 123 142 164 
185 728 92 90 111 190 
342 792 324 204 175 150 
236 932 321 189 148 123 
229 362 331 89 104 135 
302 805 213 132 124 120 
336 362 266 103 129 166 
270 263 341 102 115 131 
390 729 355 176 198 224 
157 732 218 125 144 166 
287 340 216 133 44 71 
292 61 284 109 99 92 
193 560 281 105 123 145 
271 264 365 133 132 135 
372 286 346 165 102 101 
179 664 262 79 103 129 
287 695 334 137 39 52 
248 855 203 206 157 120 
243 904 220 62 50 40 
322 801 226 100 107 116 
207 299 243 124 91 52 
287 453 337 115 126 144 
302 410 411 224 186 143 
332 270 232 109 133 161 
174 564 250 66 93 116 
236 400 408 65 115 154 
195 828 184 185 159 137 
319 438 309 38 54 80 
314 141 243 75 64 53 
282 229 394 69 46 60 
301 192 403 83 61 68 
352 319 280 152 156 167 
360 300 309 172 19 78 
353 219 249 121 58 12 
295 649 225 122 127 138 
293 575 189 116 138 165 
188 681 278 101 98 122 
194 305 247 164 143 122 
255 526 355 91 117 180 
218 809 244 182 131 109 
286 838 203 173 130 96 
270 69 199 128 105 80 
288 47 299 88 78 70 
249 280 212 119 112 108 
222 229 230 126 51 64 
317 495 238 140 146 161 
307 59 208 111 101 93 
318 301 401 68 77 88 
205 933 243 80 65 54 
186 762 179 84 95 109 
209 475 280 54 72 122 
193 311 244 163 138 113 
222 291 309 58 87 110 
268 341 223 80 53 26 
270 461 190 111 116 126 
236 832 236 189 135 111 
216 790 261 160 139 120 
232 842 201 176 136 113 
252 728 151 83 107 159 
352 281 428 40 53 84 
226 580 146 83 121 153 
212 631 319 135 106 91 
291 634 332 68 81 95 
195 358 224 129 13 54 
335 196 452 103 75 67 
241 989 218 132 99 63 
318 654 280 89 107 126 
338 394 289 102 127 162 
305 55 210 97 84 72 
264 351 429 156 158 167 
307 133 336 111 86 67 
292 830 206 158 117 84 
371 177 348 81 64 53 
317 786 320 185 141 113 
328 821 268 218 158 123 
266 273 346 80 101 121 
253 593 333 117 134 154 
363 315 434 77 136 177 
229 290 323 105 122 141 
183 370 287 118 104 89 
216 226 237 133 107 113 
393 218 452 124 132 144 
162 615 209 139 155 190 
307 576 232 180 171 170 
332 376 415 179 37 91 
262 672 354 121 146 187 
343 381 312 97 120 156 
217 970 290 90 71 62 
252 748 157 120 137 164 
303 61 281 118 108 101 
255 846 186 184 149 127 
401 698 367 81 124 170 
278 550 346 176 177 185 
198 469 280 67 85 136 
348 303 286 131 126 127 
218 228 233 134 107 89 
211 829 201 146 142 143 
276 129 260 82 70 59 
294 434 316 97 108 145 
360 308 390 186 181 185 
216 601 330 63 88 141 
317 554 239 218 201 191 
299 528 337 108 126 151 
277 1003 233 205 176 150 
280 523 170 111 116 125 
347 757 273 105 95 87 
292 829 266 208 150 120 
244 502 156 81 108 135 
320 130 217 81 74 66 
371 296 379 161 69 108 
247 981 214 89 72 53 
264 394 208 115 119 126 
278 294 440 158 158 166 
222 661 115 61 81 112 
334 818 291 211 144 115 
211 293 246 100 109 121 
242 565 350 123 140 167 
219 724 103 91 118 165 
281 126 304 84 64 48 
294 827 269 207 149 118 
250 314 384 130 67 78 
366 318 413 178 172 172 
223 624 158 51 68 84 
402 693 377 126 153 185 
212 832 157 167 155 147 
317 169 469 151 76 7 
204 928 271 79 64 49 
396 193 443 123 108 93 
143 581 194 74 68 65 
299 947 288 108 88 73 
225 905 239 132 94 59 
140 605 168 93 81 73 
390 196 367 162 141 122 
290 961 232 113 90 71 
213 626 168 34 79 120 
200 635 176 66 118 155 
251 315 389 119 32 57 
212 536 301 110 120 136 
304 641 352 63 68 74 
304 148 247 88 77 68 
306 349 209 91 107 127 
324 389 412 151 139 161 
194 613 170 55 80 123 
377 173 395 107 72 57 
303 373 210 84 110 137 
220 235 230 118 23 56 
200 344 309 88 78 69 
276 295 439 155 155 161 
239 855 250 158 120 92 
359 634 337 53 80 103 
160 727 131 113 116 154 
244 405 187 55 87 127 
306 179 207 72 55 86 
325 575 248 81 131 170 
280 212 328 113 36 44 
309 115 205 120 108 96 
149 642 148 95 73 63 
154 682 127 75 92 127 
324 522 299 109 124 146 
173 664 257 149 147 152 
379 257 318 141 100 102 
156 730 224 109 138 165 
291 433 365 123 48 13 
203 952 263 91 78 68 
222 418 193 121 125 133 
301 947 250 89 73 60 
284 603 185 177 174 180 
209 700 301 154 143 140 
224 462 175 70 86 104 
316 430 306 48 63 82 
289 422 406 195 88 9 
383 708 396 85 109 186 
397 712 359 139 151 167 
174 715 88 144 148 185 
316 148 297 98 76 58 
281 38 203 132 118 107 
171 796 176 124 34 50 
342 710 283 119 32 35 
235 313 329 142 138 139 
320 204 210 149 59 60 
214 552 334 80 107 149 
379 714 322 77 81 117 
223 236 228 123 32 57 
211 508 170 81 89 98 
222 365 374 73 100 126 
325 570 260 86 137 184 
289 500 336 107 111 138 
300 654 227 91 118 147 
242 933 207 63 48 35 
239 980 301 92 72 53 
295 346 213 102 106 119 
218 233 233 139 103 101 
184 681 275 116 136 157 
283 211 361 92 46 56 
322 441 195 90 121 154 
393 649 371 114 124 137 
385 178 389 105 88 78 
328 324 222 140 94 104 
278 264 218 107 118 134 
229 397 326 96 117 144 
347 341 299 143 151 164 
343 806 305 205 140 110 
263 869 204 162 116 77 
356 167 334 74 60 48 
214 583 152 101 82 90 
197 316 250 159 135 110 
245 415 187 81 103 128 
302 230 446 90 82 98 
328 171 249 106 61 0 
319 820 286 207 152 125 
217 232 237 120 113 119 
197 307 237 164 139 112 
217 233 237 123 116 120 
218 457 307 101 109 121 
294 779 208 95 88 88 
255 832 171 209 171 126 
162 486 239 115 126 143 
281 221 362 133 45 18 
335 137 211 87 60 26 
276 177 322 85 28 36 
322 213 214 115 79 93 
302 220 436 97 45 60 
306 276 213 165 159 161 
334 150 386 117 83 63 
381 274 377 47 75 118 
284 860 209 195 146 115 
268 756 320 159 152 152 
294 394 407 181 153 125 
226 673 109 47 42 94 
174 592 242 113 124 153 
295 886 242 141 105 80 
148 694 94 107 76 66 
314 834 238 197 142 110 
258 134 242 100 77 62 
364 767 341 193 173 158 
276 551 346 172 173 182 
191 712 192 47 50 94 
133 630 164 167 123 103 
219 238 232 111 69 87 
288 521 174 90 111 133 
385 268 389 61 43 60 
336 302 239 160 127 85 
296 802 208 115 108 106 
319 724 246 105 30 34 
326 167 430 137 53 23 
173 688 215 117 118 125 
144 586 195 75 70 69 
194 633 130 81 111 140 
347 351 408 173 143 109 
370 765 328 156 141 130 
348 656 382 110 91 71 
333 356 253 84 123 157 
301 49 211 97 84 72 
337 349 428 131 155 182 
328 785 234 146 132 122 
285 128 317 106 70 44 
139 654 105 122 95 60 
173 555 249 90 85 93 
288 826 270 212 148 124 
340 162 279 104 85 69 
131 592 168 106 94 83 
296 145 254 81 68 54 
268 744 173 142 145 155 
219 367 353 80 99 134 
208 575 301 109 128 149 
286 590 176 149 162 180 
277 237 383 110 49 63 
306 841 230 182 133 99 
269 757 174 138 146 158 
298 391 410 194 166 138 
280 983 260 83 63 49 
276 69 196 133 108 82 
374 280 447 146 107 108 
169 691 252 130 145 164 
221 421 295 73 89 125 
321 263 411 73 51 57 
315 147 389 115 95 79 
403 677 377 101 125 166 
326 498 256 107 122 141 
224 714 108 104 117 154 
214 226 243 55 95 123 
395 661 357 93 117 141 
172 800 177 170 87 78 
182 671 302 150 132 117 
290 377 404 101 106 123 
397 249 431 141 50 76 
280 533 343 110 129 163 
283 908 290 161 113 85 
327 346 222 108 125 145 
143 635 150 101 75 68 
175 677 273 131 154 180 
224 982 223 126 102 76 
198 517 273 94 119 151 
223 460 293 68 81 96 
273 478 354 68 84 121 
201 635 176 67 119 155 
272 23 245 118 108 102 
195 340 259 136 129 125 
263 349 428 164 164 171 
260 1008 264 129 106 84 
242 308 347 112 126 143 
249 515 364 121 139 180 
191 684 196 74 89 114 
226 672 109 30 39 91 
274 57 332 111 90 76 
151 591 218 157 121 108 
186 352 290 141 96 68 
375 279 448 145 110 114 
227 727 326 167 149 135 
259 292 367 89 109 130 
400 201 395 136 73 2 
321 421 254 128 140 157 
169 708 261 103 138 170 
245 440 178 91 104 118 
143 619 132 103 93 86 
252 738 150 77 99 143 
215 229 246 48 86 117 
276 623 171 180 174 175 
212 910 292 154 121 96 
341 337 382 143 46 107 
320 565 288 105 113 150 
334 308 239 147 95 15 
289 836 205 162 123 87 
253 864 304 176 134 114 
214 225 248 32 84 117 
269 208 228 127 28 18 
214 224 250 60 103 134 
358 326 336 182 180 185 
219 456 308 92 102 116 
346 343 299 104 123 147 
284 362 218 58 92 122 
214 226 249 39 81 113 
379 217 291 53 83 114 
271 36 357 182 159 156 
307 192 418 96 74 72 
306 386 209 46 87 124 
268 983 284 95 77 68 
186 630 277 157 152 155 
336 469 293 96 112 133 
192 788 232 155 129 114 
177 582 191 112 125 144 
311 408 324 42 78 127 
340 275 414 96 4 42 
215 224 252 56 97 127 
177 482 194 78 99 119 
287 903 276 153 110 81 
332 258 229 112 125 145 
279 957 218 119 93 66 
385 715 335 112 78 73 
271 817 177 146 125 104 
265 120 244 81 67 56 
321 474 225 140 151 167 
284 455 383 168 60 108 
347 223 232 137 140 149 
378 239 350 125 99 92 
259 291 382 135 136 143 
321 507 337 139 157 190 
206 386 304 79 91 127 
183 463 195 105 118 134 
286 47 204 114 101 90 
351 714 375 147 62 77 
178 507 253 163 161 166 
222 947 219 85 67 53 
345 385 299 97 132 166 
296 913 240 80 63 52 
272 987 271 98 76 62 
322 367 373 166 133 95 
259 109 286 87 73 60 
182 822 154 216 174 107 
123 631 152 164 113 91 
215 236 255 88 39 37 
291 656 222 129 133 143 
313 158 394 137 73 0 
300 773 317 151 109 83 
302 483 185 110 119 131 
216 374 354 96 120 144 
327 652 285 145 148 164 
205 636 166 105 129 159 
265 149 220 142 36 7 
271 609 158 118 143 169 
283 927 293 125 95 76 
184 540 259 149 153 164 
397 703 358 76 111 150 
170 627 218 67 90 152 
227 943 317 190 144 122 
287 378 411 95 111 146 
276 875 287 154 114 82 
183 375 257 102 80 52 
226 427 398 140 154 172 
320 318 409 87 89 94 
186 460 194 86 106 127 
297 51 206 107 94 82 
199 406 200 122 108 97 
381 713 393 136 158 213 
280 187 207 72 47 39 
251 761 156 121 131 148 
267 656 362 62 60 91 
314 685 357 127 152 179 
342 634 291 95 111 131 
293 741 208 115 45 45 
374 731 376 136 53 77 
179 776 123 157 164 191 
229 286 223 117 125 138 
188 402 291 103 120 142 
337 731 349 172 172 179 
287 44 317 125 115 108 
269 1001 220 175 137 95 
213 466 335 83 102 140 
310 888 265 121 105 90 
284 607 189 175 171 176 
236 280 315 83 99 115 
333 675 395 210 205 210 
203 445 286 88 102 134 
307 59 210 114 104 97 
326 691 349 100 143 178 
308 69 291 143 129 118 
305 563 329 160 158 163 
338 369 405 170 53 76 
224 435 294 95 107 131 
316 573 295 119 118 123 
206 938 237 109 83 71 
216 231 253 56 52 74 
252 560 339 102 118 151 
198 574 291 65 107 143 
281 752 324 166 153 146 
272 284 222 129 129 134 
317 588 259 175 179 191 
201 546 286 93 106 121 
334 319 436 168 170 179 
224 414 298 79 97 131 
257 435 187 93 105 118 
259 138 221 133 126 117 
263 645 153 117 100 100 
317 171 450 153 67 2 
172 729 261 102 118 136 
185 611 187 34 66 106 
176 765 216 192 112 64 
217 234 241 114 95 100 
332 547 278 116 133 179 
219 448 363 144 152 166 
177 623 252 153 149 154 
302 342 417 106 119 135 
278 1002 246 134 102 75 
214 956 233 98 73 48 
308 205 435 119 66 60 
299 652 380 137 106 80 
335 693 363 131 165 198 
320 723 255 84 64 61 
224 309 228 136 122 110 
308 895 267 123 107 93 
306 723 334 129 117 112 
284 40 224 78 62 47 
336 376 347 191 162 131 
323 346 410 84 85 103 
165 522 198 62 82 101 
290 213 391 92 47 60 
266 148 218 141 37 11 
253 875 215 173 132 97 
272 639 368 134 111 88 
213 580 335 88 113 152 
216 234 247 95 57 78 
294 567 188 164 168 180 
212 390 206 127 64 0 
256 434 186 80 95 110 
217 235 247 111 21 52 
252 860 287 121 86 56 
192 357 255 148 128 107 
217 237 240 128 11 49 
217 237 241 119 16 63 
346 356 343 134 152 174 
351 169 283 131 101 79 
290 447 195 81 101 122 
394 248 395 122 47 55 
334 314 429 96 96 99 
402 230 427 38 53 90 
316 400 332 150 131 115 
334 325 245 100 99 107 
271 116 291 80 66 54 
366 210 279 77 69 90 
139 648 110 115 90 61 
276 93 201 138 108 73 
145 654 100 100 84 68 
174 776 192 146 64 69 
318 244 217 142 141 145 
359 325 341 133 52 76 
329 500 271 142 142 148 
219 487 353 84 109 156 
269 426 400 103 121 158 
155 656 136 99 77 71 
167 448 261 100 115 139 
156 601 217 82 107 145 
190 828 157 190 131 109 
241 856 236 163 121 92 
218 237 247 94 74 82 
262 864 280 123 86 55 
255 1006 265 86 61 44 
326 180 439 78 53 53 
223 525 147 88 105 123 
219 979 269 119 98 76 
330 150 346 106 73 51 
312 500 334 116 128 153 
216 941 221 110 91 79 
360 304 313 169 142 148 
299 434 341 173 72 11 
169 419 255 115 123 137 
192 541 269 123 136 152 
310 683 253 113 123 136 
199 489 275 121 126 142 
311 229 456 92 102 120 
258 631 138 116 144 174 
370 640 337 42 62 80 
177 635 227 93 107 153 
402 681 366 109 130 157 
273 190 217 91 48 49 
275 985 272 101 84 69 
210 782 120 142 157 215 
216 234 250 103 36 72 
233 825 242 170 111 93 
255 999 272 151 113 84 
337 673 288 136 139 151 
317 195 459 110 96 106 
217 235 251 109 11 45 
200 288 283 102 110 122 
292 130 325 116 84 62 
231 350 336 130 134 143 
370 639 334 33 63 84 
261 103 207 130 100 68 
319 446 309 57 67 85 
349 289 444 137 49 81 
171 769 125 160 175 202 
347 718 365 132 50 71 
225 454 180 92 103 117 
256 714 334 96 82 81 
346 335 272 90 115 148 
211 739 294 163 141 130 
341 178 413 101 82 78 
277 206 324 91 41 47 
187 544 180 64 74 84 
297 429 354 173 80 10 
183 754 190 85 94 105 
259 109 323 77 63 47 
217 237 251 79 75 76 
199 734 179 74 90 108 
329 199 214 55 77 120 
230 740 120 105 116 139 
296 629 315 60 70 81 
277 67 196 129 107 83 
400 656 392 88 126 161 
347 258 237 83 119 151 
266 44 203 117 99 81 
165 528 224 97 92 102 
264 385 212 77 97 117 
126 623 139 109 86 61 
312 366 295 59 68 98 
274 66 197 122 102 83 
348 337 393 124 73 104 
348 273 242 101 89 101 
296 967 263 118 94 74 
280 224 365 124 45 34 
216 236 254 91 39 44 
216 237 254 79 67 70 
216 238 253 76 79 80 
212 944 305 183 139 117 
205 748 101 161 164 207 
180 782 196 124 64 81 
264 111 208 114 97 80 
138 623 128 94 86 80 
343 313 293 94 75 76 
346 279 240 131 147 167 
272 147 213 120 23 21 
384 273 444 132 125 132 
304 704 336 114 47 84 
154 641 106 92 83 75 
258 644 143 172 172 181 
196 458 282 89 105 134 
310 418 373 167 129 81 
194 352 229 129 25 66 
227 985 241 86 65 38 
347 309 441 84 134 172 
312 153 360 125 71 31 
323 167 473 130 114 99 
267 867 283 124 84 51 
258 670 153 168 170 182 
193 320 282 119 79 54 
330 799 235 97 78 60 
263 814 274 198 144 126 
220 243 231 121 70 81 
221 242 230 136 53 73 
297 754 327 126 116 113 
307 147 251 85 72 59 
224 427 392 91 120 161 
183 361 279 120 80 19 
128 618 139 113 95 77 
248 371 204 87 97 110 
258 131 221 147 57 0 
376 272 344 108 111 124 
266 166 320 44 50 61 
182 704 137 64 84 108 
294 881 229 113 81 59 
307 110 200 147 114 95 
265 578 150 171 166 167 
282 772 191 148 85 83 
222 537 145 121 132 150 
367 763 309 198 178 166 
326 346 218 162 158 160 
321 413 232 125 138 155 
220 244 231 92 108 120 
341 318 251 105 134 163 
326 199 426 62 37 46 
196 359 216 171 148 127 
219 441 370 115 137 161 
354 786 287 154 143 138 
198 284 256 91 110 130 
321 261 426 103 26 65 
290 161 331 47 51 69 
185 789 205 101 80 85 
250 257 315 102 89 77 
202 835 182 172 147 124 
182 567 181 52 58 66 
351 330 378 160 161 171 
257 435 405 90 119 176 
237 714 133 118 137 169 
238 763 306 172 152 138 
187 446 200 54 91 122 
214 543 341 81 115 149 
310 572 311 107 111 152 
265 98 321 88 72 54 
240 293 194 75 110 144 
306 134 201 81 62 97 
275 628 322 52 73 92 
283 770 310 172 126 97 
318 821 281 210 158 131 
365 169 368 101 86 75 
320 319 408 86 88 93 
158 641 107 96 87 79 
310 566 314 113 124 159 
201 631 150 101 117 154 
229 384 324 98 119 145 
286 27 331 116 107 100 
257 54 205 130 106 80 
258 12 205 160 139 124 
331 531 264 154 152 159 
217 716 319 106 83 69 
304 607 292 86 108 130 
288 133 310 109 69 46 
219 242 234 137 27 76 
219 242 235 133 20 69 
321 378 421 133 132 159 
322 240 220 151 147 149 
318 561 245 209 190 179 
218 240 237 103 76 88 
267 554 341 164 163 168 
230 983 283 124 103 84 
321 455 231 99 114 154 
218 240 239 99 69 86 
216 337 225 89 65 67 
313 460 314 49 60 74 
218 242 236 129 19 65 
182 721 146 74 88 110 
212 455 284 61 77 112 
222 373 375 84 109 134 
204 430 291 79 91 129 
213 690 148 131 140 155 
344 775 338 214 192 177 
318 530 233 84 110 146 
305 153 342 105 75 64 
207 440 190 90 105 125 
173 486 205 111 114 120 
221 824 227 158 115 99 
332 536 286 110 121 156 
217 733 103 77 113 165 
298 98 217 117 93 67 
265 791 293 217 160 135 
343 159 333 83 61 46 
219 244 236 90 74 79 
291 589 198 154 163 178 
228 419 326 95 114 136 
169 664 244 64 65 71 
232 737 326 157 128 95 
268 867 279 129 91 62 
219 244 238 100 76 82 
256 963 219 140 101 66 
219 245 238 79 81 86 
200 759 106 130 137 202 
248 574 338 88 109 145 
301 594 230 95 114 141 
168 485 252 157 154 160 
322 252 432 63 73 92 
283 202 342 68 44 46 
287 459 350 140 109 88 
219 247 238 73 93 109 
210 700 303 186 180 185 
234 835 165 233 210 190 
220 241 232 144 20 76 
330 463 317 160 164 176 
316 192 456 113 95 98 
338 163 269 98 84 69 
312 346 405 59 75 91 
215 487 298 98 114 154 
219 425 294 89 104 128 
220 246 232 72 109 137 
302 202 419 108 61 54 
240 402 173 14 91 154 
269 642 369 151 116 98 
181 646 213 102 102 134 
330 331 235 178 136 83 
282 70 293 87 68 43 
320 470 226 134 145 163 
140 616 136 102 93 84 
285 148 205 69 43 62 
284 131 305 99 67 44 
180 557 184 84 87 91 
321 366 377 174 145 113 
267 285 411 130 135 145 
325 349 214 136 141 151 
277 230 331 95 91 95 
259 131 248 90 75 65 
390 728 348 107 92 105 
287 643 373 134 108 85 
269 919 206 56 43 36 
286 113 198 144 128 112 
323 183 423 56 51 69 
291 791 203 143 129 119 
212 784 263 133 131 134 
237 374 198 115 80 31 
321 269 401 70 45 49 
325 154 250 102 96 91 
287 40 315 115 104 95 
200 278 289 87 105 123 
315 759 223 130 104 78 
291 396 403 110 97 88 
264 21 374 83 52 31 
280 732 195 113 125 140 
290 621 310 47 69 87 
276 818 185 179 146 109 
367 303 353 163 34 96 
280 594 335 132 129 133 
363 171 316 80 65 53 
338 205 407 77 45 36 
313 534 223 144 153 170 
216 382 364 56 90 136 
304 563 333 203 188 180 
166 757 208 77 76 148 
325 802 316 209 154 123 
350 767 269 105 91 78 
222 255 229 91 123 151 
241 330 190 98 113 129 
379 177 380 116 96 83 
183 593 187 80 98 127 
264 501 171 96 106 119 
315 593 259 172 175 187 
178 628 256 143 141 147 
398 246 423 130 49 78 
231 266 221 144 142 146 
214 512 158 104 109 118 
271 941 309 162 124 100 
283 292 442 116 119 140 
221 791 135 182 192 209 
312 589 276 192 181 179 
302 379 412 168 142 117 
264 776 302 206 154 122 
293 397 405 166 141 116 
258 383 421 168 173 185 
308 607 238 84 105 127 
274 617 165 181 179 186 
261 971 219 91 71 58 
268 644 172 86 144 186 
237 634 348 156 116 105 
315 153 399 135 72 0 
185 674 276 106 130 154 
161 721 214 101 110 122 
172 772 189 168 100 103 
355 210 263 113 45 26 
326 392 218 100 127 155 
288 25 347 141 127 120 
282 604 179 168 168 178 
270 40 241 117 97 76 
295 428 317 77 89 136 
317 279 419 80 74 83 
185 443 207 81 100 118 
248 630 132 111 130 151 
353 279 424 36 70 102 
317 555 303 142 149 163 
312 563 310 109 121 154 
206 596 315 126 141 160 
323 389 249 78 109 151 
316 521 339 114 129 179 
212 656 115 108 127 147 
283 708 332 151 137 124 
323 146 394 113 98 87 
189 359 260 145 124 102 
305 276 444 176 82 4 
315 718 243 106 98 98 
319 674 277 107 121 139 
345 256 234 79 124 159 
221 253 233 83 111 136 
297 428 354 167 107 51 
307 727 334 153 111 76 
176 662 225 156 149 149 
290 446 351 116 96 85 
332 526 267 143 141 148 
230 350 212 152 130 108 
244 629 349 120 104 90 
164 489 220 86 103 122 
194 510 273 92 118 160 
220 254 235 69 96 123 
277 235 366 96 94 96 
192 797 132 185 203 225 
171 685 258 130 141 156 
267 33 204 127 107 87 
176 621 196 131 140 155 
185 797 194 129 122 122 
264 709 332 82 82 99 
301 680 340 138 58 51 
244 610 139 163 157 158 
204 925 251 89 72 59 
281 128 303 86 65 47 
290 61 289 104 93 85 
291 483 185 114 121 131 
262 102 286 80 66 52 
271 225 225 96 73 81 
330 477 276 109 127 154 
325 783 231 157 140 127 
303 735 221 75 49 68 
333 505 280 54 81 118 
302 219 437 102 49 63 
187 708 291 162 76 43 
327 392 402 179 6 76 
218 240 241 98 65 77 
326 385 208 63 102 137 
235 416 184 76 89 102 
402 216 415 49 76 111 
322 510 305 75 103 150 
196 397 203 129 69 7 
297 76 220 125 101 84 
401 235 424 56 43 57 
277 826 188 160 144 133 
214 600 154 63 86 106 
342 504 290 127 146 173 
280 636 194 86 141 181 
275 858 203 201 142 98 
215 518 309 93 104 138 
391 194 373 147 128 113 
271 562 346 92 112 152 
255 620 334 86 105 125 
246 997 275 110 78 51 
225 597 147 112 132 156 
299 191 396 64 56 67 
150 656 96 91 80 69 
218 240 247 112 10 62 
118 595 196 166 122 105 
308 815 284 195 143 114 
277 237 217 106 62 55 
210 653 187 34 62 112 
218 242 244 114 34 62 
304 802 214 163 149 142 
204 950 255 83 69 58 
216 507 364 94 114 166 
259 830 171 160 112 70 
181 417 231 101 94 90 
273 433 397 98 93 102 
246 853 200 210 157 124 
284 740 327 178 151 125 
276 108 202 122 108 94 
166 505 240 91 110 145 
247 705 338 124 123 129 
171 419 263 152 147 149 
366 301 335 141 57 89 
179 466 272 152 153 162 
314 160 406 133 71 5 
280 92 310 110 88 69 
182 380 287 123 97 87 
280 142 321 101 89 88 
264 487 369 152 166 187 
273 24 245 101 90 81 
202 943 271 84 68 57 
318 491 238 145 151 163 
321 876 254 135 108 87 
329 382 261 117 139 163 
307 936 262 96 75 61 
256 307 397 106 122 140 
204 683 128 81 101 135 
165 747 115 148 145 193 
293 739 205 113 53 75 
171 605 196 79 75 74 
362 319 363 63 119 160 
291 614 317 141 128 123 
299 415 369 135 110 82 
280 858 207 188 139 102 
250 861 209 190 144 109 
325 359 216 98 124 149 
284 395 211 81 102 127 
324 415 224 101 126 154 
214 747 300 166 121 101 
347 718 284 104 30 33 
380 192 335 90 64 33 
353 337 368 162 163 173 
285 128 236 83 69 55 
215 543 321 80 105 138 
380 183 323 90 74 60 
219 240 248 116 7 63 
212 557 308 118 132 150 
229 786 278 201 148 124 
339 531 279 108 133 171 
301 66 273 110 98 90 
328 530 256 144 155 172 
296 909 251 96 72 54 
230 687 109 67 113 160 
218 243 249 105 98 90 
218 492 162 60 87 108 
203 817 206 145 118 93 
140 682 106 166 114 88 
268 75 292 85 69 52 
201 387 207 131 61 0 
232 431 403 113 138 169 
336 255 231 89 140 180 
302 820 212 163 147 136 
319 743 228 30 31 66 
233 614 141 100 118 137 
237 976 219 116 87 47 
217 241 253 94 29 57 
216 240 254 89 34 43 
374 179 329 73 61 50 
370 640 342 40 72 95 
280 507 176 127 126 129 
266 989 275 104 79 66 
326 453 207 170 168 173 
209 439 289 81 96 124 
309 632 231 176 180 195 
289 133 310 111 70 46 
249 902 214 77 63 49 
167 728 204 106 122 141 
382 666 335 42 51 72 
384 231 305 62 81 107 
271 924 210 53 40 33 
244 354 416 151 107 40 
175 536 249 113 116 124 
286 220 392 81 50 58 
218 243 253 110 105 103 
225 872 290 137 108 79 
138 644 152 156 111 93 
356 261 442 115 65 71 
148 712 107 137 154 191 
232 493 380 140 149 200 
288 497 335 115 119 142 
369 699 308 147 33 38 
169 779 153 158 172 192 
132 571 207 113 94 76 
175 670 272 87 110 133 
210 580 324 153 157 167 
292 229 422 54 75 96 
198 543 279 109 119 134 
297 46 205 115 101 87 
354 633 355 67 93 114 
205 693 138 87 100 141 
330 380 311 95 77 97 
201 445 190 104 115 129 
254 828 168 166 160 160 
267 686 181 111 74 84 
217 245 254 99 94 98 
217 245 255 95 94 100 
225 805 142 86 73 114 
241 285 206 85 118 146 
219 380 348 56 93 121 
302 689 234 63 93 121 
298 435 199 136 139 146 
190 665 283 158 120 85 
315 251 215 141 138 142 
289 837 205 162 122 86 
229 775 289 200 147 123 
330 704 280 100 70 68 
222 919 220 137 105 72 
287 174 332 93 55 64 
319 680 276 124 127 136 
351 271 441 97 75 98 
321 412 231 163 164 173 
217 677 164 76 94 128 
267 20 373 109 101 96 
261 13 355 97 82 73 
246 492 377 115 136 175 
210 647 154 94 109 150 
317 703 263 98 35 23 
378 664 326 59 82 106 
255 687 153 122 123 133 
308 377 293 80 89 117 
234 399 194 110 97 86 
295 299 441 142 126 112 
329 152 208 46 54 81 
329 630 309 63 78 94 
312 881 262 143 122 102 
331 395 276 83 109 155 
240 995 217 130 92 65 
310 413 326 65 99 136 
226 998 259 122 97 73 
327 315 221 131 73 81 
197 661 96 112 126 145 
180 385 258 118 108 102 
289 455 325 87 99 139 
337 667 398 92 92 104 
219 458 360 138 145 165 
230 839 208 193 140 116 
170 489 254 106 115 154 
369 236 426 64 28 69 
298 664 383 165 172 186 
219 253 245 73 90 107 
173 639 256 95 75 72 
208 775 264 188 171 162 
285 652 213 89 101 121 
188 680 88 124 143 166 
292 565 345 110 132 161 
223 944 217 74 57 44 
308 510 185 173 177 189 
219 255 244 74 96 116 
309 627 314 74 88 102 
371 750 357 157 124 91 
286 911 283 161 117 88 
214 602 327 76 105 168 
316 152 412 117 89 58 
321 249 441 91 80 108 
366 309 368 85 140 180 
232 684 332 180 146 108 
306 596 269 124 126 133 
213 778 268 58 62 87 
184 759 109 139 148 205 
285 143 324 99 91 86 
302 427 202 92 111 131 
332 230 223 149 146 150 
279 818 276 207 154 128 
197 636 136 87 111 150 
282 70 317 119 95 70 
370 296 362 147 34 77 
322 165 473 124 110 97 
375 707 315 118 103 99 
366 201 412 62 50 39 
310 208 442 119 62 62 
250 578 336 74 100 151 
349 796 312 210 151 116 
289 88 299 116 81 67 
242 724 330 155 141 130 
403 190 426 113 101 90 
327 147 348 109 77 57 
289 617 211 168 166 171 
274 177 214 33 51 70 
288 972 242 138 108 79 
186 760 261 155 136 126 
273 459 358 92 82 76 
320 150 291 90 73 57 
295 697 221 63 108 141 
218 248 249 110 107 108 
120 614 177 178 120 102 
232 657 125 97 121 152 
230 980 217 111 84 50 
346 633 360 48 83 109 
367 167 407 96 82 70 
233 257 220 129 129 135 
304 225 445 98 62 75 
228 936 216 70 58 50 
164 750 138 91 106 148 
259 370 214 83 98 117 
219 251 248 86 78 75 
266 115 315 67 57 48 
218 250 251 90 94 101 
232 424 314 112 123 145 
297 444 318 66 80 121 
235 327 355 148 116 74 
153 659 137 111 83 76 
218 249 252 87 88 96 
327 149 342 107 74 53 
320 762 332 135 123 115 
223 402 391 64 97 142 
323 403 258 98 120 154 
330 461 322 116 133 165 
193 732 185 91 103 115 
280 14 349 63 54 46 
385 225 312 130 99 88 
344 741 275 124 110 100 
218 250 254 76 95 124 
260 50 346 126 101 74 
314 428 381 227 189 149 
298 218 204 132 78 70 
315 714 237 70 58 91 
257 885 209 94 74 58 
376 693 402 211 215 229 
311 782 316 183 137 109 
316 291 408 75 78 85 
370 175 303 118 99 86 
280 851 201 187 133 101 
365 180 411 84 56 13 
218 253 250 81 88 99 
214 505 165 65 81 98 
169 567 249 93 81 77 
276 471 354 91 96 115 
352 338 333 177 175 181 
197 376 232 156 135 115 
346 210 228 130 6 75 
319 496 314 59 95 151 
192 402 227 102 61 14 
279 451 396 121 52 112 
391 182 388 122 109 96 
382 646 354 59 86 108 
378 204 289 121 102 87 
236 356 400 137 89 100 
171 691 267 104 139 170 
199 674 311 174 108 60 
237 450 172 72 92 112 
332 554 265 173 179 194 
136 608 194 97 69 60 
233 1009 237 171 138 108 
257 10 240 99 90 84 
219 828 219 140 141 146 
178 648 264 57 110 147 
383 202 295 150 66 3 
219 255 252 73 95 114 
291 620 309 51 76 97 
275 57 323 102 85 69 
305 795 215 119 93 75 
302 547 344 134 146 165 
242 397 185 60 93 129 
290 413 406 129 137 149 
190 830 177 149 136 127 
200 299 279 118 115 117 
256 31 315 101 85 69 
289 928 282 94 73 60 
236 512 148 122 124 130 
319 773 328 157 150 149 
237 491 156 96 105 117 
360 267 281 114 90 119 
288 363 216 70 97 124 
317 183 454 112 78 80 
313 669 243 74 125 162 
255 311 410 125 133 147 
331 373 383 177 146 112 
154 713 121 96 114 158 
220 467 365 70 99 152 
232 711 112 62 94 120 
343 630 328 85 103 121 
325 153 297 103 84 68 
299 418 369 137 112 84 
343 348 322 89 134 169 
169 432 264 141 138 143 
250 774 299 213 159 130 
319 470 242 137 148 164 
192 731 185 97 110 125 
245 904 218 65 53 41 
305 80 191 158 111 69 
209 709 298 130 116 103 
275 247 364 81 110 135 
200 604 300 106 123 143 
279 789 297 214 159 129 
278 927 299 180 133 108 
335 461 327 144 155 177 
327 675 393 172 172 187 
277 502 177 87 102 118 
321 415 388 214 178 140 
196 667 94 109 124 144 
212 683 140 77 99 148 
383 215 367 112 115 122 
234 622 326 58 68 79 
308 340 407 60 72 85 
257 145 235 89 47 51 
248 789 289 211 159 132 
298 377 211 46 88 125 
270 277 413 143 141 146 
381 193 446 100 88 77 
279 931 299 162 125 96 
156 655 135 95 74 69 
301 297 439 140 139 143 
148 605 201 119 78 78 
351 257 244 95 130 160 
178 766 166 120 128 142 
202 951 268 81 65 55 
305 401 208 73 104 133 
235 268 218 151 149 153 
178 388 257 112 102 94 
283 151 205 99 39 60 
302 301 213 129 31 34 
330 538 287 139 149 165 
297 628 311 49 59 70 
364 171 307 113 94 82 
350 245 239 149 150 157 
216 518 349 95 118 154 
253 549 348 113 130 166 
160 730 252 74 129 170 
294 805 288 201 152 123 
285 897 269 157 117 91 
319 151 418 110 102 99 
307 373 209 86 113 140 
297 61 207 114 100 89 
238 199 206 64 56 75 
321 473 252 93 113 142 
338 705 284 102 100 95 
338 421 304 187 192 204 
223 280 235 117 114 116 
206 810 223 192 172 159 
349 348 342 153 158 170 
313 615 250 62 102 134 
189 552 179 74 82 90 
237 200 204 72 60 89 
222 374 307 36 76 121 
232 347 380 102 121 141 
230 627 336 70 69 70 
258 638 142 168 170 180 
170 415 252 113 122 136 
326 378 217 114 135 158 
181 455 277 123 131 151 
303 393 307 63 86 128 
303 896 274 114 95 82 
220 789 130 151 176 204 
359 162 390 115 78 53 
218 884 268 144 110 81 
202 689 186 49 83 107 
260 234 232 131 124 122 
235 193 209 86 65 66 
360 660 302 155 159 173 
235 192 211 121 54 79 
325 246 425 73 48 66 
363 314 434 70 129 170 
235 194 208 58 57 65 
280 707 201 95 119 144 
263 135 215 121 104 101 
325 512 252 80 107 133 
305 917 262 98 66 47 
288 586 336 69 93 117 
376 261 306 167 70 83 
277 388 416 100 123 163 
238 922 319 152 121 96 
333 380 339 128 140 156 
364 644 369 79 90 135 
306 554 335 128 143 164 
280 737 195 124 133 147 
174 572 188 75 92 109 
252 672 344 73 114 146 
272 647 370 168 127 111 
390 216 456 135 92 61 
137 568 192 100 90 81 
265 671 344 104 141 174 
229 375 205 127 65 0 
385 194 457 112 101 90 
313 812 298 205 153 123 
297 143 261 81 68 55 
274 804 179 126 116 114 
233 655 337 88 74 71 
282 649 373 161 122 99 
234 195 214 115 61 73 
286 747 199 117 31 30 
285 118 199 167 69 1 
348 201 256 104 47 17 
230 390 403 66 102 145 
291 587 193 135 154 177 
254 302 371 109 117 130 
220 697 98 97 127 160 
332 153 215 84 52 49 
356 166 343 76 59 49 
189 654 99 84 110 134 
268 102 313 80 64 47 
177 607 257 150 149 155 
167 603 199 85 81 79 
316 156 412 134 70 2 
311 391 374 153 122 83 
206 680 129 78 107 140 
118 608 170 150 105 83 
316 187 432 75 80 98 
240 759 131 139 148 169 
298 135 330 128 66 24 
217 758 292 143 88 96 
191 558 276 126 136 151 
263 743 325 194 170 149 
218 489 161 130 130 135 
164 480 227 147 142 143 
324 379 365 183 150 114 
189 720 146 115 118 126 
345 210 402 56 38 35 
337 178 216 135 95 58 
234 198 214 113 39 62 
360 246 272 93 34 37 
279 122 301 75 60 45 
189 800 134 184 205 227 
245 766 144 88 103 153 
238 192 208 82 56 67 
238 380 195 82 76 71 
317 776 224 127 113 102 
213 682 179 108 116 130 
257 98 328 91 73 56 
239 192 210 95 48 55 
310 675 252 130 134 144 
293 53 205 123 109 98 
274 446 196 85 100 117 
215 451 351 83 110 152 
249 443 403 94 119 173 
282 767 316 149 108 82 
362 256 427 98 27 45 
216 956 300 163 122 105 
239 487 158 88 100 115 
187 781 231 106 118 137 
226 559 348 99 122 164 
288 955 224 93 74 56 
238 193 213 95 56 64 
203 287 264 95 104 118 
345 337 388 100 111 138 
223 626 162 50 71 98 
238 192 215 102 55 66 
288 348 425 87 121 148 
238 193 215 96 51 63 
314 454 192 70 102 130 
233 429 180 98 99 102 
234 809 260 178 124 105 
271 154 212 129 35 15 
395 214 445 129 90 66 
276 600 160 106 137 167 
219 527 154 85 96 109 
279 39 349 147 122 97 
255 687 161 149 155 169 
317 275 420 73 74 82 
365 210 415 92 33 27 
345 351 327 98 97 115 
230 390 318 99 120 145 
205 823 146 195 22 41 
321 549 297 108 124 152 
186 705 86 116 122 158 
239 197 209 74 51 63 
285 892 273 145 109 80 
238 196 211 81 55 66 
261 94 325 93 76 58 
222 377 377 73 101 134 
245 1005 270 126 93 63 
331 151 224 96 91 89 
259 530 352 87 115 180 
178 568 185 71 88 105 
186 730 92 88 112 195 
304 608 260 51 93 131 
213 600 154 66 88 108 
265 813 276 202 147 128 
202 268 264 127 129 136 
238 198 211 78 55 66 
209 921 227 114 90 72 
291 184 356 55 50 63 
280 301 440 169 168 175 
314 324 211 105 78 88 
198 710 187 98 102 116 
238 197 213 87 51 63 
388 683 344 112 120 134 
260 93 208 116 94 69 
279 489 362 81 118 187 
285 28 353 142 128 121 
307 177 382 102 44 33 
365 308 342 82 137 176 
299 720 222 96 108 121 
200 354 310 122 61 71 
191 340 302 140 90 71 
330 700 350 144 38 57 
304 330 419 75 116 149 
268 320 433 88 127 159 
322 348 211 101 118 136 
227 358 343 147 146 152 
280 909 298 167 119 92 
233 195 219 113 51 75 
311 307 417 94 96 102 
290 43 214 102 90 79 
322 445 313 46 60 86 
305 465 321 104 111 126 
314 159 381 121 75 47 
319 445 240 152 158 170 
234 991 270 98 76 56 
191 786 124 151 169 214 
308 684 365 152 176 204 
374 249 293 155 64 80 
339 198 410 95 43 23 
207 316 236 126 31 25 
299 46 212 98 85 72 
234 194 219 111 52 71 
233 419 185 83 95 108 
346 652 369 66 68 74 
349 272 243 86 121 149 
214 548 312 108 128 150 
311 409 354 99 129 162 
280 312 217 153 112 68 
296 61 218 105 88 72 
329 484 273 96 123 150 
258 372 212 66 91 113 
315 603 245 149 155 169 
190 423 205 101 90 80 
230 400 325 125 137 154 
381 195 329 123 110 102 
218 718 99 77 110 168 
178 645 222 87 101 142 
182 724 149 96 104 116 
403 204 414 143 74 21 
223 998 223 152 121 92 
170 795 165 47 69 111 
211 480 322 135 144 159 
378 173 407 97 75 65 
331 358 311 103 84 86 
241 843 248 169 126 99 
278 675 199 164 163 168 
314 685 241 80 111 140 
272 650 184 162 163 172 
269 435 198 118 121 128 
363 738 290 71 93 113 
214 839 189 146 129 121 
171 500 200 99 107 120 
195 585 171 107 118 132 
396 684 405 133 147 202 
292 772 313 162 119 91 
130 619 134 105 91 77 
204 644 115 88 116 142 
236 906 226 76 62 47 
288 148 204 61 47 71 
223 459 297 85 95 108 
188 776 245 45 33 65 
309 410 407 130 147 175 
248 340 205 120 124 132 
260 297 396 106 121 138 
296 848 218 179 135 104 
204 730 171 86 98 124 
231 441 401 124 142 173 
213 839 186 159 143 136 
196 632 127 78 114 143 
245 358 197 129 121 117 
209 534 294 172 163 160 
326 145 359 116 81 60 
381 697 328 148 155 167 
379 278 405 134 48 65 
254 289 352 109 115 124 
336 540 278 128 148 185 
286 183 331 97 49 36 
231 908 308 157 121 105 
288 769 196 101 72 44 
227 1003 242 135 96 70 
139 573 186 88 79 73 
204 771 264 160 135 108 
285 450 330 108 116 135 
259 622 331 70 106 137 
236 720 131 87 107 139 
254 286 223 74 107 136 
389 197 322 125 111 100 
178 659 111 83 84 90 
270 799 288 214 159 135 
238 194 219 85 44 55 
190 666 292 76 63 60 
278 775 304 202 149 117 
223 406 197 118 106 98 
320 383 364 186 153 117 
313 240 212 95 48 62 
224 889 256 113 88 61 
202 940 263 81 64 52 
220 780 274 167 136 109 
400 226 437 109 81 70 
359 219 409 50 37 28 
183 515 257 92 108 132 
230 355 383 102 108 127 
147 618 136 104 94 84 
227 378 309 48 76 119 
365 167 384 105 75 57 
177 473 267 118 121 152 
239 194 222 89 43 50 
318 240 452 140 117 124 
279 55 204 116 95 72 
337 466 298 93 111 135 
349 783 268 156 135 117 
223 656 119 30 72 128 
209 563 155 114 123 136 
185 429 220 61 65 71 
285 959 285 111 92 80 
287 85 295 101 71 49 
321 790 321 192 142 116 
245 508 158 56 91 121 
256 507 365 129 138 165 
150 562 229 132 97 84 
238 199 216 85 72 78 
315 148 293 94 73 57 
173 455 267 133 141 155 
278 163 209 100 46 55 
325 177 419 65 61 78 
296 927 228 58 45 42 
312 520 201 90 120 168 
275 356 220 115 118 125 
230 893 308 145 105 87 
371 733 374 168 99 114 
180 603 178 27 63 85 
238 197 222 101 44 60 
180 462 274 144 148 159 
251 318 396 130 103 83 
334 203 445 67 66 82 
315 685 267 73 100 124 
303 131 334 111 88 72 
238 198 221 99 44 64 
286 27 332 119 109 103 
396 664 356 72 103 137 
233 880 244 147 112 84 
397 213 390 94 66 68 
313 290 428 74 102 135 
238 199 223 87 54 73 
228 818 244 179 124 105 
237 633 146 32 65 95 
199 382 304 51 80 127 
248 902 215 72 59 48 
249 498 377 113 135 191 
304 790 305 192 145 115 
222 457 383 102 128 158 
234 325 215 129 116 103 
183 783 203 83 72 77 
229 983 283 95 74 61 
214 633 149 94 127 160 
351 214 404 64 43 28 
307 595 268 144 145 152 
163 709 249 109 134 158 
240 703 132 124 136 157 
221 290 241 126 125 127 
184 703 86 120 137 162 
250 902 213 81 66 52 
271 105 290 69 53 39 
274 403 209 109 114 124 
225 337 317 94 105 119 
203 651 125 82 102 147 
235 203 213 82 84 96 
251 899 213 87 71 58 
213 573 337 70 95 143 
306 63 281 116 106 98 
285 602 328 154 144 141 
354 203 240 113 37 61 
402 222 427 65 77 112 
365 215 416 87 37 31 
373 174 371 110 90 80 
327 354 229 97 121 153 
179 672 213 132 135 146 
296 630 324 67 80 94 
185 825 177 182 163 151 
288 243 426 90 67 77 
305 826 269 206 148 118 
356 679 402 126 159 190 
