ply
format ascii 1.0
comment Created by CloudCompare v2.11.1 (Anoia)
comment Created 2/28/22 9:42 PM
obj_info Generated by CloudCompare!
element vertex 2014
property float x
property float y
property float z
property uchar red
property uchar green
property uchar blue
end_header
222 879 243 119 94 66 
285 55 206 104 83 61 
253 936 305 174 130 105 
303 176 205 81 61 83 
261 811 260 164 116 98 
212 559 324 160 164 175 
267 215 244 124 122 124 
296 456 204 114 131 159 
299 245 483 127 61 73 
318 242 298 133 145 164 
297 506 169 92 113 157 
255 637 336 38 50 64 
259 243 392 51 50 75 
310 631 119 176 175 184 
236 732 304 161 133 103 
361 155 247 94 52 53 
304 752 355 164 131 101 
203 620 311 59 66 73 
244 125 298 154 78 78 
198 389 184 100 110 122 
330 206 189 160 156 160 
255 398 374 217 182 144 
187 556 165 134 137 147 
299 549 214 161 158 162 
338 663 361 92 113 145 
291 534 182 122 138 161 
246 634 320 46 61 74 
301 950 257 120 94 73 
355 340 181 143 148 159 
266 848 260 134 97 65 
296 296 200 100 99 105 
238 676 122 107 109 128 
276 889 294 162 116 90 
204 490 335 87 113 153 
296 583 266 91 96 104 
192 400 315 60 93 136 
299 583 103 77 98 120 
234 169 397 165 77 3 
204 734 147 93 109 126 
171 501 194 94 112 135 
262 637 348 31 37 46 
222 664 344 93 123 187 
230 750 292 189 156 128 
166 516 218 115 127 143 
249 121 290 146 53 72 
174 665 181 103 117 136 
336 656 402 98 124 170 
306 922 238 71 56 45 
205 773 174 160 153 161 
278 298 207 111 87 72 
278 875 206 140 101 67 
177 363 217 104 114 126 
292 71 230 79 67 56 
218 893 242 100 79 58 
152 327 271 47 77 109 
250 122 289 145 56 76 
239 580 116 115 87 55 
299 254 363 173 55 61 
216 758 136 91 114 140 
260 339 310 160 105 125 
252 374 178 109 120 134 
253 665 337 123 154 185 
267 239 241 134 115 97 
352 294 186 115 127 143 
265 245 452 117 55 73 
234 639 315 36 42 48 
300 517 163 111 128 156 
248 336 408 174 175 184 
336 201 391 101 55 23 
257 363 314 74 98 143 
211 884 271 166 127 100 
359 243 196 107 118 131 
274 841 188 235 170 130 
344 117 327 134 119 106 
251 478 334 150 154 165 
300 165 345 94 37 47 
296 791 321 196 140 113 
308 722 210 114 80 87 
260 126 363 156 60 5 
178 565 292 107 124 143 
272 181 398 142 80 47 
285 259 211 100 110 123 
307 426 147 55 92 121 
290 658 214 118 120 126 
322 515 154 121 144 169 
193 601 301 127 147 173 
266 575 324 154 151 154 
277 673 355 160 71 82 
310 887 213 116 99 82 
170 724 174 126 148 173 
307 918 227 97 77 58 
311 453 140 137 138 143 
187 439 178 122 130 142 
247 668 316 165 61 77 
260 282 222 135 122 109 
270 656 97 28 78 117 
161 344 292 34 71 121 
262 667 365 141 170 202 
305 248 367 144 12 53 
296 452 143 95 100 107 
238 393 358 177 131 74 
241 574 115 120 92 58 
344 322 212 107 125 145 
298 299 274 152 146 148 
272 310 300 168 120 55 
210 658 341 109 126 155 
255 740 313 132 123 118 
288 92 353 96 81 66 
174 470 188 91 114 140 
173 385 282 120 133 157 
223 105 327 84 63 42 
278 149 344 73 40 19 
350 235 458 119 102 91 
281 268 213 132 114 96 
223 106 325 93 67 43 
261 972 210 85 63 40 
166 598 225 79 119 150 
273 123 336 103 87 78 
281 506 124 97 113 132 
307 536 242 166 158 155 
282 101 286 101 79 70 
279 606 279 43 63 80 
206 686 141 40 68 118 
355 179 208 90 56 64 
169 497 196 90 116 143 
271 474 328 163 165 174 
237 309 222 142 125 109 
278 462 133 67 63 74 
218 791 144 41 30 75 
328 756 244 139 121 104 
269 104 319 74 58 47 
319 711 235 106 35 57 
262 12 376 53 49 46 
222 108 323 109 76 57 
287 528 108 112 129 150 
335 756 307 130 122 117 
291 162 359 70 55 36 
280 643 332 50 62 74 
222 110 320 137 103 77 
313 668 239 74 123 161 
339 153 196 47 53 68 
195 267 329 138 138 144 
332 244 469 187 82 2 
224 661 327 117 143 170 
306 196 406 116 68 40 
302 89 233 85 75 66 
304 261 292 137 71 92 
192 745 161 118 82 85 
275 10 361 79 75 72 
260 699 94 133 144 169 
300 681 118 62 93 132 
221 109 327 114 78 67 
305 782 168 67 46 96 
365 205 247 120 16 54 
209 361 329 124 127 137 
304 596 250 116 71 85 
291 575 201 110 128 149 
300 605 256 163 162 168 
220 110 326 119 84 65 
287 559 315 139 148 164 
270 277 219 135 119 104 
254 299 375 108 125 146 
244 979 269 108 82 58 
252 995 236 145 117 89 
294 169 342 81 40 39 
314 568 146 137 145 161 
192 479 288 128 132 141 
278 819 259 169 121 99 
264 563 108 105 103 109 
219 111 333 110 79 65 
168 715 212 94 96 119 
286 687 101 105 116 152 
288 599 173 157 160 169 
175 317 305 133 138 148 
221 107 330 103 71 47 
299 668 185 140 144 155 
211 562 324 195 185 181 
202 373 193 69 87 106 
168 651 260 183 120 69 
305 932 249 66 56 48 
223 289 352 108 122 140 
277 771 311 184 138 108 
362 155 249 94 49 44 
320 714 391 167 21 46 
357 226 263 148 149 157 
369 196 241 126 34 46 
332 237 201 117 127 140 
220 873 250 131 100 73 
332 211 316 129 63 73 
291 573 159 156 163 177 
230 902 307 130 104 81 
258 409 311 58 82 130 
339 116 244 113 80 58 
291 212 491 109 97 85 
294 639 351 74 85 98 
240 490 336 137 142 161 
276 768 105 122 145 195 
305 505 162 93 118 151 
312 387 200 80 98 148 
206 337 326 111 88 74 
276 651 405 77 64 53 
312 312 264 119 132 150 
297 800 155 152 134 122 
185 650 162 88 108 134 
347 300 217 126 77 96 
211 907 239 74 60 52 
276 756 327 132 119 112 
301 889 255 102 81 64 
271 995 241 116 87 60 
320 161 187 101 49 45 
170 591 207 166 159 159 
292 45 212 123 112 104 
308 840 218 195 150 120 
178 557 293 86 116 151 
320 291 260 155 150 152 
368 216 217 94 91 106 
218 257 260 143 125 105 
195 453 316 73 105 147 
232 465 163 87 103 120 
263 32 243 120 92 75 
221 108 333 103 75 57 
237 915 310 191 148 123 
198 347 311 84 84 95 
205 341 336 141 143 152 
232 975 245 106 83 58 
260 340 312 153 82 108 
179 738 166 37 65 139 
266 549 331 90 101 144 
167 572 214 74 121 158 
320 807 244 177 131 99 
295 697 392 151 167 188 
255 610 310 89 90 96 
250 728 311 120 101 90 
336 222 293 174 122 59 
242 688 306 131 92 42 
216 791 172 131 114 108 
203 462 281 73 91 109 
297 450 254 155 159 168 
289 582 188 87 123 159 
318 630 397 88 101 116 
311 471 137 92 96 107 
310 259 288 162 162 169 
337 659 399 96 124 157 
288 103 373 119 86 44 
289 797 291 185 132 105 
254 415 359 210 173 131 
179 692 247 184 129 39 
276 636 372 85 78 73 
266 814 258 167 118 97 
305 923 227 77 59 44 
342 111 306 110 100 93 
298 657 167 63 108 146 
250 605 314 102 118 138 
243 620 308 40 56 69 
296 890 265 124 88 63 
208 552 320 83 107 155 
250 463 336 83 110 163 
211 659 341 117 137 167 
269 768 302 188 141 111 
269 855 205 183 137 100 
258 944 299 150 116 101 
202 268 261 93 89 94 
326 325 224 124 109 132 
316 249 399 76 98 138 
357 122 265 115 72 45 
220 111 337 95 69 59 
259 642 387 117 93 66 
220 110 339 101 76 65 
234 428 151 108 122 148 
289 797 295 185 133 104 
302 235 351 99 36 28 
300 140 199 80 51 48 
316 205 334 60 73 101 
355 166 281 135 54 74 
267 943 209 126 98 65 
256 441 321 71 99 130 
313 230 487 178 79 1 
221 109 343 95 60 57 
220 609 142 173 163 161 
258 641 103 78 62 54 
328 110 276 128 81 56 
230 657 139 103 108 117 
298 175 363 110 51 38 
238 841 275 122 94 71 
285 901 280 160 117 90 
187 495 246 144 146 154 
232 984 227 93 71 55 
303 928 250 64 53 45 
277 673 356 144 82 102 
283 54 207 110 91 70 
233 821 128 96 105 125 
246 387 334 84 95 123 
310 727 211 91 57 61 
191 425 311 71 99 148 
293 749 128 130 146 173 
222 109 343 89 62 60 
195 364 203 121 126 135 
218 939 226 135 114 95 
297 931 217 82 65 49 
314 577 143 105 134 163 
189 486 288 94 117 142 
300 645 220 68 89 108 
298 711 125 171 172 181 
333 744 338 55 44 45 
220 111 345 101 68 70 
292 613 167 78 127 164 
349 674 288 149 160 177 
304 261 473 124 100 127 
275 313 290 181 142 98 
306 631 263 102 112 126 
294 232 208 81 112 140 
221 111 346 93 64 70 
198 708 294 124 104 95 
275 34 214 65 45 31 
287 832 175 198 162 138 
243 995 255 145 109 79 
334 438 168 149 159 175 
297 697 396 115 129 149 
262 93 252 98 88 79 
369 222 220 81 93 118 
298 576 256 144 147 158 
239 346 196 114 105 98 
258 130 278 69 46 54 
310 195 386 87 49 44 
187 467 295 140 146 159 
287 261 477 150 42 40 
309 720 381 188 142 120 
334 208 409 98 57 38 
262 131 263 103 44 46 
354 204 197 93 64 66 
171 669 183 78 98 120 
235 418 358 156 130 100 
199 506 332 155 162 176 
281 106 375 153 106 92 
210 619 308 47 60 73 
248 302 421 81 126 160 
335 133 335 158 78 5 
156 395 237 76 93 126 
356 298 186 151 134 117 
342 120 333 132 114 98 
315 386 167 43 90 125 
180 647 174 125 132 145 
297 343 187 83 102 123 
217 886 249 121 91 64 
297 452 302 123 132 146 
331 119 326 132 105 88 
265 470 328 73 99 140 
222 111 351 65 74 86 
287 47 361 117 100 84 
313 250 293 101 128 159 
175 737 211 158 131 105 
247 169 393 139 85 68 
280 846 194 234 171 131 
318 531 276 126 139 157 
270 102 301 109 63 61 
219 115 327 124 83 73 
220 753 282 206 161 132 
265 856 293 153 117 85 
219 116 327 111 70 65 
278 920 293 94 73 59 
238 756 289 197 149 121 
314 814 225 166 125 91 
277 795 282 192 144 120 
299 697 122 134 145 165 
175 678 242 168 119 40 
268 423 311 148 145 149 
173 336 300 163 155 155 
268 320 301 179 144 102 
322 702 249 49 44 83 
298 212 493 122 111 101 
362 184 255 93 73 91 
172 289 266 126 86 58 
261 784 284 191 141 117 
309 642 262 70 93 118 
282 41 345 90 79 68 
258 170 340 96 56 48 
301 714 380 188 104 112 
318 632 403 90 107 125 
232 419 353 150 128 105 
183 659 301 115 109 110 
317 358 229 55 93 147 
299 685 195 142 133 136 
291 457 227 98 114 138 
270 635 373 89 81 74 
222 114 320 141 104 82 
230 173 385 133 133 135 
283 616 337 97 116 142 
254 413 314 74 91 140 
203 925 265 116 93 74 
340 112 261 131 71 20 
329 646 367 94 120 150 
234 600 324 155 151 154 
190 733 253 151 133 122 
302 936 264 88 72 57 
183 742 221 127 115 119 
315 156 341 78 66 62 
333 222 461 116 80 66 
210 271 260 93 44 26 
270 59 339 80 67 54 
198 452 289 50 67 106 
252 716 314 150 142 138 
244 894 303 63 42 40 
247 833 232 157 114 91 
220 114 326 128 85 69 
275 948 215 156 122 88 
205 317 337 89 100 114 
288 587 281 143 134 129 
173 418 263 121 128 146 
256 679 95 103 122 153 
285 529 108 94 111 131 
282 545 103 81 111 138 
306 662 425 112 129 194 
211 782 164 104 92 100 
329 467 162 161 164 174 
177 598 276 110 127 148 
280 321 395 81 115 144 
315 412 159 77 103 127 
278 487 124 137 92 77 
197 653 320 89 108 129 
162 407 214 113 119 129 
311 264 273 98 124 154 
339 622 295 53 63 75 
318 211 448 120 76 60 
168 633 217 85 124 155 
206 552 144 134 128 127 
370 256 209 149 148 152 
300 267 407 117 113 139 
222 888 231 170 107 86 
261 183 433 147 111 67 
230 782 260 195 142 116 
205 352 312 75 85 113 
344 712 278 101 72 81 
192 619 296 44 49 56 
312 636 272 84 102 121 
186 752 175 205 149 58 
314 604 125 179 178 187 
165 564 224 127 137 152 
188 536 322 99 121 173 
255 995 227 118 90 65 
344 719 321 53 55 87 
219 112 330 115 79 63 
242 367 326 126 127 135 
221 795 206 72 57 63 
246 725 310 185 153 121 
179 621 284 52 54 77 
224 434 343 126 132 141 
246 940 305 170 123 101 
296 257 310 74 132 172 
296 803 290 192 141 113 
312 658 429 124 137 192 
211 559 142 121 134 164 
285 875 272 164 127 98 
197 660 321 86 109 166 
274 120 209 170 69 9 
327 494 156 137 152 178 
272 232 234 103 108 116 
287 91 354 96 81 67 
251 828 211 195 145 119 
229 981 239 113 90 66 
285 292 284 155 155 162 
308 471 138 90 87 90 
258 980 266 139 106 80 
261 265 459 153 76 75 
312 248 298 159 161 170 
261 139 270 53 58 67 
181 626 295 158 110 102 
255 254 379 111 73 75 
330 258 438 176 118 126 
296 461 303 160 159 165 
293 98 262 81 70 60 
262 585 321 120 130 149 
325 504 132 67 104 138 
251 303 428 84 138 178 
318 580 124 89 138 176 
234 856 246 110 83 51 
173 275 270 138 121 104 
223 537 335 104 124 154 
185 707 250 139 112 88 
181 543 182 72 102 130 
319 914 252 96 78 62 
218 116 329 115 75 71 
196 387 292 54 71 106 
300 823 261 205 148 117 
314 258 199 99 117 136 
190 312 247 114 74 26 
203 775 209 217 181 149 
302 699 174 91 117 143 
183 678 159 98 110 126 
359 239 196 143 143 147 
293 877 212 139 101 78 
295 497 317 173 164 162 
333 250 274 134 132 137 
232 568 143 57 60 83 
210 775 156 84 45 81 
345 717 311 72 55 102 
167 618 225 173 162 161 
332 194 364 143 84 55 
188 664 296 80 83 95 
200 587 310 104 134 169 
310 358 256 60 97 145 
291 553 103 53 79 99 
287 585 175 151 154 164 
259 576 327 108 123 147 
231 969 243 89 61 36 
261 425 147 76 96 114 
186 729 158 118 140 163 
174 585 259 130 136 148 
273 201 225 136 130 130 
211 896 250 112 86 66 
269 516 126 99 104 113 
281 20 236 124 114 110 
196 440 291 56 75 103 
284 300 425 104 93 141 
166 289 293 122 122 128 
278 216 215 99 114 132 
327 112 235 107 92 83 
337 117 237 99 82 66 
254 302 409 67 91 112 
218 119 334 104 83 85 
341 108 283 106 88 79 
271 775 106 128 160 191 
278 95 204 127 103 77 
292 313 198 113 103 96 
265 256 421 119 104 103 
184 364 296 68 103 137 
187 586 164 95 124 159 
219 121 326 84 84 88 
291 540 168 143 155 172 
208 512 326 59 69 115 
293 124 343 115 97 91 
163 294 290 109 120 133 
151 345 277 68 86 124 
246 368 346 113 125 140 
230 368 350 166 148 133 
308 195 394 82 54 45 
234 160 401 115 90 71 
238 960 219 107 79 59 
282 884 284 169 123 96 
308 419 270 92 112 145 
333 673 272 122 132 147 
170 269 277 129 118 109 
176 310 257 122 109 97 
312 524 252 162 157 159 
203 924 264 113 91 72 
268 84 376 124 101 77 
248 356 346 137 140 149 
236 212 364 98 50 58 
275 15 239 126 113 105 
219 126 324 80 84 90 
175 265 300 78 108 134 
288 267 473 184 63 62 
321 109 259 113 80 56 
224 290 246 115 69 47 
176 552 248 152 149 153 
219 711 129 99 119 142 
204 433 286 53 75 112 
185 519 308 29 73 136 
284 626 210 122 123 131 
358 237 257 157 153 156 
337 456 155 162 168 181 
203 921 262 102 83 67 
187 710 262 85 82 84 
324 201 397 100 55 27 
294 438 231 129 141 158 
236 557 340 120 131 151 
213 891 281 111 85 75 
295 786 145 167 58 60 
340 246 271 156 149 150 
253 829 140 110 86 88 
281 516 118 85 108 129 
225 472 349 165 183 208 
232 489 155 73 84 98 
274 311 292 172 134 100 
266 260 413 148 88 86 
320 715 241 128 36 35 
308 639 132 166 160 163 
214 335 217 126 116 108 
203 693 142 36 60 116 
220 120 325 85 84 89 
320 208 433 98 63 58 
300 673 186 157 157 165 
167 656 250 127 87 110 
221 121 324 89 89 93 
267 145 225 131 93 92 
282 117 358 77 58 40 
257 843 285 141 100 74 
338 359 197 82 112 152 
291 609 320 69 86 103 
324 318 242 113 131 154 
164 664 220 81 92 103 
221 124 322 90 90 95 
318 816 252 199 142 108 
323 690 254 110 38 36 
281 592 292 103 117 134 
165 568 225 133 138 148 
281 438 313 140 143 153 
177 613 273 144 147 156 
304 106 282 105 85 72 
239 503 127 110 92 73 
271 460 324 170 163 163 
305 438 269 122 142 170 
212 316 327 107 59 66 
305 752 196 93 49 60 
257 67 207 124 100 72 
288 403 299 147 143 146 
170 388 208 111 115 122 
223 520 333 108 116 155 
210 918 237 77 61 50 
208 946 271 103 81 66 
324 243 203 122 132 146 
258 375 330 64 103 148 
286 109 201 132 111 92 
344 180 317 127 90 98 
289 245 337 98 19 45 
239 268 249 134 119 105 
264 12 207 151 132 117 
260 98 286 111 70 68 
347 224 273 125 133 146 
313 765 207 115 103 98 
276 642 333 43 56 68 
207 739 289 203 189 181 
301 459 178 106 126 159 
317 537 117 87 98 118 
217 122 330 82 80 86 
220 797 173 168 148 132 
193 447 314 69 96 147 
263 303 433 90 146 189 
203 260 338 71 115 149 
343 389 164 78 109 144 
315 750 358 158 135 115 
291 580 230 114 122 135 
226 638 358 125 100 76 
217 121 333 86 81 87 
326 742 242 127 112 102 
218 892 243 103 79 56 
334 653 355 45 81 130 
295 563 307 121 130 146 
286 240 211 126 126 130 
325 415 153 121 139 161 
225 430 157 83 87 104 
291 761 125 164 170 184 
285 308 280 91 115 144 
328 792 270 186 133 101 
181 699 249 61 60 60 
258 177 419 165 78 4 
310 201 206 113 100 96 
287 750 338 183 167 158 
270 188 239 72 98 121 
361 148 259 47 48 58 
269 330 200 98 91 87 
294 952 268 113 90 68 
314 101 362 137 123 113 
270 13 218 133 113 94 
332 646 279 101 118 141 
275 227 224 88 106 126 
217 125 330 83 79 87 
308 234 330 142 139 145 
216 491 336 77 97 156 
282 268 338 130 0 70 
338 377 167 123 136 153 
338 750 302 161 121 84 
226 275 255 128 108 90 
292 763 132 158 164 176 
193 417 178 96 114 135 
185 506 243 155 152 157 
235 773 108 138 155 176 
295 437 303 98 110 137 
312 74 214 118 86 59 
303 900 267 113 85 67 
239 647 112 149 102 71 
202 457 326 125 137 153 
317 701 229 140 58 68 
291 549 189 105 134 163 
256 300 392 147 147 153 
297 207 487 153 81 18 
208 934 241 85 70 59 
176 270 268 138 120 101 
283 178 364 69 47 43 
293 191 411 151 83 35 
234 885 230 119 80 33 
303 248 481 129 54 69 
359 208 261 102 69 85 
182 592 300 82 103 171 
171 699 175 133 146 164 
305 659 130 168 169 178 
294 67 362 97 84 70 
265 513 129 116 87 89 
212 914 230 75 62 53 
199 752 245 129 129 134 
250 556 338 117 139 165 
163 347 242 68 88 107 
347 237 462 168 148 130 
347 236 434 132 116 101 
278 820 259 168 120 98 
288 501 122 145 147 153 
270 617 328 40 82 112 
282 269 470 138 29 65 
218 115 337 101 72 69 
239 655 373 174 180 201 
170 647 194 107 105 108 
243 543 118 121 92 59 
250 753 302 163 120 93 
354 116 309 139 82 46 
168 345 296 64 94 136 
238 535 342 100 115 145 
220 546 140 124 127 135 
292 621 335 19 37 78 
293 303 199 127 78 50 
231 576 335 120 135 162 
355 240 193 120 135 153 
284 274 376 54 118 159 
333 248 465 188 74 3 
160 668 229 104 107 113 
261 543 116 104 80 59 
261 247 243 109 37 44 
246 777 104 164 179 203 
320 165 356 142 73 22 
269 197 450 163 77 0 
293 62 359 88 76 64 
196 504 277 119 117 120 
321 891 240 124 102 78 
287 496 125 106 120 138 
296 466 306 136 138 147 
218 116 338 100 77 68 
322 344 208 98 127 158 
292 100 269 81 70 61 
252 679 314 125 64 93 
302 686 188 109 134 162 
301 466 275 129 136 154 
292 696 110 173 173 182 
324 242 203 118 129 144 
233 300 231 140 124 109 
259 558 335 100 117 154 
271 990 260 123 90 62 
352 356 173 68 113 151 
261 252 448 137 74 73 
301 310 274 153 147 149 
298 679 112 115 142 180 
247 834 223 163 119 88 
299 465 297 167 165 170 
267 586 106 107 108 118 
247 868 300 178 137 115 
363 182 255 87 64 84 
204 451 328 135 141 152 
239 324 350 77 119 153 
196 407 178 137 135 136 
172 549 231 107 126 148 
191 390 303 63 94 136 
171 323 248 113 105 99 
298 638 333 35 58 78 
241 455 338 85 88 106 
264 252 463 139 52 67 
229 885 304 187 139 124 
304 452 275 136 148 165 
194 763 183 91 118 156 
298 729 147 72 92 116 
260 69 235 96 78 60 
247 906 195 89 63 59 
302 577 236 80 97 115 
344 388 164 102 129 160 
298 436 219 166 166 173 
257 291 382 149 147 152 
288 166 359 77 58 44 
221 776 254 200 149 122 
219 115 344 104 83 70 
276 250 225 80 97 113 
305 747 198 114 35 35 
244 815 229 154 90 74 
265 263 404 146 97 92 
285 919 204 63 49 33 
266 44 240 119 97 74 
262 616 305 52 68 83 
291 620 181 72 124 164 
207 623 143 86 107 130 
178 661 293 93 113 134 
298 215 493 130 117 104 
346 292 220 146 83 112 
296 688 111 154 158 170 
262 223 399 140 45 68 
164 536 214 162 157 159 
306 693 408 178 194 218 
213 659 307 51 98 131 
242 639 328 49 53 59 
315 243 383 67 39 80 
300 674 114 157 169 191 
276 611 290 51 60 72 
220 112 347 85 58 63 
289 891 197 115 91 71 
236 392 355 177 63 5 
337 170 329 151 80 82 
238 548 122 125 93 63 
187 676 278 149 59 35 
327 155 191 61 54 58 
313 397 164 72 99 126 
186 543 167 82 113 140 
289 967 259 128 100 74 
263 11 214 146 126 109 
220 113 348 86 56 63 
152 346 281 76 94 137 
221 112 349 69 60 71 
293 310 198 108 97 89 
299 166 342 91 29 38 
262 715 94 57 101 154 
339 703 362 99 96 139 
243 501 122 127 101 75 
315 195 207 121 119 124 
296 950 239 79 60 49 
315 108 279 118 89 71 
241 231 368 43 43 77 
323 762 344 205 187 176 
295 641 146 80 129 167 
259 96 212 126 100 72 
277 187 436 161 83 0 
314 909 269 126 102 76 
289 715 358 115 115 130 
163 440 208 107 118 134 
243 341 399 123 137 157 
169 661 205 151 148 152 
322 433 173 101 121 155 
177 561 302 116 133 156 
289 817 266 190 137 106 
280 544 104 87 110 133 
268 36 243 124 97 82 
306 92 201 144 101 83 
220 116 349 98 64 55 
229 685 299 160 130 89 
240 808 230 186 126 108 
181 694 252 99 84 74 
265 353 187 61 87 109 
258 820 243 164 110 93 
211 912 236 77 64 54 
256 831 169 154 149 150 
265 81 376 123 104 85 
220 118 348 95 66 55 
185 611 293 69 95 148 
224 660 319 83 124 157 
176 567 194 126 143 164 
347 685 309 154 32 42 
289 912 283 103 78 63 
329 226 198 102 110 122 
261 314 424 177 181 193 
242 388 172 63 84 109 
213 538 143 108 117 130 
197 762 171 143 130 123 
341 253 191 87 130 166 
178 544 246 104 118 136 
191 371 200 127 128 133 
318 182 190 29 63 126 
223 701 130 53 87 131 
189 291 259 125 114 104 
213 457 335 135 137 147 
262 398 163 132 132 134 
253 651 100 74 65 64 
219 348 334 158 149 148 
236 625 115 136 94 66 
223 800 165 145 122 103 
261 265 232 91 86 86 
218 121 337 68 67 78 
294 752 347 162 138 116 
218 120 339 75 67 68 
257 611 307 68 69 72 
267 92 340 91 77 62 
222 883 240 114 90 65 
352 165 305 81 93 114 
218 120 340 86 75 73 
339 335 181 106 117 131 
322 893 245 102 84 69 
343 729 309 137 111 106 
348 692 306 160 30 45 
286 684 407 111 129 190 
155 392 242 83 101 126 
273 861 205 157 121 88 
219 120 343 90 68 56 
292 932 213 78 63 49 
369 276 211 117 131 148 
313 400 187 50 91 149 
306 637 380 36 54 76 
339 226 410 169 81 5 
275 40 341 81 69 58 
175 363 219 81 93 106 
194 482 319 109 128 151 
225 320 339 71 92 115 
191 621 306 34 39 46 
227 309 230 144 129 115 
264 744 97 114 130 171 
168 592 240 96 121 148 
340 294 221 160 80 116 
319 915 252 93 75 58 
257 387 309 98 122 149 
188 520 321 146 155 169 
209 664 326 122 151 180 
293 509 192 63 96 149 
236 624 116 135 93 64 
286 287 396 150 87 86 
216 126 337 68 74 86 
192 695 149 77 106 146 
254 531 116 134 99 72 
242 501 124 131 105 79 
289 813 270 198 143 112 
198 498 164 63 81 98 
286 632 95 80 110 171 
303 102 255 97 87 78 
199 363 330 117 134 157 
217 124 341 56 72 90 
303 106 279 96 78 66 
256 117 227 96 72 54 
245 838 233 157 117 89 
337 140 331 117 90 97 
297 692 155 141 144 154 
239 446 157 35 70 119 
217 935 224 70 55 44 
222 623 318 76 73 73 
330 648 412 177 182 194 
217 127 343 55 76 96 
350 193 197 136 46 7 
218 124 342 56 67 84 
313 470 135 108 117 129 
289 707 364 137 111 95 
282 749 333 163 150 144 
192 497 283 79 97 115 
344 672 279 132 139 152 
305 521 231 95 122 148 
257 258 240 133 116 99 
303 225 344 107 33 47 
327 698 400 171 182 200 
286 749 338 179 162 151 
301 678 213 58 91 116 
345 133 324 110 119 130 
229 396 350 157 94 67 
292 87 360 100 82 64 
206 286 332 114 124 138 
168 445 243 139 142 157 
223 871 287 145 107 86 
275 697 336 142 119 98 
314 77 206 137 97 59 
242 271 363 152 72 13 
257 415 312 149 149 155 
306 763 186 107 44 61 
311 541 291 96 115 149 
276 339 390 188 192 204 
186 540 319 117 140 179 
314 200 407 102 62 43 
266 344 294 148 148 155 
291 55 205 144 140 139 
256 750 311 130 109 92 
293 610 315 61 74 89 
292 484 222 131 138 151 
185 749 219 160 124 98 
323 639 417 77 110 141 
272 366 292 79 109 138 
218 515 330 139 146 169 
233 591 132 103 79 65 
324 332 232 144 151 165 
206 506 155 91 103 117 
312 523 253 167 162 165 
296 765 142 122 117 123 
317 687 247 119 130 145 
313 195 371 83 51 46 
290 692 374 104 130 158 
209 945 276 99 75 63 
259 679 320 147 27 49 
336 206 403 94 55 44 
260 54 339 82 70 58 
333 287 238 157 117 60 
281 66 366 101 90 82 
219 564 143 170 162 160 
313 229 487 177 83 1 
321 351 225 63 109 155 
163 388 220 86 98 114 
242 628 315 49 48 49 
366 195 224 106 39 31 
309 633 362 79 88 99 
220 122 348 82 50 46 
220 122 349 91 63 52 
267 103 310 94 60 54 
272 235 235 113 107 104 
154 373 247 93 106 122 
160 317 295 124 36 82 
266 225 439 134 111 94 
226 808 126 150 77 84 
294 53 208 136 128 122 
282 869 281 164 124 93 
337 238 276 97 127 158 
318 272 448 172 132 136 
300 949 272 108 85 64 
231 539 138 108 104 114 
184 361 297 62 94 130 
271 581 100 98 121 155 
324 634 372 54 92 128 
221 124 351 104 82 68 
304 417 199 75 110 159 
328 242 282 132 142 157 
297 921 282 123 93 69 
296 890 270 133 85 63 
234 937 210 100 76 50 
284 781 119 165 155 152 
268 31 246 123 88 80 
226 607 140 49 48 69 
322 469 163 106 130 162 
180 493 180 95 113 138 
167 534 206 83 125 159 
169 652 214 67 112 146 
214 329 323 107 66 90 
307 759 350 212 191 177 
302 694 402 170 189 214 
249 375 329 104 113 128 
304 671 216 79 63 79 
225 794 225 190 137 116 
300 683 173 159 160 168 
261 514 337 113 132 162 
182 527 245 86 109 133 
172 731 211 169 134 93 
251 483 334 89 105 143 
201 450 322 127 136 150 
316 273 442 157 83 106 
212 908 231 84 69 55 
222 113 352 44 56 76 
316 192 335 63 74 95 
260 945 298 143 110 91 
261 52 204 130 106 81 
237 661 117 89 110 131 
250 203 344 81 60 54 
226 723 127 74 86 108 
327 291 245 90 109 130 
248 898 210 73 58 43 
348 683 287 151 163 179 
343 677 347 164 169 182 
253 878 223 121 91 60 
359 251 246 147 153 166 
234 397 166 47 78 109 
231 717 124 105 115 129 
286 863 204 131 106 84 
276 161 347 68 53 43 
238 681 116 83 91 120 
348 238 191 160 158 162 
175 625 269 137 96 88 
181 541 181 67 91 114 
246 855 295 146 110 89 
268 733 96 93 119 172 
288 50 354 103 88 73 
360 198 259 77 64 86 
304 569 264 113 141 170 
256 782 106 152 171 195 
290 811 147 146 129 112 
303 558 243 78 114 143 
222 118 352 94 66 64 
288 51 359 116 102 90 
217 926 220 96 78 60 
294 704 376 121 36 49 
332 117 318 124 107 95 
267 196 244 76 97 118 
271 302 308 172 123 65 
215 891 248 117 90 63 
191 356 213 98 106 116 
285 82 240 84 73 63 
345 695 276 147 30 41 
222 121 352 100 76 67 
295 572 213 80 127 164 
274 38 214 84 67 48 
245 359 331 137 134 137 
347 231 271 81 107 136 
243 823 163 208 183 165 
332 655 387 100 121 145 
194 474 260 156 153 156 
251 337 200 104 94 84 
266 345 388 144 99 101 
211 930 235 77 56 51 
220 298 348 151 151 158 
280 760 106 71 115 162 
251 312 400 128 131 138 
222 124 352 98 73 59 
280 909 187 82 62 47 
323 622 318 74 89 104 
295 255 349 90 79 105 
222 775 259 202 149 122 
210 628 143 102 122 150 
303 704 165 131 144 162 
275 787 291 190 141 113 
222 127 352 59 50 62 
296 625 193 88 124 153 
361 295 192 138 101 47 
256 96 283 103 66 67 
280 316 411 82 141 183 
198 677 145 60 101 135 
249 457 338 150 160 178 
204 767 164 120 63 59 
303 119 221 94 85 80 
275 729 99 53 71 126 
199 484 324 87 112 155 
275 702 335 56 35 72 
236 812 201 185 134 115 
294 71 343 75 67 60 
339 647 345 139 142 151 
313 892 248 90 77 66 
157 339 289 99 114 142 
255 982 268 151 120 91 
312 195 384 88 60 54 
238 68 350 91 77 63 
312 665 223 108 130 154 
333 247 467 185 80 3 
278 532 109 62 73 109 
294 922 212 81 64 49 
292 485 224 125 136 153 
157 397 260 127 138 158 
279 216 472 126 134 146 
191 380 294 57 77 111 
292 749 131 72 95 158 
303 613 271 132 136 145 
212 473 338 153 159 172 
310 251 391 142 44 91 
263 216 404 149 92 65 
300 211 491 137 89 37 
312 826 248 205 149 115 
287 909 184 82 62 44 
215 680 293 120 31 72 
180 520 237 83 104 127 
214 341 321 122 112 117 
236 649 370 140 137 140 
234 79 351 90 76 63 
298 665 173 86 104 128 
214 779 144 173 122 107 
349 176 201 69 46 56 
253 335 344 75 119 156 
257 812 254 165 112 96 
306 383 169 65 91 119 
206 287 331 117 123 136 
290 597 160 162 165 175 
259 342 196 98 41 36 
167 503 201 154 151 156 
182 437 261 141 141 151 
303 562 300 141 146 157 
354 112 304 120 105 95 
200 735 287 202 175 150 
197 341 314 87 90 98 
258 383 359 172 16 71 
232 652 141 108 114 129 
343 235 427 166 69 2 
298 607 294 66 92 114 
272 618 97 121 142 176 
252 498 121 113 90 64 
339 200 375 125 105 82 
172 380 209 90 102 116 
248 572 111 121 92 59 
316 642 393 48 70 90 
176 635 185 74 108 136 
254 283 422 113 45 76 
255 617 305 38 59 77 
234 517 132 110 92 74 
219 765 124 128 144 161 
238 74 350 94 81 68 
232 290 353 126 118 114 
348 693 304 149 87 101 
218 668 142 97 110 127 
194 378 322 133 139 150 
206 285 257 130 115 103 
305 885 252 111 91 72 
295 726 363 136 116 106 
312 191 207 112 120 130 
215 346 320 126 113 119 
331 343 204 57 87 141 
242 450 340 96 89 94 
300 87 346 78 69 61 
166 727 187 145 123 140 
280 849 258 142 101 69 
290 756 121 186 178 179 
326 282 249 163 157 160 
237 866 235 122 95 66 
237 77 349 90 77 64 
269 772 299 187 139 110 
320 257 421 182 133 92 
289 589 179 156 159 169 
236 78 349 91 77 63 
365 266 226 164 162 168 
288 437 140 92 90 90 
198 337 314 124 95 58 
236 870 235 122 94 65 
274 119 209 179 67 1 
318 429 175 72 107 152 
258 556 336 142 148 163 
253 394 353 196 161 122 
326 181 333 136 60 79 
285 698 359 139 32 59 
261 366 360 81 96 115 
314 196 369 86 53 49 
214 758 141 182 111 119 
266 716 94 127 138 182 
315 259 276 106 135 165 
164 354 291 60 101 135 
263 199 412 70 82 103 
171 621 245 142 142 148 
231 94 349 89 76 64 
237 823 146 147 127 109 
309 432 146 92 110 127 
206 574 143 88 101 116 
167 650 228 80 57 66 
326 612 285 127 129 135 
186 704 154 137 152 171 
195 737 152 131 162 192 
159 424 227 61 89 136 
262 327 363 60 101 137 
303 498 306 71 103 138 
154 385 252 92 107 133 
298 765 343 131 110 95 
319 711 242 126 33 39 
348 253 192 81 110 138 
312 306 267 115 122 139 
213 499 333 177 183 197 
307 609 298 122 125 133 
270 132 352 128 38 6 
220 955 235 118 91 67 
348 176 315 51 96 128 
277 233 223 105 113 126 
351 362 172 66 112 149 
342 110 304 108 99 92 
238 87 343 75 65 55 
258 647 390 121 96 75 
301 390 284 87 103 134 
296 883 246 105 79 59 
188 503 248 163 156 155 
217 872 280 157 121 95 
304 525 158 114 137 166 
165 662 239 89 93 133 
289 736 347 156 141 130 
186 568 163 131 138 150 
207 483 162 91 116 140 
277 485 329 172 170 175 
167 724 183 145 65 76 
235 80 349 88 75 62 
333 191 364 129 95 61 
324 340 209 90 114 157 
223 480 340 110 126 172 
300 609 330 82 100 118 
324 208 421 99 60 47 
247 822 195 206 146 120 
159 416 244 122 131 154 
370 209 230 107 84 98 
259 668 373 154 177 203 
322 887 250 105 84 64 
167 368 223 94 99 106 
315 796 217 130 135 146 
208 520 150 123 124 129 
307 573 242 109 122 139 
286 770 327 182 137 109 
257 797 269 188 135 116 
201 718 149 152 159 172 
220 718 128 104 123 149 
235 87 347 79 68 58 
212 938 287 145 108 92 
341 724 333 105 126 147 
294 411 151 94 107 122 
312 182 196 86 49 86 
227 305 232 146 129 112 
233 85 350 85 71 58 
342 109 279 113 85 69 
183 268 308 76 111 140 
319 277 263 146 141 145 
186 569 161 78 100 124 
252 876 224 111 85 53 
237 891 225 116 89 52 
260 266 389 99 70 74 
267 110 209 135 111 89 
162 446 232 116 118 147 
300 592 282 126 119 125 
320 790 226 104 114 126 
310 518 157 100 125 157 
214 426 335 106 121 138 
201 432 320 55 86 131 
341 295 190 130 129 133 
281 235 484 69 69 97 
282 458 319 174 166 165 
243 442 355 141 104 95 
335 656 394 106 128 153 
234 447 162 99 118 147 
305 306 272 156 149 151 
294 873 214 160 114 83 
259 270 425 105 93 98 
237 511 125 114 93 72 
329 215 439 83 64 66 
167 294 269 92 98 105 
303 414 288 111 125 149 
296 713 134 97 112 163 
267 653 96 37 71 102 
169 649 219 74 116 150 
307 259 404 154 107 118 
278 819 137 145 130 123 
341 284 193 150 145 145 
267 274 463 125 82 119 
239 81 345 84 72 61 
218 469 165 67 95 121 
296 525 164 97 115 155 
234 934 308 218 176 159 
282 329 281 143 140 143 
301 757 351 117 101 106 
184 545 317 75 101 155 
262 419 148 72 97 120 
278 424 145 105 107 113 
238 82 346 80 71 62 
272 765 308 183 136 107 
197 748 246 164 145 128 
316 267 197 82 107 133 
271 729 98 85 107 143 
297 862 212 177 134 100 
322 630 328 113 120 131 
244 491 341 112 130 172 
269 369 178 105 116 131 
292 573 158 123 136 154 
294 467 256 122 135 156 
264 187 250 79 105 129 
172 740 197 183 151 111 
359 215 201 78 102 125 
220 333 336 69 104 134 
236 87 345 80 68 57 
224 801 192 185 170 162 
242 485 132 110 91 73 
349 659 327 129 142 169 
303 685 213 56 87 115 
200 378 191 111 118 128 
225 858 255 126 100 70 
280 328 282 123 125 138 
289 885 264 157 118 90 
190 712 276 58 51 56 
227 753 286 208 161 131 
234 504 142 94 82 72 
221 739 125 124 144 167 
205 445 283 46 69 109 
312 467 167 120 136 160 
272 189 451 134 108 85 
293 606 340 91 109 129 
250 732 104 92 111 138 
237 89 342 77 67 57 
277 494 330 157 160 169 
317 630 395 88 102 116 
299 287 434 73 94 132 
308 362 262 64 88 127 
266 891 204 79 63 49 
302 624 253 106 120 136 
339 673 387 97 126 163 
186 614 167 121 131 153 
168 702 187 119 142 166 
239 89 340 75 64 52 
205 325 321 117 4 63 
238 88 342 76 65 56 
211 291 332 114 128 144 
339 134 330 127 107 100 
246 861 299 141 110 87 
338 715 358 147 54 67 
271 252 231 106 101 99 
238 91 341 74 64 54 
165 501 213 137 142 152 
239 90 341 74 63 52 
275 461 131 133 102 88 
203 522 324 137 144 173 
253 379 350 145 119 95 
288 477 131 98 88 78 
258 56 206 126 102 74 
251 441 330 75 101 152 
252 974 278 81 63 52 
213 351 331 131 129 133 
309 234 328 158 155 160 
276 765 104 102 136 197 
297 840 200 205 153 120 
317 702 401 184 209 240 
248 397 344 137 116 95 
289 790 130 88 102 138 
303 531 228 156 156 163 
291 194 207 138 133 134 
265 177 401 147 80 44 
284 306 400 92 146 183 
215 900 236 88 70 52 
324 538 146 111 138 171 
235 783 265 194 140 115 
274 350 187 112 120 132 
236 93 343 79 69 60 
289 121 205 113 76 56 
244 880 225 124 93 60 
168 629 227 116 58 58 
234 345 346 145 146 154 
300 179 352 88 53 55 
307 329 187 72 97 123 
263 343 397 181 6 77 
259 96 266 88 76 73 
314 237 371 61 36 59 
293 517 169 92 122 159 
280 940 289 122 101 86 
179 560 287 143 153 168 
234 88 347 79 69 58 
310 243 370 120 21 39 
298 275 461 204 92 104 
247 407 157 107 116 129 
305 418 285 145 148 157 
281 189 432 156 81 3 
176 460 184 79 106 137 
330 725 251 58 46 81 
270 257 229 89 89 92 
269 302 418 89 118 153 
198 770 194 140 131 138 
234 91 347 83 71 59 
222 715 302 165 151 143 
255 981 269 153 121 91 
279 284 312 125 147 173 
367 210 245 107 64 76 
212 659 307 42 88 122 
262 146 263 44 66 92 
256 26 200 154 136 124 
163 654 255 176 134 94 
303 699 181 139 144 156 
232 617 134 103 82 73 
344 325 211 82 106 146 
254 405 158 120 126 137 
213 655 345 42 93 139 
233 91 348 84 72 60 
176 502 186 119 130 147 
258 253 387 50 76 98 
232 90 351 94 79 65 
258 580 109 119 90 60 
271 512 334 175 168 169 
222 902 207 154 117 82 
318 307 258 89 119 150 
310 651 251 71 107 137 
242 658 110 133 94 65 
295 443 304 114 127 147 
206 584 315 102 128 155 
255 830 172 120 127 138 
193 514 327 121 141 166 
236 417 361 174 81 16 
269 282 454 115 55 78 
334 763 278 162 158 159 
291 908 185 121 99 77 
330 207 318 140 108 99 
237 640 325 49 51 55 
186 435 180 82 97 113 
320 119 208 131 79 38 
342 205 304 157 70 97 
273 19 364 98 88 80 
212 558 325 139 151 168 
235 971 270 91 72 52 
363 289 198 99 113 130 
292 244 342 43 36 43 
361 152 270 56 50 60 
230 660 321 104 135 165 
307 204 448 144 75 19 
298 505 227 92 113 137 
286 974 237 130 105 78 
331 779 278 178 146 112 
263 17 386 66 61 56 
232 93 348 85 73 62 
232 93 349 88 75 63 
276 103 298 106 72 63 
241 469 334 55 66 87 
249 383 172 83 104 124 
343 688 335 152 170 191 
182 327 310 112 119 143 
183 713 242 193 68 21 
286 780 321 185 142 114 
155 389 250 86 101 131 
323 281 255 150 146 150 
319 811 259 204 145 114 
176 379 286 113 123 153 
181 542 313 108 133 161 
236 88 345 80 68 56 
300 749 356 153 125 97 
258 16 388 72 62 53 
328 516 139 170 175 186 
299 101 240 92 83 77 
336 218 433 76 57 56 
165 399 212 138 134 135 
185 705 258 139 109 100 
361 144 279 46 71 99 
267 61 238 99 83 68 
277 588 313 118 127 142 
295 893 205 141 110 82 
157 313 273 91 84 79 
298 88 237 79 71 65 
244 71 343 89 75 63 
156 333 290 111 121 141 
267 187 450 128 114 102 
207 941 251 90 71 60 
263 331 327 113 123 155 
252 828 180 176 158 146 
299 409 231 157 161 172 
313 194 362 90 57 54 
285 941 288 105 85 70 
297 801 302 194 138 111 
294 591 211 89 116 146 
210 771 237 161 142 127 
338 620 303 91 111 130 
246 174 409 173 73 0 
208 677 141 57 77 109 
307 565 255 79 125 161 
290 56 354 94 79 64 
315 919 262 96 77 63 
243 542 341 179 178 186 
350 129 314 132 95 76 
242 66 347 91 78 66 
242 67 347 91 78 65 
179 484 181 156 151 151 
234 682 101 94 127 174 
160 328 294 40 62 129 
253 883 219 93 73 47 
241 472 145 72 67 64 
170 318 254 104 95 89 
306 640 251 80 112 138 
176 435 190 86 103 121 
302 432 145 164 161 166 
222 482 339 138 153 179 
245 467 137 100 83 66 
305 566 151 85 122 156 
332 737 351 158 139 127 
215 458 168 57 67 78 
208 268 338 98 80 86 
334 232 410 187 64 5 
251 687 103 109 129 174 
315 177 190 52 80 132 
191 725 155 117 135 156 
275 321 404 75 128 167 
181 750 183 200 87 90 
293 259 348 118 52 78 
277 869 288 164 119 91 
312 293 190 114 118 125 
274 539 109 139 142 151 
217 741 292 152 156 165 
278 626 327 40 58 76 
312 370 227 113 128 157 
304 248 365 160 34 69 
230 230 360 92 37 42 
255 377 312 37 88 142 
357 338 190 111 138 165 
288 598 97 98 121 147 
242 69 346 87 75 63 
215 937 294 188 138 118 
237 850 253 112 81 49 
167 390 211 110 112 118 
179 648 284 62 56 55 
175 603 195 107 130 155 
297 575 102 68 91 116 
295 730 125 161 163 173 
275 312 204 112 73 36 
167 319 258 119 109 102 
215 902 298 94 78 60 
286 759 115 82 93 146 
279 739 101 21 62 142 
327 774 314 177 147 114 
335 762 281 168 154 146 
349 675 291 158 159 169 
255 419 149 67 95 118 
235 848 259 111 85 53 
276 318 382 157 160 170 
218 663 300 59 128 174 
288 299 202 107 110 116 
281 285 303 145 153 168 
280 311 414 82 135 172 
324 406 181 128 144 163 
300 653 218 60 83 104 
263 193 418 119 126 137 
245 65 346 90 78 65 
183 628 306 147 105 93 
257 776 288 193 143 117 
327 240 407 148 102 100 
308 786 189 72 69 77 
275 51 206 107 93 79 
178 514 187 162 157 159 
322 557 136 173 172 180 
253 370 351 119 116 119 
235 634 129 113 85 68 
251 284 367 108 105 109 
255 494 121 108 87 65 
345 134 236 98 80 70 
261 592 319 118 133 152 
169 641 225 73 109 140 
205 918 281 156 120 92 
204 917 251 76 63 52 
246 67 344 87 74 62 
341 736 290 178 162 152 
195 429 175 105 119 139 
188 510 248 100 116 136 
290 557 191 158 163 175 
295 540 208 133 138 150 
220 469 164 87 109 130 
300 679 164 146 149 159 
358 113 285 127 67 26 
314 533 153 108 131 159 
297 84 353 83 71 61 
292 790 320 195 142 115 
242 75 343 106 91 75 
225 853 267 130 103 74 
288 312 411 172 173 179 
215 915 222 85 67 56 
177 442 257 144 146 156 
240 79 343 86 73 61 
267 389 301 63 84 127 
164 452 230 150 151 160 
241 79 343 83 71 59 
284 683 380 132 167 201 
310 559 276 131 148 170 
244 911 190 67 50 44 
304 635 341 57 73 89 
258 701 96 156 158 170 
331 392 186 50 86 140 
298 59 200 119 110 103 
232 551 341 102 123 158 
258 142 359 81 41 23 
172 556 233 113 129 148 
161 299 284 120 112 107 
319 56 208 122 111 104 
235 753 110 67 81 111 
319 221 361 52 56 87 
182 597 176 69 73 104 
294 472 257 132 143 163 
274 993 248 112 80 56 
168 578 238 135 138 147 
294 715 119 111 126 168 
309 561 278 130 134 145 
284 609 318 72 89 107 
229 807 174 178 140 104 
331 707 388 206 69 76 
293 633 219 99 106 117 
218 274 258 99 35 34 
238 735 111 114 120 130 
243 826 153 176 139 96 
231 396 350 144 121 111 
189 689 281 81 63 56 
294 765 137 138 150 165 
305 265 276 89 75 96 
244 887 220 104 80 49 
361 152 246 79 48 58 
157 396 257 96 107 143 
325 238 477 179 90 2 
239 288 233 132 117 100 
361 152 248 84 45 44 
191 495 316 93 118 147 
299 507 233 77 104 132 
170 640 218 75 115 148 
169 657 200 152 148 152 
340 703 270 147 48 33 
224 297 240 148 131 115 
242 379 328 70 92 126 
176 507 187 149 145 149 
229 801 118 78 64 92 
174 638 263 93 72 60 
242 352 192 64 88 109 
245 78 340 97 82 68 
227 903 307 147 116 91 
356 322 207 164 103 123 
257 301 398 139 142 150 
281 17 226 110 95 81 
296 295 423 157 115 115 
323 341 217 79 108 152 
308 641 121 160 163 173 
280 233 218 101 113 128 
225 806 150 113 97 110 
290 734 116 123 134 160 
332 435 147 161 166 177 
217 759 128 164 81 99 
300 437 206 167 166 172 
333 767 279 158 144 135 
264 49 238 114 93 70 
188 745 226 130 107 104 
329 704 393 182 191 208 
285 271 342 140 11 64 
240 619 311 42 63 82 
177 743 206 136 54 89 
240 74 347 89 76 63 
303 451 141 106 93 85 
352 174 206 77 56 49 
252 168 410 140 91 63 
348 673 314 161 107 109 
258 376 356 167 139 106 
273 183 425 155 81 14 
190 464 312 71 99 148 
287 821 157 186 161 139 
234 661 368 141 160 183 
276 114 207 175 74 0 
273 362 181 120 124 133 
286 203 484 103 93 88 
348 679 317 97 106 138 
219 776 250 198 146 120 
278 992 226 117 83 64 
265 652 399 110 131 159 
219 780 240 198 147 122 
260 839 249 98 71 45 
304 98 202 136 107 83 
280 738 102 53 75 147 
166 534 207 88 122 151 
156 331 290 109 119 142 
230 522 142 86 99 114 
350 158 211 67 52 45 
252 293 368 100 119 140 
264 207 424 70 102 128 
311 614 358 79 109 136 
184 739 223 127 101 89 
260 907 197 72 58 49 
266 607 301 57 66 76 
270 808 121 173 7 37 
176 480 185 98 113 132 
289 239 334 94 73 77 
249 65 343 92 77 63 
249 67 341 96 81 65 
243 558 339 84 110 154 
197 732 285 134 104 74 
316 784 218 153 140 132 
307 382 250 59 91 146 
221 624 324 83 77 73 
160 401 222 92 102 120 
338 251 449 157 117 107 
248 866 300 170 133 109 
191 501 282 89 104 121 
345 391 164 81 109 149 
178 402 275 128 130 149 
194 747 237 167 143 126 
262 176 396 146 73 39 
356 317 212 158 75 106 
170 314 301 112 126 144 
298 457 184 88 116 159 
297 956 253 123 95 66 
325 111 246 103 84 71 
303 587 270 70 114 149 
211 469 334 106 131 157 
262 849 213 151 113 84 
366 226 209 86 110 132 
252 288 368 99 119 144 
314 203 352 112 27 24 
336 708 381 172 195 223 
321 178 335 129 49 70 
193 447 292 78 94 112 
263 849 267 124 89 54 
261 175 396 146 72 39 
305 652 427 70 74 79 
184 704 250 145 112 96 
179 560 258 89 112 141 
224 467 353 99 120 174 
238 365 186 49 80 110 
169 371 218 94 104 116 
249 71 340 105 87 70 
241 995 249 114 85 58 
317 539 283 144 148 159 
221 275 255 104 32 38 
328 493 135 105 127 154 
174 272 270 134 118 102 
322 402 159 93 116 142 
223 961 239 89 67 58 
264 263 402 121 71 68 
216 871 271 138 102 76 
235 168 384 131 83 68 
347 236 463 152 134 117 
281 123 348 122 117 114 
336 724 349 68 45 98 
341 390 183 38 81 146 
179 750 196 120 52 102 
330 316 218 161 102 123 
268 672 93 96 113 133 
307 798 186 129 102 80 
290 713 110 155 159 172 
366 252 235 163 161 168 
245 654 380 169 172 184 
310 512 291 62 100 135 
322 524 152 85 112 157 
344 115 256 127 71 24 
198 389 310 35 66 110 
240 441 341 95 83 76 
288 326 279 88 98 120 
262 207 410 89 103 120 
251 961 291 100 76 62 
297 291 423 85 79 113 
251 286 424 114 57 69 
223 431 341 107 120 135 
167 569 232 117 130 147 
256 456 324 55 82 125 
271 672 375 146 173 202 
349 111 270 127 71 30 
336 214 382 173 65 4 
349 680 288 155 169 186 
337 254 447 167 162 163 
261 943 299 143 109 94 
341 249 190 92 129 161 
248 408 373 216 181 145 
177 727 217 141 56 67 
282 588 97 71 105 141 
293 444 241 106 121 152 
156 385 268 149 153 165 
196 392 312 37 66 106 
270 195 456 163 81 0 
170 369 219 103 110 120 
356 247 256 115 134 156 
250 75 339 111 93 76 
306 916 237 59 46 43 
278 379 294 85 105 131 
302 492 294 105 117 135 
337 229 408 182 75 3 
328 260 449 60 102 139 
264 677 327 77 58 71 
273 289 214 141 124 108 
215 623 143 66 94 130 
305 853 222 205 157 125 
301 832 199 196 148 117 
290 36 216 113 102 92 
311 197 397 90 59 44 
204 713 145 147 162 182 
314 600 134 86 141 182 
249 76 339 110 93 75 
350 271 189 139 142 149 
270 427 145 89 100 112 
299 125 344 110 76 59 
304 447 275 123 138 158 
247 309 361 155 155 161 
165 560 220 122 126 135 
290 594 164 146 149 160 
275 522 331 88 109 141 
235 455 354 143 125 156 
271 506 333 85 108 148 
260 635 358 77 72 70 
239 896 301 105 74 60 
258 962 212 84 69 54 
248 76 340 109 91 75 
295 962 257 134 111 87 
261 665 390 108 124 187 
287 651 205 99 111 127 
325 701 253 112 39 37 
344 373 189 103 128 154 
180 537 247 109 120 136 
300 793 319 202 142 117 
261 561 113 110 83 61 
290 268 381 125 121 134 
300 109 300 121 94 82 
189 468 258 145 144 153 
168 727 200 154 53 60 
307 262 284 158 159 171 
287 876 264 156 113 82 
172 401 200 88 96 106 
301 695 172 119 135 154 
315 741 214 63 51 69 
302 512 235 65 94 120 
171 380 284 109 126 153 
268 167 337 85 52 40 
212 648 340 67 73 117 
170 511 222 99 118 147 
315 379 196 72 104 154 
330 754 336 145 124 105 
192 447 265 157 151 152 
252 782 279 197 144 121 
263 563 330 120 133 157 
327 296 192 144 139 139 
320 567 130 124 78 78 
321 725 238 114 94 83 
260 267 390 94 70 84 
284 808 273 205 148 122 
215 742 133 80 109 135 
368 202 225 116 41 13 
297 521 164 121 128 157 
194 376 195 89 102 116 
246 401 161 114 124 136 
306 564 110 108 134 160 
162 308 272 85 80 76 
278 48 370 75 55 43 
307 715 385 146 94 87 
300 448 145 94 102 113 
327 643 376 93 121 148 
172 276 298 120 121 126 
310 454 140 125 122 125 
265 924 303 143 111 89 
271 542 329 119 131 155 
231 666 135 91 98 112 
213 717 300 157 135 131 
344 124 244 105 63 33 
325 245 280 140 137 138 
266 843 197 206 158 123 
335 762 280 146 136 133 
235 456 164 58 89 126 
194 287 259 133 118 102 
184 725 237 134 106 87 
250 662 330 109 148 182 
322 673 261 116 123 133 
275 870 291 164 120 90 
196 760 171 159 100 95 
304 941 277 103 83 66 
262 360 361 131 129 133 
251 611 311 111 107 111 
251 414 354 181 146 103 
246 95 333 79 66 53 
234 613 123 123 93 69 
305 280 445 183 79 108 
293 745 127 109 125 163 
279 184 408 149 85 48 
335 675 378 100 120 142 
249 91 335 80 67 55 
295 330 192 106 97 92 
281 860 200 170 119 76 
310 631 361 76 87 100 
319 362 201 130 146 168 
178 637 275 149 112 101 
247 565 113 122 93 58 
245 462 147 83 80 80 
260 275 226 106 85 69 
336 748 317 154 134 116 
296 918 213 76 58 40 
341 224 412 129 93 49 
239 694 117 99 108 127 
165 395 214 97 107 120 
190 334 230 96 52 31 
244 665 361 118 139 165 
328 112 239 106 91 81 
235 329 209 114 101 88 
262 298 214 135 120 107 
306 925 277 92 72 58 
315 234 316 126 138 156 
251 94 334 78 66 53 
273 82 203 135 110 83 
261 938 301 124 91 72 
272 181 409 148 84 48 
324 546 140 122 149 176 
317 347 175 38 75 109 
184 673 282 151 104 59 
197 723 292 176 153 141 
322 196 191 166 30 74 
215 957 258 90 71 60 
278 34 377 145 131 123 
233 774 110 145 157 175 
272 303 304 158 105 33 
222 553 140 89 112 143 
302 650 111 136 146 164 
287 908 283 108 81 63 
294 156 357 66 53 38 
254 946 211 105 71 40 
339 370 193 41 89 144 
166 285 289 87 103 122 
327 454 142 138 147 161 
314 263 270 76 123 159 
241 733 306 100 111 133 
285 107 374 145 96 70 
272 198 228 117 110 107 
307 611 300 126 128 135 
305 703 211 111 121 135 
291 284 204 158 134 109 
257 644 102 72 58 55 
259 533 119 103 82 66 
295 252 328 170 166 170 
229 438 159 82 123 157 
288 564 177 75 104 159 
260 602 107 122 90 59 
251 596 320 139 137 142 
229 744 117 127 131 142 
337 704 384 156 174 197 
303 650 421 74 64 57 
268 235 241 126 119 114 
216 702 133 88 109 133 
194 311 245 118 68 8 
297 253 317 114 115 135 
271 98 275 98 83 76 
167 582 237 129 138 151 
201 759 157 169 49 105 
298 526 213 117 131 149 
216 665 338 84 117 193 
245 628 107 134 97 59 
315 625 277 120 124 133 
193 433 292 38 53 82 
261 96 336 82 69 55 
326 696 255 111 28 33 
286 711 105 93 115 158 
243 83 340 83 72 61 
341 302 216 143 62 97 
188 458 261 108 119 140 
175 471 238 65 80 125 
221 939 221 67 50 43 
197 764 176 84 90 101 
253 828 204 200 149 122 
225 546 337 105 118 155 
311 205 437 135 72 33 
276 840 186 238 168 130 
241 388 365 190 153 111 
275 967 274 83 67 57 
311 114 224 97 82 71 
368 195 242 102 29 32 
271 869 295 165 121 92 
300 73 357 110 100 92 
267 242 430 83 103 123 
169 540 203 83 112 142 
295 474 260 172 168 171 
243 84 340 82 71 60 
288 197 469 142 89 38 
255 965 286 121 97 75 
254 261 243 134 119 104 
326 121 326 126 105 88 
328 644 411 157 171 189 
317 223 361 40 53 88 
217 439 336 66 93 135 
336 463 152 79 106 153 
245 82 339 89 76 63 
174 487 186 97 121 148 
258 667 353 133 159 187 
263 316 355 163 165 176 
289 221 491 157 69 2 
282 543 104 85 113 141 
254 905 200 78 56 42 
289 583 301 162 153 150 
333 136 336 126 111 108 
203 433 322 41 83 127 
293 725 141 122 136 159 
284 749 109 91 114 147 
257 826 133 208 165 126 
336 707 383 159 182 209 
258 275 385 140 22 73 
254 744 100 96 112 151 
194 427 176 84 97 115 
366 208 216 106 9 41 
297 870 240 164 125 93 
338 114 321 125 110 100 
271 299 343 173 65 11 
318 708 232 115 40 44 
279 282 315 129 148 171 
296 397 160 104 117 131 
230 569 338 144 147 159 
250 289 424 115 109 107 
264 248 410 110 98 113 
293 387 292 88 109 135 
287 84 368 86 70 53 
