ply
format ascii 1.0
comment Created by CloudCompare v2.11.1 (Anoia)
comment Created 2/28/22 9:42 PM
obj_info Generated by CloudCompare!
element vertex 2012
property float x
property float y
property float z
property uchar red
property uchar green
property uchar blue
end_header
244 94 297 91 56 31 
311 765 175 152 117 78 
363 143 271 48 43 55 
296 524 172 124 136 152 
285 62 203 127 104 81 
244 95 299 91 55 32 
333 683 258 124 125 128 
209 286 241 127 111 95 
262 717 100 87 98 121 
214 749 118 144 171 199 
301 688 129 82 104 131 
242 748 97 120 128 142 
212 760 254 195 142 117 
342 295 190 145 108 59 
298 581 143 89 103 118 
298 430 302 96 118 142 
241 235 410 175 88 105 
254 832 204 191 145 118 
338 107 309 151 75 5 
191 415 180 99 115 135 
330 727 241 133 123 116 
241 935 306 115 84 71 
306 904 244 75 58 46 
239 766 276 194 143 118 
311 668 216 91 109 129 
196 496 267 79 80 84 
312 403 267 83 110 149 
187 268 345 134 132 139 
356 675 313 147 159 176 
319 547 276 135 142 154 
278 95 286 107 73 46 
225 789 222 188 136 115 
334 110 312 144 74 5 
178 653 259 173 129 86 
223 603 130 141 145 164 
273 560 122 115 91 63 
340 477 180 86 120 163 
233 617 136 72 107 138 
276 204 337 113 55 78 
275 534 131 122 97 74 
176 615 160 119 128 144 
326 659 156 87 144 186 
208 439 180 162 156 158 
205 661 291 76 119 155 
256 179 428 102 80 70 
249 605 116 111 85 53 
219 958 276 130 107 86 
264 412 311 134 140 151 
173 568 273 85 113 143 
253 645 109 145 101 65 
187 670 263 158 64 19 
195 731 144 110 132 155 
275 258 301 81 124 162 
207 869 265 140 107 78 
242 243 405 144 87 93 
239 635 363 125 99 71 
278 102 379 121 94 58 
358 186 276 80 96 118 
313 89 240 73 63 54 
306 581 269 91 121 152 
195 499 252 116 129 146 
347 450 186 151 161 179 
289 775 115 161 172 188 
295 805 151 153 132 122 
250 824 173 99 117 136 
308 593 234 169 174 187 
311 798 202 162 149 142 
323 214 195 141 136 134 
273 719 91 140 153 179 
231 799 111 70 81 120 
277 79 350 101 85 68 
217 899 210 141 108 76 
253 94 291 105 65 20 
254 92 288 111 73 41 
262 341 321 111 125 145 
265 225 382 97 75 101 
255 93 288 112 73 37 
299 430 302 100 120 143 
249 258 373 136 92 100 
335 141 213 84 59 67 
362 218 237 84 120 150 
293 618 340 79 92 108 
259 708 100 59 76 109 
272 628 317 53 63 74 
283 646 104 64 87 113 
279 161 321 72 29 42 
252 93 292 103 65 21 
172 644 167 71 47 91 
170 472 243 141 150 167 
265 122 374 131 94 79 
284 955 252 137 105 76 
253 94 293 105 65 23 
285 175 386 125 112 99 
312 381 268 75 96 140 
225 567 136 106 111 121 
196 916 267 121 97 75 
321 415 220 93 120 147 
223 415 321 74 74 77 
285 840 189 233 173 131 
330 765 259 110 109 113 
214 754 124 115 138 163 
359 236 243 151 152 160 
255 95 293 105 65 25 
184 451 319 154 159 172 
276 20 209 121 99 83 
263 670 324 114 137 157 
255 95 295 106 64 21 
299 615 123 100 117 137 
144 340 283 101 111 124 
257 918 203 51 41 34 
273 831 165 207 183 163 
195 482 258 90 101 139 
170 373 219 86 94 104 
317 668 142 155 155 164 
307 594 233 173 177 189 
180 462 285 80 94 137 
323 685 246 108 114 122 
163 329 259 122 109 99 
273 150 354 78 55 39 
215 872 242 123 97 68 
168 701 181 105 124 144 
321 621 325 62 87 108 
346 696 345 146 154 172 
161 354 250 103 106 112 
269 99 296 108 67 37 
322 332 183 137 154 183 
240 707 112 40 67 100 
213 250 360 86 45 59 
252 95 297 104 62 25 
168 667 195 92 103 115 
282 191 394 164 70 5 
350 149 222 124 46 15 
248 373 319 91 99 110 
247 557 134 113 88 75 
363 158 269 108 44 55 
259 350 325 126 93 116 
164 275 320 89 110 132 
254 660 319 150 48 64 
332 620 303 117 128 142 
229 208 422 68 119 156 
308 602 247 144 131 143 
198 631 319 179 133 121 
357 656 318 129 147 171 
247 768 280 192 141 117 
312 804 218 173 145 125 
230 111 287 92 82 81 
231 110 286 91 76 74 
282 678 97 114 129 148 
331 577 164 109 132 162 
171 664 192 96 103 112 
320 473 198 124 134 158 
283 765 326 185 138 109 
312 465 186 161 161 168 
192 253 353 71 112 143 
345 266 254 122 134 150 
178 327 234 120 78 41 
310 525 199 159 167 181 
308 743 184 108 25 44 
260 537 124 113 89 63 
304 496 308 103 119 143 
191 400 307 61 81 121 
259 481 136 112 94 75 
286 877 259 152 116 88 
311 674 191 64 114 153 
280 807 122 243 201 143 
303 621 134 87 110 133 
259 80 341 106 91 78 
340 734 277 50 39 40 
239 101 284 111 75 53 
232 810 151 175 152 132 
298 144 209 81 68 66 
174 648 174 52 62 82 
302 123 319 104 91 87 
219 382 332 158 127 102 
233 764 272 195 146 119 
249 426 167 88 106 124 
218 920 212 112 94 78 
285 708 355 110 124 144 
141 362 298 59 88 141 
259 671 102 69 86 112 
306 262 186 100 113 127 
309 493 183 136 145 162 
148 388 291 87 102 158 
354 368 219 91 117 157 
256 33 205 156 124 92 
239 107 277 119 86 57 
354 280 224 133 28 50 
314 653 225 153 154 162 
292 57 235 99 82 67 
239 106 279 114 83 55 
337 634 273 88 108 129 
277 846 196 229 167 124 
180 615 280 139 99 88 
171 287 329 73 112 144 
311 506 246 73 101 138 
204 586 134 115 128 147 
322 707 230 65 54 104 
225 322 366 160 40 76 
351 172 220 86 54 60 
346 111 226 128 76 39 
178 584 168 80 48 79 
239 109 277 74 70 76 
316 795 279 209 149 112 
343 637 277 104 117 133 
282 599 283 101 111 126 
282 634 346 56 65 76 
256 428 192 100 108 119 
160 273 306 122 123 128 
306 912 225 70 60 53 
337 292 261 121 135 153 
161 389 300 139 145 161 
270 779 291 184 136 105 
312 391 247 97 110 152 
298 686 125 92 109 136 
248 288 207 145 128 111 
323 622 371 83 109 133 
311 559 285 115 130 151 
228 378 320 86 110 137 
180 510 280 99 115 149 
342 267 258 144 144 150 
244 839 238 103 79 50 
311 414 277 58 88 139 
340 682 369 155 161 173 
225 804 122 138 90 90 
301 609 297 45 57 70 
216 934 225 70 56 49 
169 502 221 109 127 155 
237 534 145 105 105 111 
285 183 388 130 108 79 
300 66 233 91 77 64 
309 653 143 121 130 143 
197 490 318 100 118 160 
336 575 172 106 152 191 
175 362 224 94 107 122 
284 189 209 89 66 71 
196 228 350 108 66 43 
321 678 177 162 165 175 
252 708 101 71 88 109 
259 832 181 218 161 134 
339 529 177 114 137 174 
294 143 208 81 73 66 
343 710 272 138 121 104 
288 94 282 95 75 62 
311 708 134 142 143 156 
289 781 117 163 171 187 
327 445 186 144 156 184 
204 940 244 105 84 69 
329 754 243 122 101 78 
243 264 393 155 92 98 
183 668 143 110 126 146 
308 643 246 86 115 141 
211 288 350 84 80 80 
232 111 284 94 74 71 
308 615 303 62 67 75 
208 309 216 165 148 131 
280 84 350 100 85 70 
186 667 269 134 65 51 
351 293 237 175 135 75 
301 70 197 152 117 79 
293 512 183 76 104 132 
265 26 380 66 62 58 
237 661 303 113 145 174 
288 84 207 130 103 71 
167 335 252 107 95 85 
172 643 166 68 68 101 
277 509 144 161 120 109 
321 410 223 136 152 174 
291 496 323 175 165 163 
284 753 101 47 103 152 
297 755 121 138 141 158 
247 627 338 55 52 51 
282 204 216 136 131 132 
237 107 282 76 66 65 
309 717 185 127 143 164 
280 198 370 59 66 116 
208 182 387 45 52 64 
283 756 101 51 119 166 
274 224 350 130 60 60 
300 749 348 199 161 122 
239 104 281 99 75 71 
292 102 372 150 142 139 
264 463 326 100 120 144 
306 742 354 216 179 139 
238 105 282 98 67 45 
265 630 110 131 92 53 
254 778 278 191 141 118 
181 575 165 55 55 106 
314 386 244 107 129 162 
315 615 202 159 161 170 
364 178 267 98 75 98 
321 553 222 118 143 170 
274 618 313 47 59 71 
358 238 246 153 153 160 
218 916 210 81 59 49 
222 162 415 144 63 1 
298 465 310 168 162 165 
333 646 361 102 125 153 
168 261 317 77 104 129 
352 203 218 87 43 33 
272 986 231 140 108 81 
178 679 238 147 122 97 
257 363 196 47 89 127 
237 108 281 67 76 88 
247 410 192 62 86 106 
299 62 199 124 90 49 
317 597 276 77 116 147 
352 112 247 110 89 72 
277 182 235 113 53 67 
326 615 156 118 141 165 
259 132 242 118 120 134 
216 894 227 99 65 40 
169 445 262 143 148 165 
207 395 356 211 171 122 
311 590 161 76 125 161 
253 689 319 120 67 97 
259 368 305 27 73 128 
316 909 257 100 82 66 
307 432 292 105 114 137 
273 337 290 114 129 148 
214 762 129 89 110 147 
238 108 281 70 75 85 
265 355 298 79 103 139 
233 939 307 111 89 72 
221 519 146 106 111 120 
272 984 257 138 109 83 
219 226 391 117 46 66 
210 692 287 72 83 104 
261 735 320 83 75 75 
226 114 287 98 80 85 
226 115 287 105 82 88 
303 444 249 118 134 158 
227 115 287 104 79 87 
224 119 287 130 67 48 
225 118 287 117 73 72 
295 199 306 83 60 90 
307 480 265 115 127 142 
178 671 238 179 134 79 
268 38 242 122 99 76 
336 624 309 67 87 110 
169 716 173 141 110 114 
172 698 169 118 137 159 
306 577 159 78 95 126 
269 118 228 134 74 47 
235 476 327 87 103 130 
228 473 165 64 87 107 
226 562 333 105 114 142 
297 765 124 146 163 183 
295 781 131 161 31 43 
269 73 208 135 108 80 
260 629 346 26 29 34 
242 624 352 100 87 75 
270 146 228 135 80 95 
214 290 234 107 41 27 
282 192 392 171 68 5 
290 107 353 124 114 107 
229 115 286 107 89 95 
174 664 225 196 166 135 
337 425 189 113 135 170 
205 693 124 62 57 105 
250 606 310 79 97 119 
261 107 251 105 72 38 
336 650 393 83 118 168 
349 144 301 102 94 108 
302 129 321 47 71 90 
232 1001 239 144 129 116 
319 693 152 67 91 123 
208 879 250 132 100 75 
178 557 236 139 143 154 
190 441 275 64 76 111 
334 179 301 128 122 123 
259 252 348 114 77 94 
159 465 214 108 125 150 
321 405 191 163 166 176 
244 339 320 77 108 135 
228 424 171 56 70 109 
329 544 266 178 171 172 
315 618 308 65 76 91 
335 209 202 99 78 81 
193 496 269 94 107 123 
306 606 237 168 170 181 
173 651 170 45 69 128 
240 815 169 172 154 141 
204 380 357 190 158 125 
188 726 241 149 130 113 
154 388 236 94 110 129 
176 668 152 129 132 143 
260 909 199 79 61 47 
348 668 281 155 159 168 
230 299 217 138 127 118 
216 761 119 170 58 69 
279 688 357 134 23 44 
289 557 310 141 149 164 
174 603 185 102 128 155 
200 937 271 107 85 73 
249 619 308 46 55 66 
297 330 283 152 146 147 
200 937 276 99 79 66 
298 636 387 82 73 64 
194 498 167 62 77 92 
311 555 284 106 123 146 
249 991 254 80 60 37 
307 60 226 99 82 64 
262 309 322 87 82 95 
251 660 355 143 165 192 
176 621 265 148 109 98 
342 668 273 130 140 155 
283 595 296 107 118 133 
293 116 358 143 126 112 
280 443 159 139 104 91 
309 183 307 89 77 103 
194 443 275 51 61 100 
325 563 175 120 136 155 
304 809 183 199 174 153 
224 124 287 142 76 42 
328 154 311 122 93 114 
242 327 328 78 125 161 
150 426 243 112 121 149 
179 366 214 108 113 120 
219 681 121 95 110 129 
241 962 218 105 79 49 
228 204 266 132 128 127 
297 323 178 126 134 154 
248 492 144 90 78 66 
227 124 285 141 70 44 
262 740 90 111 133 201 
336 676 265 127 113 114 
222 634 134 40 55 94 
302 451 248 165 163 169 
280 519 148 102 104 110 
246 703 114 108 110 115 
291 573 302 193 176 166 
227 126 286 142 65 48 
289 486 146 121 89 73 
246 358 192 83 102 124 
172 645 252 208 125 67 
303 659 414 191 196 213 
228 120 286 136 75 62 
228 121 286 141 70 50 
315 792 287 209 142 112 
237 718 107 75 98 120 
314 587 244 135 126 136 
229 123 285 138 61 39 
326 94 299 106 96 89 
182 513 172 123 122 125 
319 784 299 198 134 104 
200 362 321 107 108 115 
351 422 200 88 125 167 
217 353 194 69 69 79 
307 459 230 104 116 152 
188 669 139 130 140 158 
267 889 203 88 68 52 
299 599 274 104 91 97 
260 661 382 114 136 170 
239 798 105 183 7 42 
230 918 311 199 152 130 
231 123 284 135 63 35 
323 519 175 79 114 147 
351 674 344 159 169 185 
237 989 257 114 79 52 
187 331 219 106 74 49 
228 125 285 141 63 40 
288 410 305 113 124 142 
335 459 183 55 101 150 
228 124 286 138 63 38 
311 808 223 167 126 92 
322 124 209 111 97 85 
298 618 213 137 142 154 
267 239 326 110 34 37 
246 423 330 80 101 140 
311 93 263 79 70 63 
275 517 141 104 81 69 
312 105 210 141 127 118 
220 517 327 165 167 175 
318 895 221 98 79 60 
227 801 186 138 128 130 
156 361 253 91 101 113 
230 127 284 138 68 47 
230 127 285 140 71 47 
146 397 273 125 135 156 
216 323 343 93 111 131 
235 768 100 133 162 192 
300 308 177 150 148 152 
298 75 199 158 122 93 
299 663 120 93 113 146 
306 905 233 77 63 51 
257 394 329 63 100 152 
262 640 108 125 91 56 
292 416 198 46 88 136 
292 199 193 100 77 77 
218 959 256 126 94 61 
239 114 273 69 85 103 
338 106 222 141 104 87 
238 114 275 60 78 96 
308 435 234 144 149 160 
152 296 295 133 114 94 
204 583 134 101 117 138 
307 335 180 191 184 185 
276 235 229 86 102 119 
278 262 321 150 152 161 
227 692 293 75 73 89 
228 894 216 160 97 69 
286 727 102 78 85 119 
337 687 381 172 186 206 
240 762 97 121 127 146 
227 997 232 152 135 121 
191 678 282 130 66 47 
188 691 273 94 89 90 
173 545 184 102 128 154 
360 221 225 87 105 124 
331 275 271 155 152 157 
318 801 241 179 133 100 
308 636 250 68 97 123 
282 606 327 88 104 134 
224 163 408 124 65 23 
317 313 177 153 144 140 
187 539 159 77 108 134 
325 145 206 102 52 33 
238 112 278 59 77 96 
205 690 284 81 63 54 
265 46 344 118 102 91 
254 475 330 152 150 155 
286 210 206 143 142 146 
305 368 189 77 109 149 
352 273 202 120 132 149 
270 869 205 129 94 64 
299 755 344 182 154 135 
238 116 275 51 73 94 
247 935 212 74 50 33 
322 656 148 95 43 57 
287 737 347 159 137 117 
231 527 145 94 102 115 
149 302 312 111 115 123 
299 697 124 135 134 139 
361 143 246 38 47 71 
214 199 406 108 84 106 
288 228 208 124 123 127 
325 156 311 100 108 123 
277 110 307 81 64 51 
246 503 339 177 180 192 
329 749 237 162 149 142 
267 154 367 87 78 69 
186 451 268 150 149 155 
168 265 288 91 99 109 
313 749 172 158 26 42 
174 631 209 73 109 142 
242 448 326 106 116 142 
335 655 378 126 145 167 
283 952 247 109 83 62 
282 635 386 103 86 70 
168 275 281 109 81 65 
171 541 189 97 82 106 
237 118 276 60 74 96 
236 167 387 103 61 35 
286 750 103 33 73 126 
239 313 332 150 152 161 
236 118 278 67 63 84 
298 542 160 96 107 121 
230 805 114 134 119 100 
175 622 228 78 82 101 
260 180 423 68 58 59 
319 616 342 12 54 89 
289 563 306 173 161 158 
146 355 311 31 73 120 
310 565 201 111 125 142 
309 552 285 101 118 143 
309 639 400 72 69 70 
273 978 226 166 131 94 
236 204 263 124 115 112 
180 655 274 156 112 49 
308 751 183 177 139 87 
318 546 218 133 136 144 
313 794 285 211 147 111 
321 627 398 90 120 155 
331 645 378 114 135 161 
210 280 243 134 119 106 
301 771 137 120 119 140 
203 470 171 93 105 119 
242 783 100 165 179 199 
297 611 332 46 89 121 
316 363 263 73 92 134 
260 821 123 159 143 138 
184 453 314 93 117 146 
222 657 317 112 144 175 
174 327 240 120 88 58 
235 115 281 80 72 89 
168 711 186 161 30 52 
246 280 371 131 26 66 
256 319 320 76 85 102 
226 194 425 48 77 108 
261 488 331 144 153 168 
313 800 217 108 140 169 
213 194 400 104 79 100 
332 320 256 119 133 153 
230 732 108 82 103 131 
275 279 322 117 138 162 
261 682 330 139 33 49 
176 316 331 103 121 143 
346 168 297 108 92 112 
314 736 177 147 161 179 
280 608 325 83 102 129 
202 406 328 125 107 88 
286 659 404 181 188 205 
314 476 208 115 136 163 
366 172 256 121 55 54 
360 200 228 117 45 37 
283 410 199 61 85 114 
340 139 309 140 103 82 
194 484 256 133 135 150 
306 551 173 105 122 142 
235 118 280 76 52 75 
282 907 187 83 64 44 
177 386 196 99 106 116 
328 632 371 82 118 154 
179 499 234 109 124 153 
306 485 237 108 125 145 
174 539 217 137 143 156 
150 423 251 173 165 164 
295 506 191 114 122 142 
321 63 212 116 104 95 
282 841 190 239 169 128 
316 245 181 138 135 135 
275 311 286 170 134 94 
296 498 319 162 161 167 
296 42 225 120 109 100 
257 380 308 41 87 149 
235 125 278 91 52 64 
309 408 251 93 119 157 
237 676 135 68 73 88 
238 809 208 192 132 113 
233 333 193 116 103 93 
308 633 224 83 106 132 
259 238 382 146 86 105 
287 347 288 83 97 117 
193 550 151 96 113 134 
290 101 207 104 94 86 
226 369 346 153 22 63 
244 196 261 85 106 129 
201 415 324 94 58 97 
263 158 371 111 98 85 
288 481 323 155 156 163 
166 379 306 132 138 154 
153 417 225 101 115 136 
200 532 149 79 99 121 
173 584 183 90 115 147 
253 660 320 156 82 88 
287 948 246 111 89 67 
237 989 232 150 116 81 
262 394 197 70 84 101 
193 599 141 107 119 136 
208 657 305 40 98 133 
180 264 334 91 111 131 
303 920 244 68 54 45 
237 167 384 105 57 29 
245 714 310 175 159 149 
245 659 354 138 158 182 
221 395 168 77 94 111 
303 408 196 85 106 141 
342 300 254 144 95 50 
250 899 199 89 72 62 
335 748 271 184 151 115 
265 846 199 201 150 114 
289 487 149 139 99 89 
170 514 218 89 121 155 
175 737 175 148 26 64 
252 834 242 88 65 36 
324 911 263 144 122 102 
280 315 283 136 118 103 
250 989 269 128 97 69 
184 263 269 102 77 76 
290 208 305 145 13 79 
348 111 231 119 80 57 
154 439 245 140 144 160 
317 617 324 59 85 107 
182 465 311 113 136 163 
239 125 272 71 53 72 
221 845 257 125 99 71 
152 344 270 71 88 105 
238 125 274 68 57 72 
272 302 191 86 107 127 
213 168 406 128 84 54 
349 668 281 154 159 169 
256 18 381 51 48 46 
318 348 185 104 121 169 
320 574 213 85 134 173 
338 266 188 138 133 133 
351 391 215 63 96 158 
199 414 309 54 79 125 
137 335 311 65 83 117 
174 538 181 87 124 156 
154 347 317 112 119 149 
265 111 318 87 70 62 
173 600 235 152 151 157 
209 924 230 75 59 48 
200 383 178 84 98 113 
243 305 203 125 114 103 
299 904 210 119 98 79 
303 553 168 123 143 166 
284 268 206 82 58 57 
253 919 204 65 49 38 
306 650 218 82 99 116 
246 665 307 133 61 74 
230 776 113 101 111 127 
314 584 237 161 167 181 
276 779 304 179 135 106 
296 352 287 75 110 140 
276 199 399 177 68 5 
354 253 246 97 122 148 
184 455 283 86 98 114 
310 780 320 199 133 101 
210 761 136 156 77 61 
262 246 229 90 105 121 
194 736 259 157 152 153 
151 413 270 109 125 159 
188 728 250 134 104 73 
209 865 262 128 98 71 
236 509 150 59 82 103 
202 885 272 121 98 75 
284 174 357 153 61 4 
165 307 327 137 134 138 
293 218 195 155 67 0 
154 444 223 146 148 156 
271 237 321 96 73 80 
184 656 287 90 107 125 
278 203 386 28 88 132 
263 138 236 112 89 119 
326 624 342 31 62 97 
293 689 386 150 166 185 
263 494 332 127 141 165 
150 304 296 97 84 77 
315 293 277 152 147 149 
251 393 330 50 81 119 
312 507 179 112 129 154 
236 601 317 145 141 144 
263 93 218 129 102 75 
325 652 161 84 145 190 
353 404 198 48 98 142 
192 733 259 168 144 123 
228 811 142 48 19 27 
266 669 328 150 31 56 
353 315 209 125 112 133 
288 772 328 192 141 115 
177 716 154 118 145 173 
291 826 171 164 134 102 
267 129 356 75 66 59 
296 642 408 82 72 63 
316 531 227 95 109 125 
215 668 124 86 105 124 
177 523 176 103 112 126 
358 139 287 56 81 106 
228 815 128 160 150 196 
195 655 312 88 114 168 
208 529 147 74 93 112 
189 278 262 112 79 68 
209 385 359 211 178 144 
313 648 228 167 168 177 
297 740 353 204 176 152 
310 610 156 96 66 80 
240 399 187 87 98 115 
353 262 243 102 128 154 
214 905 307 169 132 108 
251 661 315 112 98 118 
339 429 205 96 122 163 
306 584 222 141 152 169 
197 702 285 122 103 91 
229 814 122 180 172 175 
229 388 320 90 79 80 
225 582 323 144 146 157 
319 705 179 131 141 158 
261 831 173 170 135 117 
300 408 296 103 119 142 
264 423 196 100 110 124 
269 14 214 130 110 94 
319 555 260 93 135 168 
343 175 215 76 49 31 
284 472 152 98 85 73 
173 729 167 92 132 162 
235 231 410 176 84 99 
237 483 161 81 92 105 
254 543 123 121 91 59 
232 950 301 94 79 65 
177 501 178 145 143 147 
230 231 407 173 43 96 
327 768 244 164 155 151 
316 183 203 96 47 69 
219 325 366 151 8 66 
246 972 222 160 119 76 
295 940 250 65 52 40 
285 761 104 67 120 164 
176 446 265 154 152 158 
197 731 143 135 159 184 
303 920 230 83 64 44 
304 608 140 83 103 123 
185 481 252 105 116 152 
302 203 192 110 66 66 
300 917 212 98 83 69 
254 414 320 41 76 141 
245 107 270 104 82 66 
310 818 228 176 131 99 
240 853 295 150 118 93 
360 213 258 69 115 151 
315 232 291 128 114 101 
360 238 232 91 80 91 
247 104 271 98 82 82 
247 105 270 99 79 72 
254 435 328 78 105 158 
287 204 321 80 65 101 
146 346 278 80 97 115 
303 884 246 95 74 58 
267 13 215 133 112 97 
319 586 204 94 139 175 
186 483 316 131 145 166 
276 277 294 104 130 156 
234 681 295 136 90 97 
274 582 117 115 91 63 
267 696 335 66 72 89 
307 565 236 127 148 172 
355 689 308 140 34 51 
303 647 139 101 116 136 
190 584 293 74 99 148 
215 768 246 195 145 119 
208 305 223 166 147 128 
307 548 195 170 172 182 
148 375 255 57 80 106 
166 675 209 99 89 82 
246 109 267 100 84 69 
317 526 233 114 121 132 
170 259 318 76 103 128 
162 639 244 58 50 98 
318 749 206 94 85 78 
280 115 358 123 77 68 
332 122 212 158 67 2 
246 111 265 97 81 68 
231 354 324 137 136 142 
267 612 320 75 93 114 
183 461 283 67 87 108 
212 276 351 79 75 80 
307 904 238 84 65 49 
310 536 216 109 121 138 
302 247 189 123 135 151 
180 290 266 101 103 109 
205 716 290 131 113 98 
301 469 303 122 132 149 
353 205 217 108 32 48 
319 715 213 132 40 49 
311 265 279 63 91 117 
266 78 211 141 111 82 
357 660 319 142 153 170 
156 438 252 136 136 169 
350 191 217 49 58 67 
255 103 263 124 67 43 
193 658 302 128 170 208 
288 471 322 168 163 165 
276 445 184 76 95 122 
270 339 191 103 106 124 
259 630 374 109 90 71 
308 666 216 96 111 129 
276 519 142 98 82 71 
338 717 339 126 60 70 
276 598 302 100 102 109 
294 40 213 117 103 90 
305 432 251 172 170 175 
311 508 206 118 136 158 
267 137 355 110 46 9 
262 295 197 143 125 107 
234 1002 240 143 128 116 
250 103 269 108 77 56 
214 769 134 183 149 98 
302 659 137 61 90 122 
325 178 205 92 50 62 
184 522 234 107 123 144 
233 472 166 69 87 105 
251 102 270 120 68 35 
165 321 326 137 144 157 
227 838 260 119 95 68 
346 104 258 98 88 80 
326 643 265 81 104 127 
309 644 422 129 150 191 
287 405 304 163 155 155 
350 281 200 107 121 139 
227 352 342 111 113 121 
297 675 115 91 110 143 
334 149 311 75 117 149 
297 643 116 57 98 141 
263 138 370 129 50 6 
222 856 241 121 95 65 
176 612 163 105 126 148 
211 616 305 51 59 67 
200 496 264 65 80 98 
318 577 216 80 135 175 
232 174 434 131 113 99 
284 87 366 104 89 74 
255 96 270 126 76 48 
174 530 180 76 115 146 
166 521 213 133 140 152 
254 98 269 128 70 32 
254 99 268 128 68 15 
233 304 211 132 126 124 
307 905 244 71 54 43 
271 759 309 176 131 103 
288 317 281 104 119 138 
324 467 183 163 167 178 
311 757 153 123 76 84 
279 447 157 148 108 98 
321 505 187 69 99 155 
259 728 319 157 130 100 
306 471 288 96 114 143 
224 776 116 143 52 50 
329 628 327 114 118 127 
205 356 190 98 88 79 
267 670 378 132 159 190 
241 785 262 186 137 114 
231 941 216 121 96 71 
260 252 348 124 81 95 
187 734 153 94 102 163 
254 101 265 134 57 15 
233 666 295 149 73 72 
337 181 211 100 52 44 
312 916 241 79 62 54 
292 839 247 177 130 99 
317 95 298 92 84 77 
322 521 251 139 138 142 
272 65 348 101 88 74 
294 447 310 142 143 151 
144 377 290 88 114 151 
320 643 192 148 138 141 
249 638 120 114 83 65 
301 922 288 100 82 70 
194 345 331 126 121 121 
260 201 253 80 102 123 
176 352 232 57 79 98 
313 745 150 154 165 182 
310 501 214 79 104 155 
252 100 271 140 62 13 
350 344 198 120 130 146 
172 711 165 116 135 155 
321 506 187 63 94 153 
175 599 173 58 63 74 
343 626 293 52 58 65 
288 478 157 88 69 64 
250 107 263 105 65 35 
352 349 202 67 98 125 
196 915 281 171 129 105 
285 520 325 84 104 142 
253 953 293 97 80 68 
319 138 203 122 36 20 
318 684 162 138 139 147 
172 423 189 100 117 140 
234 386 185 75 94 115 
306 673 213 76 46 71 
317 600 207 106 134 163 
309 897 234 82 67 53 
338 743 300 206 175 144 
220 876 234 115 88 55 
309 641 222 77 102 128 
289 467 180 90 100 123 
248 111 261 104 83 61 
209 550 142 106 113 125 
233 682 140 76 81 109 
173 422 188 93 113 140 
265 596 111 119 91 57 
303 814 185 141 125 114 
342 709 271 141 118 97 
239 984 273 150 115 80 
294 584 295 148 149 156 
266 32 360 92 83 76 
152 435 241 125 135 157 
305 882 228 94 72 55 
157 414 277 131 135 157 
251 109 260 104 72 43 
277 968 250 79 55 34 
250 108 263 109 73 30 
273 851 262 146 105 73 
337 639 272 98 117 137 
281 200 358 40 59 114 
318 238 182 138 139 144 
308 566 240 130 145 165 
201 742 261 134 131 135 
271 836 178 242 174 133 
184 729 215 140 124 113 
242 894 311 142 110 87 
303 346 182 106 117 170 
277 322 284 130 105 75 
243 916 311 175 133 105 
144 384 269 80 98 133 
255 388 332 167 177 192 
315 436 191 90 112 149 
252 105 263 105 78 72 
253 104 262 114 81 53 
188 716 268 133 112 93 
193 739 235 165 137 109 
266 680 337 97 79 103 
322 454 202 116 134 157 
306 610 318 94 105 118 
198 262 356 87 113 138 
293 49 205 133 121 112 
162 488 221 71 85 137 
252 106 262 100 71 62 
248 425 167 92 110 129 
342 626 286 117 127 142 
173 572 219 137 138 145 
270 876 291 157 111 82 
207 902 301 167 129 106 
275 615 317 40 61 79 
261 719 324 156 141 131 
355 365 208 74 111 153 
207 896 239 80 63 49 
317 657 144 154 161 174 
256 703 95 128 139 157 
320 95 273 95 87 83 
348 149 301 108 79 89 
312 659 243 83 114 142 
208 891 298 128 106 84 
313 911 246 86 73 62 
287 236 214 115 111 111 
321 408 223 72 102 158 
271 213 365 63 46 70 
277 707 346 122 102 87 
252 111 256 111 80 52 
307 321 278 54 83 124 
285 757 103 89 125 163 
222 844 273 136 106 82 
303 501 312 106 117 140 
311 746 147 163 165 175 
281 194 217 100 65 74 
306 477 250 116 130 149 
166 688 198 90 125 156 
255 108 256 116 58 46 
265 104 237 150 83 34 
242 278 366 153 5 78 
284 272 286 104 51 62 
232 705 116 107 117 131 
227 800 180 177 161 153 
307 472 286 113 128 149 
183 410 288 74 87 122 
207 698 287 101 100 104 
338 718 336 101 82 79 
314 572 248 89 121 149 
270 262 215 99 111 125 
205 527 148 69 96 124 
316 105 210 140 125 114 
248 106 266 93 73 53 
269 67 344 102 88 75 
210 559 139 110 118 130 
209 732 128 134 140 150 
313 528 225 91 107 124 
188 684 139 121 133 153 
182 497 302 137 148 167 
286 94 281 97 75 59 
220 642 347 120 109 108 
250 104 267 103 73 62 
301 148 323 148 97 77 
260 162 371 94 57 25 
299 614 221 91 105 124 
323 791 255 183 131 98 
317 898 230 77 64 53 
311 348 183 102 118 157 
230 649 358 89 113 162 
313 812 239 184 134 102 
323 344 252 68 108 151 
223 355 359 192 161 128 
251 628 111 133 96 58 
176 569 239 106 126 148 
323 531 273 125 144 170 
249 105 268 96 72 61 
282 794 281 185 137 109 
255 673 107 76 104 134 
311 353 273 94 109 142 
283 110 207 144 96 40 
316 509 191 131 156 179 
188 371 197 81 97 113 
272 853 272 148 110 77 
189 540 156 99 114 133 
336 255 189 86 111 135 
286 570 306 184 172 167 
158 416 212 151 147 150 
269 214 370 59 70 96 
325 721 231 139 106 60 
230 308 208 150 128 107 
249 260 397 142 99 130 
219 655 309 96 132 164 
306 487 185 151 152 160 
172 656 201 54 72 88 
291 95 209 93 77 60 
294 137 212 68 52 36 
305 715 375 189 124 110 
335 221 283 105 127 151 
249 663 338 129 158 189 
199 931 275 134 106 88 
243 102 277 74 87 111 
176 318 245 114 72 37 
195 218 344 140 124 108 
266 193 250 80 102 122 
205 491 164 50 60 73 
321 561 166 74 116 156 
250 406 330 70 98 139 
208 373 319 89 69 65 
263 100 223 115 104 97 
246 99 278 136 73 13 
173 637 162 114 125 141 
247 98 278 154 57 6 
334 616 285 140 141 147 
218 934 223 90 74 63 
319 621 197 169 169 176 
303 631 130 110 127 148 
214 622 332 101 89 79 
194 504 314 101 119 157 
296 867 224 160 120 92 
195 542 150 115 123 138 
221 142 387 99 83 75 
232 646 362 155 161 174 
314 900 229 79 65 56 
221 893 308 146 115 90 
336 430 206 91 116 158 
297 342 285 114 122 138 
308 561 235 132 150 174 
156 439 252 124 124 163 
351 116 297 118 84 60 
239 795 247 175 121 103 
220 701 120 46 81 119 
291 943 276 105 79 62 
268 740 325 167 151 140 
246 765 93 127 133 178 
352 218 268 155 153 159 
150 316 319 138 136 140 
301 899 267 103 85 70 
354 270 235 118 131 149 
226 853 294 141 107 84 
214 461 323 109 131 171 
232 167 422 135 52 0 
211 534 144 102 107 114 
269 628 367 90 81 74 
239 869 225 130 99 65 
293 693 379 147 167 187 
313 610 334 55 89 116 
308 607 209 85 114 156 
281 149 346 113 101 90 
214 430 331 136 127 128 
138 324 300 112 52 63 
295 782 130 158 14 38 
285 194 203 98 53 64 
320 791 274 203 147 112 
191 622 142 108 126 146 
292 106 206 135 120 106 
249 321 323 83 104 129 
219 457 324 77 110 166 
276 526 328 89 107 148 
188 725 229 174 161 154 
280 287 191 132 131 134 
172 661 224 189 157 125 
184 379 195 77 95 113 
263 209 418 152 80 101 
273 531 129 135 103 74 
241 98 286 102 81 68 
329 703 246 92 44 34 
212 457 323 50 56 107 
277 283 290 156 154 159 
320 691 164 153 156 165 
277 102 346 95 84 74 
298 927 230 109 83 63 
199 331 335 64 100 128 
284 454 170 97 84 72 
221 367 187 66 91 115 
290 625 115 78 100 125 
205 422 178 79 95 112 
307 445 284 84 105 141 
243 837 220 157 115 88 
299 473 192 73 89 116 
255 672 108 77 106 135 
269 979 224 177 136 98 
282 784 313 190 141 114 
328 633 164 111 143 171 
240 101 282 89 82 91 
165 261 305 117 116 120 
299 93 208 142 111 75 
331 98 258 89 82 77 
326 649 153 66 113 150 
205 874 269 161 123 96 
303 651 139 79 102 128 
325 704 240 91 33 38 
204 496 318 61 89 137 
254 424 330 80 107 159 
242 101 280 79 86 103 
232 321 331 79 114 145 
344 307 191 167 129 84 
311 516 199 97 120 161 
245 97 283 126 72 42 
231 805 179 160 94 93 
288 171 202 55 44 58 
275 355 192 83 108 136 
244 609 135 133 121 123 
176 686 221 143 90 63 
318 368 243 99 120 164 
352 418 198 68 116 158 
157 402 221 115 123 136 
294 300 281 145 143 148 
253 635 375 118 94 69 
214 347 332 178 146 111 
190 455 182 99 109 121 
359 118 271 118 89 79 
216 554 322 163 168 178 
224 257 242 125 100 80 
265 94 343 146 137 130 
198 659 133 114 127 146 
232 365 192 78 94 113 
323 623 373 100 118 138 
218 406 338 167 119 110 
235 771 101 150 167 189 
308 488 226 108 130 158 
166 516 199 146 119 114 
254 732 315 87 78 80 
252 719 94 127 139 164 
276 58 361 122 101 77 
253 777 278 191 140 117 
232 269 383 118 109 122 
208 930 296 145 111 95 
226 959 286 99 80 64 
331 745 244 89 83 80 
345 718 284 91 104 119 
312 711 383 162 23 47 
295 582 294 163 158 160 
291 760 113 61 77 141 
237 817 117 192 157 123 
344 285 191 90 110 130 
246 819 195 206 147 122 
262 684 330 138 36 51 
298 522 186 125 131 143 
326 780 268 171 126 90 
229 729 112 72 96 125 
261 351 303 101 118 149 
350 349 198 90 113 136 
304 774 146 159 25 39 
161 412 205 131 131 135 
242 106 273 97 74 61 
303 418 195 99 118 144 
314 437 191 75 108 140 
349 353 197 96 119 143 
329 557 167 89 127 172 
281 197 213 112 49 63 
226 255 382 104 66 84 
325 664 153 142 128 133 
242 107 274 114 89 79 
202 735 274 157 92 109 
241 553 140 88 93 100 
282 175 217 58 82 105 
251 550 124 124 95 60 
265 186 252 105 49 62 
214 485 162 80 100 122 
184 505 236 86 103 133 
175 389 301 85 96 133 
182 522 231 152 152 159 
264 91 262 105 85 72 
274 330 288 129 118 110 
216 157 413 131 87 54 
255 380 195 99 107 119 
351 667 342 40 63 101 
273 142 341 82 50 32 
325 725 230 113 87 71 
313 737 177 147 160 177 
279 151 335 131 69 33 
313 667 414 123 143 207 
256 864 215 155 122 88 
279 540 324 116 138 161 
155 357 256 80 94 109 
240 108 274 99 74 58 
240 108 275 101 77 63 
283 669 98 72 100 129 
213 866 285 158 121 98 
297 631 212 90 113 137 
250 387 325 57 72 102 
270 930 214 103 72 46 
202 892 255 149 113 85 
321 703 169 110 135 163 
274 288 323 134 139 148 
225 960 282 91 71 56 
321 562 175 131 142 158 
270 499 332 122 138 160 
222 364 332 98 111 127 
177 591 261 144 155 172 
265 923 208 86 65 46 
336 409 190 97 122 152 
238 297 210 137 123 110 
240 108 277 110 86 69 
169 316 258 110 64 11 
329 470 181 152 161 180 
181 362 320 103 114 144 
245 104 273 90 72 77 
345 702 275 144 38 44 
196 299 246 103 51 37 
267 180 414 69 53 43 
171 393 299 135 143 158 
310 123 203 115 91 69 
359 119 268 119 90 85 
210 376 177 86 100 114 
181 571 258 112 119 131 
187 350 208 125 109 104 
228 355 324 150 146 151 
329 98 248 81 72 64 
206 636 327 167 122 110 
313 690 211 107 121 137 
239 268 386 114 47 80 
237 922 208 64 53 48 
268 55 371 57 43 38 
281 178 393 112 103 98 
295 940 249 87 74 62 
326 101 224 123 107 97 
224 962 246 81 58 41 
333 673 395 108 127 181 
351 195 216 53 52 52 
244 289 381 84 144 188 
310 635 228 127 145 167 
330 294 181 125 137 154 
172 609 220 166 159 160 
325 781 252 124 116 115 
322 329 262 129 139 157 
202 753 149 172 21 58 
156 280 307 129 127 131 
173 664 224 176 145 110 
338 190 296 137 113 124 
285 542 138 68 92 115 
180 366 316 98 115 138 
239 170 417 124 76 50 
215 657 334 90 120 187 
190 643 293 88 52 49 
195 739 253 192 179 174 
279 914 200 70 53 43 
279 419 310 78 104 135 
231 985 231 137 104 79 
248 98 279 150 51 8 
277 663 101 99 118 141 
305 752 134 161 166 181 
160 338 322 157 156 162 
170 400 198 121 121 124 
204 522 315 104 124 173 
157 386 228 99 107 118 
215 783 153 154 99 105 
265 68 208 130 104 76 
276 884 202 103 74 56 
281 633 336 47 62 76 
248 101 274 139 73 44 
248 101 275 137 76 47 
249 100 274 150 53 6 
263 68 371 93 76 60 
173 497 229 143 150 165 
353 651 331 89 118 156 
156 299 321 135 133 136 
352 668 341 41 42 70 
260 15 200 157 139 127 
333 317 255 116 132 153 
291 502 322 162 158 161 
263 168 254 93 87 89 
164 398 209 114 116 121 
318 614 194 149 150 158 
311 614 316 62 85 105 
228 620 135 29 57 114 
306 460 276 106 124 152 
225 694 292 80 92 117 
341 106 228 125 90 72 
225 622 335 95 85 77 
279 193 323 71 33 59 
227 334 341 123 122 126 
282 198 211 114 66 66 
348 710 287 141 87 100 
306 697 205 97 115 134 
256 112 343 76 61 49 
185 741 209 142 110 83 
313 694 185 97 123 155 
272 89 342 141 133 127 
236 267 385 135 44 76 
254 386 315 72 99 152 
282 228 316 113 95 104 
254 96 272 128 70 40 
342 273 258 117 134 155 
306 909 278 141 114 91 
330 461 194 95 119 159 
248 97 280 136 57 14 
161 470 231 105 119 155 
249 96 280 134 57 16 
310 729 365 128 111 102 
286 944 229 146 109 82 
314 688 400 146 193 236 
309 576 193 98 122 147 
190 732 241 174 148 126 
320 704 173 136 150 171 
290 942 231 134 100 65 
248 356 193 92 108 126 
311 916 239 70 56 47 
363 159 247 100 48 41 
253 481 140 116 97 78 
304 452 264 61 94 150 
332 743 246 133 122 117 
291 132 214 65 43 34 
320 685 180 122 145 170 
282 534 324 97 122 159 
244 277 216 101 43 34 
188 549 157 135 136 143 
225 801 150 134 129 130 
219 143 387 88 80 73 
217 725 293 195 168 144 
303 376 192 80 114 153 
184 553 255 104 124 147 
303 702 198 116 132 150 
268 846 198 219 162 123 
247 114 260 113 92 76 
247 114 261 104 84 72 
218 910 210 89 60 50 
174 660 227 174 146 117 
226 367 340 146 124 102 
196 307 236 150 133 117 
246 115 262 102 88 81 
306 660 140 41 73 97 
274 205 401 122 121 136 
213 397 355 209 170 127 
285 184 388 138 94 31 
334 435 187 115 135 159 
277 225 324 89 33 51 
248 904 199 78 61 45 
319 121 209 135 57 8 
297 658 206 139 138 143 
274 129 221 36 60 82 
336 103 231 116 90 79 
186 625 302 161 117 106 
285 403 304 159 154 156 
353 131 296 117 96 87 
220 752 272 199 150 121 
151 432 246 111 124 151 
340 516 178 45 89 120 
270 827 143 154 135 126 
173 676 162 106 122 141 
192 609 141 115 128 146 
275 283 322 125 144 166 
275 186 237 102 41 51 
297 151 323 139 86 60 
355 113 261 99 61 11 
352 310 221 125 89 106 
243 113 267 95 92 94 
320 94 287 93 85 79 
148 350 315 120 127 153 
265 143 349 100 61 49 
184 409 307 64 88 134 
333 179 208 100 49 49 
159 386 224 115 116 122 
307 541 198 122 141 167 
210 367 324 145 94 68 
270 43 347 112 94 77 
215 329 331 67 86 107 
308 423 256 118 130 159 
241 115 269 66 86 106 
260 241 232 80 100 118 
290 943 277 104 84 64 
273 960 275 82 66 54 
297 220 302 133 135 143 
241 115 270 71 89 109 
264 12 219 133 114 102 
254 941 218 115 83 51 
289 880 256 124 89 64 
179 629 152 87 109 136 
272 583 115 115 91 64 
240 323 195 116 105 97 
187 520 239 127 133 145 
242 114 269 82 92 104 
242 115 268 61 82 103 
167 266 288 97 103 112 
173 709 160 130 154 180 
317 205 300 138 41 84 
202 381 354 186 156 124 
244 265 366 80 94 129 
335 718 255 66 71 103 
244 301 203 143 127 111 
315 76 221 101 84 65 
243 118 267 61 89 114 
232 530 144 91 98 109 
213 489 323 128 149 177 
307 651 144 127 136 150 
318 688 235 127 137 150 
278 435 315 143 148 158 
215 878 240 120 94 66 
287 478 154 86 71 64 
241 116 271 65 85 106 
272 921 205 82 62 44 
231 522 147 98 106 118 
250 667 116 105 125 148 
314 365 266 106 129 156 
240 118 271 60 82 104 
271 594 307 67 88 119 
189 555 155 137 137 143 
172 423 279 147 148 156 
229 683 138 102 107 123 
272 682 345 115 44 56 
361 208 259 84 109 136 
313 172 308 108 89 101 
202 912 243 74 60 52 
191 630 140 66 103 138 
292 928 220 88 68 52 
205 351 323 137 124 115 
201 681 281 137 56 29 
243 119 268 49 78 105 
176 574 278 80 108 138 
294 938 236 90 67 51 
172 330 244 122 108 95 
178 428 294 62 84 133 
245 113 265 100 87 79 
298 924 221 103 79 62 
322 639 264 91 110 130 
172 632 248 84 66 76 
274 526 134 114 93 73 
244 114 265 94 88 90 
306 244 184 130 127 128 
345 420 191 166 173 186 
273 178 400 62 41 29 
209 218 373 81 34 40 
295 77 242 72 62 51 
151 394 241 82 102 125 
346 146 305 101 97 109 
275 118 309 79 70 64 
258 72 232 115 93 70 
289 752 339 159 124 108 
306 880 250 99 77 57 
341 116 216 136 64 16 
188 694 274 98 79 66 
205 211 363 79 37 47 
247 626 345 87 79 75 
302 772 330 208 147 115 
314 76 224 94 78 62 
314 459 186 106 120 148 
188 487 250 101 114 147 
196 911 281 161 124 98 
289 568 305 135 129 129 
247 121 259 102 96 108 
317 620 380 118 130 146 
299 655 203 140 141 149 
259 755 300 178 128 99 
325 549 177 131 147 166 
180 523 228 131 138 151 
295 113 358 153 142 136 
161 485 208 108 118 140 
318 680 243 121 129 141 
355 366 209 43 92 146 
315 180 203 92 48 65 
281 489 137 120 96 72 
300 824 253 203 148 119 
231 953 299 96 78 65 
225 956 234 91 68 50 
355 676 292 167 28 46 
176 536 178 88 124 154 
253 570 119 124 93 59 
247 123 261 102 95 103 
159 333 264 120 111 107 
335 655 383 60 97 138 
203 755 241 123 135 151 
305 619 239 85 109 134 
310 558 185 119 143 169 
330 299 265 107 128 151 
319 234 283 127 141 160 
179 433 291 75 98 130 
315 151 313 116 90 109 
274 25 208 109 93 86 
180 704 226 174 64 59 
317 713 211 112 43 32 
137 328 298 126 106 98 
271 667 362 154 176 203 
322 622 327 40 79 105 
314 500 287 104 121 141 
281 954 244 116 87 62 
160 341 321 121 129 147 
246 126 262 114 95 105 
212 447 178 94 105 118 
314 652 419 116 135 201 
340 369 234 84 111 151 
173 652 160 65 88 121 
298 649 205 69 101 132 
303 447 244 172 171 178 
308 485 250 62 88 116 
266 235 333 93 26 34 
174 543 216 144 145 152 
251 587 115 122 93 59 
245 634 136 112 105 112 
297 90 208 141 106 67 
281 17 228 110 97 86 
287 431 195 98 109 128 
231 606 314 99 35 54 
168 691 207 107 84 88 
179 527 298 139 155 179 
190 513 312 43 77 154 
282 595 295 109 118 132 
213 426 177 99 110 123 
185 503 170 109 115 125 
310 910 274 105 84 71 
161 448 203 102 117 136 
283 759 101 81 130 170 
278 450 158 114 93 87 
315 384 240 125 135 151 
301 834 207 185 139 106 
312 468 185 146 153 168 
268 108 347 88 74 62 
167 351 319 100 108 146 
257 50 231 105 84 60 
273 213 362 59 39 60 
258 105 309 94 76 62 
231 801 205 200 143 124 
342 310 190 165 131 93 
242 122 268 57 80 102 
242 122 269 60 83 104 
184 657 285 101 110 128 
242 123 269 73 85 102 
247 556 137 87 73 71 
313 337 274 115 126 146 
265 223 362 132 34 61 
273 866 199 144 102 66 
331 632 270 86 106 127 
192 430 322 81 97 124 
306 691 396 173 191 215 
308 578 232 93 112 133 
146 394 255 77 96 128 
175 574 239 91 117 143 
217 869 300 180 131 116 
298 56 230 110 93 78 
299 309 280 105 117 133 
241 125 269 79 56 71 
216 784 156 179 154 162 
250 478 146 98 83 69 
313 665 415 126 143 210 
299 853 219 216 161 128 
302 399 292 115 125 140 
308 603 246 150 152 161 
185 701 246 96 88 93 
228 751 278 198 149 121 
265 275 321 105 106 112 
344 682 274 145 23 39 
255 250 350 113 84 114 
227 388 174 69 92 114 
317 700 216 130 84 100 
203 885 264 152 118 89 
286 479 146 76 66 55 
266 95 287 111 74 39 
203 930 287 119 93 80 
187 473 258 87 95 142 
205 671 126 47 64 90 
322 543 234 111 57 88 
275 28 210 59 40 32 
244 122 264 68 86 108 
164 665 216 92 67 57 
297 800 290 196 141 114 
143 378 269 69 92 128 
256 909 200 74 57 48 
337 142 310 129 109 99 
209 331 333 65 90 113 
315 291 175 159 155 157 
345 289 192 99 118 139 
252 568 121 120 92 58 
334 737 252 68 52 52 
172 304 331 146 144 150 
315 101 213 132 116 104 
198 420 310 61 87 129 
184 494 276 116 122 131 
201 417 323 66 80 105 
245 127 265 115 84 91 
203 373 353 169 143 118 
239 283 365 110 99 91 
317 121 207 127 76 30 
279 720 98 61 84 120 
319 616 300 47 63 78 
193 460 329 141 159 180 
183 693 248 157 133 111 
252 945 220 145 104 70 
265 319 303 155 98 62 
301 624 126 107 125 146 
330 227 192 142 141 143 
217 440 323 40 69 111 
280 953 236 117 87 60 
309 593 273 75 87 104 
304 898 242 78 63 49 
258 220 244 124 121 123 
163 282 286 130 112 95 
218 510 150 84 95 107 
342 302 190 172 132 90 
338 384 228 76 104 156 
320 374 237 108 129 160 
226 260 378 122 69 106 
328 98 252 84 75 69 
351 318 202 130 72 81 
229 582 133 146 139 139 
310 917 262 83 69 58 
251 274 384 162 47 102 
362 221 239 80 121 154 
205 309 219 167 149 132 
211 360 326 173 143 111 
199 917 291 190 142 121 
248 113 261 114 96 81 
243 268 353 143 0 68 
305 611 209 126 139 159 
292 118 366 140 123 108 
310 767 162 156 24 45 
275 20 246 88 81 78 
241 486 335 159 164 176 
211 892 239 99 77 52 
202 327 335 59 99 129 
308 765 190 109 122 138 
261 799 105 124 67 62 
338 682 375 131 145 165 
163 483 226 96 120 156 
304 707 192 134 139 150 
173 586 232 89 116 142 
286 368 191 101 121 151 
182 286 335 87 114 139 
235 429 322 86 104 129 
269 630 377 106 88 70 
264 853 288 154 111 81 
313 149 315 123 110 115 
315 339 272 119 129 146 
209 361 186 88 99 112 
275 872 205 144 106 72 
318 494 193 165 167 176 
173 455 186 166 165 173 
323 368 238 88 109 150 
284 665 402 130 144 174 
185 277 265 95 85 88 
277 745 98 96 109 139 
257 850 291 159 121 91 
249 529 128 121 93 64 
262 94 224 108 92 78 
315 306 176 126 143 167 
234 389 184 61 89 114 
173 620 179 133 130 133 
219 614 305 47 63 78 
218 377 358 202 169 134 
318 578 172 123 140 159 
326 552 168 142 162 186 
328 228 191 117 122 130 
296 769 123 146 162 182 
190 441 298 79 105 142 
205 728 287 208 186 172 
310 882 236 106 84 62 
329 587 172 106 134 162 
259 862 295 158 116 88 
249 125 257 110 99 113 
194 510 255 101 110 129 
321 334 261 113 121 151 
175 582 177 125 129 139 
248 125 259 102 88 100 
250 228 415 158 92 121 
172 699 169 123 141 161 
248 126 259 104 98 103 
323 121 315 115 120 127 
271 643 395 71 68 68 
193 696 136 143 153 170 
232 289 217 140 124 108 
288 465 320 104 123 146 
250 125 257 101 96 109 
319 251 179 129 122 119 
297 529 167 101 122 145 
216 358 363 164 8 70 
344 410 213 171 176 187 
225 377 321 91 112 139 
178 557 231 60 83 129 
273 402 199 48 83 111 
289 484 173 82 83 94 
293 98 304 88 74 63 
302 77 235 75 64 54 
280 622 312 20 38 55 
307 828 217 169 128 98 
289 491 174 63 75 90 
275 816 129 156 129 126 
299 833 202 193 145 116 
231 795 223 187 133 111 
234 503 331 147 150 160 
309 472 221 123 141 163 
240 114 273 74 89 105 
221 779 236 189 138 115 
324 364 189 70 113 152 
244 834 230 152 113 85 
191 422 339 146 117 97 
236 711 111 74 91 117 
316 579 204 80 113 142 
355 680 297 104 112 144 
171 454 258 141 142 155 
240 121 272 58 81 102 
221 926 307 184 138 116 
180 612 276 137 98 88 
153 287 299 95 103 112 
181 727 209 101 84 64 
298 734 356 173 159 157 
213 197 400 101 79 98 
292 606 303 41 56 68 
234 812 152 166 139 114 
338 306 255 163 124 80 
299 406 196 111 128 149 
234 801 109 127 44 63 
302 446 251 83 108 147 
346 197 214 127 46 15 
164 390 213 80 93 109 
299 235 189 134 118 104 
254 828 167 169 166 170 
225 111 292 86 79 80 
303 624 133 83 105 128 
168 494 193 94 109 127 
342 196 210 125 45 11 
272 18 205 135 115 102 
239 985 272 141 105 72 
259 203 253 77 99 122 
215 218 384 108 42 55 
201 689 127 28 60 117 
328 96 271 95 87 83 
269 34 244 125 100 81 
226 110 293 86 80 79 
226 111 292 83 78 80 
309 239 288 121 134 153 
185 277 340 84 102 120 
312 594 242 113 95 105 
252 468 157 84 76 69 
351 328 234 155 95 113 
190 708 141 134 154 178 
306 902 266 91 72 57 
274 38 208 104 87 69 
349 390 194 104 129 155 
173 337 242 103 93 83 
270 564 120 114 90 61 
193 193 331 54 54 69 
297 100 208 110 99 89 
273 914 198 91 67 55 
255 971 274 108 80 58 
281 148 349 90 78 64 
280 719 101 76 91 118 
266 701 333 70 95 127 
168 399 200 119 118 120 
269 736 327 176 148 122 
184 515 235 143 148 159 
186 706 255 97 93 97 
267 84 340 116 106 98 
251 317 196 127 82 53 
327 641 154 83 73 100 
230 106 295 79 72 72 
274 281 197 133 132 135 
262 992 247 116 94 72 
241 454 326 98 115 142 
226 281 373 91 115 138 
184 635 279 119 83 79 
286 280 283 155 153 158 
229 108 289 84 71 69 
207 573 137 136 135 139 
229 109 289 83 71 71 
278 110 350 95 83 72 
228 109 290 85 76 75 
241 288 381 81 136 178 
311 649 234 102 58 89 
308 415 254 107 126 154 
228 110 288 93 82 81 
309 789 187 152 134 119 
301 756 344 186 170 157 
210 861 264 131 100 71 
352 304 225 134 65 94 
230 108 288 87 66 65 
283 238 302 115 127 145 
233 865 298 149 103 90 
245 383 319 61 78 101 
186 599 150 115 124 139 
200 735 140 154 100 116 
156 353 260 86 96 109 
265 221 364 88 52 70 
242 785 263 189 139 116 
296 668 406 110 122 183 
315 115 316 131 68 2 
271 984 260 122 94 71 
308 771 157 171 101 67 
288 453 317 165 158 158 
177 573 244 104 113 137 
218 460 172 47 55 65 
235 811 164 177 150 127 
322 161 205 47 68 101 
287 602 319 69 87 105 
317 364 248 83 109 153 
271 601 112 119 91 59 
197 428 309 61 89 128 
237 897 202 155 126 97 
311 413 265 65 92 142 
232 236 403 149 69 99 
273 103 302 98 73 56 
225 110 298 80 76 77 
302 92 207 147 115 80 
257 92 246 113 101 89 
287 918 212 100 78 58 
171 591 209 76 117 150 
252 901 200 87 70 54 
281 239 318 151 149 154 
240 627 354 113 94 75 
222 783 116 137 87 92 
329 605 159 113 142 172 
227 108 298 78 75 77 
349 672 349 117 146 174 
310 765 337 179 171 171 
190 449 272 114 119 134 
260 92 271 118 79 54 
245 838 242 93 71 42 
321 354 187 93 124 159 
346 686 353 164 105 118 
305 719 194 125 117 129 
326 528 248 140 139 144 
317 625 198 163 162 167 
244 909 205 64 50 41 
364 199 237 129 41 33 
278 195 339 103 35 68 
237 831 280 137 105 84 
179 524 225 148 151 161 
266 209 414 134 85 102 
273 26 248 122 90 76 
291 438 195 97 106 118 
355 267 234 119 135 154 
276 680 97 116 126 140 
308 546 203 97 117 140 
294 379 193 97 113 140 
226 108 302 78 72 70 
226 108 303 79 72 69 
271 916 198 74 56 38 
321 633 164 61 112 149 
232 585 134 71 83 101 
240 275 354 146 35 87 
328 666 408 144 166 197 
237 198 431 125 129 140 
285 772 326 192 143 115 
259 52 233 105 83 59 
262 628 319 33 44 57 
296 702 119 86 111 134 
250 656 114 73 79 91 
215 282 238 121 101 78 
268 476 136 124 96 71 
233 312 371 144 139 146 
179 355 225 111 114 120 
216 315 346 114 120 131 
309 808 208 109 115 126 
188 747 210 180 157 139 
276 193 334 123 34 35 
183 520 168 111 114 121 
243 808 108 107 27 42 
289 292 281 140 138 142 
169 543 211 152 151 158 
354 258 241 83 117 148 
280 198 220 115 98 96 
229 107 301 77 70 68 
284 819 148 103 95 97 
228 107 303 78 69 65 
218 348 196 100 80 72 
326 618 269 124 128 137 
320 542 241 74 128 169 
173 446 264 155 153 158 
230 106 301 76 67 65 
173 649 165 61 64 88 
278 26 246 106 82 66 
179 345 229 128 95 91 
165 365 313 50 93 141 
292 122 208 138 126 128 
215 878 292 154 118 100 
257 58 342 103 82 61 
330 275 182 150 148 152 
307 440 290 86 92 146 
360 139 280 61 84 106 
334 653 371 133 146 165 
257 248 387 129 112 132 
185 712 234 161 128 95 
228 108 300 76 73 74 
319 562 224 83 126 163 
333 143 313 118 115 118 
278 198 323 46 41 66 
211 696 120 100 116 134 
214 307 217 164 145 126 
335 731 318 155 142 138 
181 335 225 133 123 117 
208 727 126 129 149 173 
343 719 311 134 113 97 
297 474 313 133 140 151 
318 556 282 143 151 164 
299 200 192 98 61 61 
148 333 280 125 115 108 
314 715 378 147 38 51 
193 506 162 53 59 67 
226 573 134 142 138 139 
342 478 181 93 124 163 
324 762 229 175 146 115 
174 573 277 101 126 161 
259 473 329 86 110 137 
256 808 108 131 49 66 
298 407 298 88 109 141 
264 753 310 165 121 93 
302 60 228 105 90 75 
269 800 109 100 88 130 
350 633 316 163 162 168 
143 320 294 94 87 81 
297 909 284 144 116 87 
178 673 235 143 98 49 
204 642 317 92 78 94 
210 333 356 144 44 71 
263 137 235 121 90 115 
321 503 178 56 93 128 
244 362 321 108 109 114 
241 334 326 53 104 139 
239 642 368 97 90 97 
349 707 293 147 118 80 
249 716 99 105 110 120 
284 251 216 82 101 121 
239 98 295 83 61 47 
324 771 301 159 121 88 
214 786 180 163 134 105 
236 101 290 90 73 65 
236 274 382 159 33 97 
226 684 130 73 94 129 
140 337 290 73 92 117 
292 482 187 81 98 118 
223 681 289 128 53 45 
200 748 245 90 106 123 
178 365 216 113 115 121 
210 367 362 158 95 112 
231 787 243 181 128 107 
236 102 290 89 73 66 
226 316 203 128 67 7 
