ply
format ascii 1.0
comment Created by CloudCompare v2.11.1 (Anoia)
comment Created 2/28/22 9:42 PM
obj_info Generated by CloudCompare!
element vertex 1999
property float x
property float y
property float z
property uchar red
property uchar green
property uchar blue
end_header
186 543 233 135 135 142 
209 873 238 146 113 80 
193 449 326 91 112 158 
302 896 273 106 89 77 
177 469 308 131 146 170 
260 924 212 82 62 38 
277 949 280 129 98 69 
265 154 228 101 45 35 
305 661 154 86 119 149 
306 88 251 88 79 72 
289 755 150 142 158 179 
325 606 196 93 118 143 
246 149 286 109 96 94 
205 753 97 97 121 165 
196 306 363 167 165 170 
362 685 317 120 108 120 
303 153 195 73 48 48 
315 666 173 148 151 162 
287 928 276 105 85 65 
268 949 259 121 91 69 
272 94 266 71 56 36 
144 357 350 107 118 158 
274 794 147 74 46 56 
224 458 149 97 98 103 
270 761 127 130 34 55 
315 568 256 109 137 167 
242 882 314 160 126 97 
241 547 137 71 71 76 
204 948 269 122 92 66 
366 643 369 98 124 153 
289 910 232 83 67 53 
282 656 327 94 127 157 
247 593 132 92 99 110 
150 271 321 125 126 133 
243 710 103 41 83 139 
246 840 201 200 152 118 
232 229 304 107 40 40 
236 923 219 86 66 50 
248 715 113 105 117 135 
184 652 136 27 62 112 
263 785 266 193 139 118 
312 703 175 142 161 186 
278 645 372 183 185 195 
201 797 113 160 28 103 
235 217 316 43 50 67 
277 59 208 133 109 85 
215 226 230 86 106 127 
178 477 188 85 95 106 
305 721 329 143 124 111 
218 888 319 169 132 107 
264 769 126 162 173 189 
191 780 128 105 125 144 
264 259 310 68 46 47 
264 782 127 176 24 36 
199 752 109 106 122 156 
245 639 345 88 112 144 
299 465 164 122 135 154 
192 764 206 180 150 120 
233 265 334 156 125 93 
322 759 222 182 158 137 
209 966 265 126 104 84 
208 855 247 134 104 74 
182 637 157 86 109 147 
209 772 226 128 109 96 
214 231 230 82 108 132 
343 216 241 152 149 152 
280 656 343 140 166 195 
343 230 251 106 123 142 
167 215 341 124 121 124 
264 724 119 89 113 150 
257 466 153 77 95 117 
210 226 235 86 105 124 
245 469 325 112 131 159 
351 623 294 85 100 117 
242 719 103 93 106 141 
337 258 233 100 125 152 
150 290 320 135 19 60 
164 725 180 143 71 91 
233 482 153 90 94 100 
321 675 188 86 141 181 
185 538 293 148 163 186 
162 655 185 97 117 136 
285 578 138 143 142 148 
197 608 287 140 98 91 
209 227 236 88 105 122 
213 738 270 119 102 99 
322 344 281 93 113 141 
302 515 324 121 136 157 
287 272 195 126 130 138 
233 302 337 146 147 155 
185 531 153 128 129 136 
279 201 201 120 63 72 
306 350 294 64 95 130 
296 720 148 143 158 179 
199 536 301 64 79 106 
231 514 132 69 85 100 
231 595 108 60 90 117 
169 643 228 92 90 91 
175 598 151 105 122 147 
287 923 244 95 73 56 
174 237 350 92 58 44 
215 967 242 129 95 65 
290 680 316 144 69 87 
274 749 294 182 132 103 
286 345 294 123 127 137 
192 787 126 132 22 24 
192 659 262 159 88 56 
312 476 253 91 118 146 
224 937 227 132 101 63 
277 841 251 166 118 91 
174 628 215 77 113 143 
257 129 249 107 103 102 
339 97 253 110 95 79 
192 616 273 146 108 98 
297 66 236 98 83 69 
367 668 348 122 138 163 
253 900 204 90 69 50 
201 455 144 135 130 131 
168 278 289 144 125 107 
209 229 236 69 78 88 
295 889 248 73 55 40 
204 480 318 155 169 189 
196 419 338 120 75 44 
253 695 116 75 100 129 
298 690 324 124 121 125 
218 657 295 112 147 178 
200 491 148 90 76 64 
209 231 236 82 76 77 
151 329 315 131 72 0 
292 350 294 72 91 113 
325 496 292 100 117 136 
339 757 292 161 145 135 
155 476 241 159 161 177 
335 770 281 163 135 107 
293 392 307 102 117 135 
299 533 161 125 138 156 
170 357 361 111 122 153 
190 385 353 211 178 146 
146 393 322 87 105 153 
299 132 206 138 39 22 
213 226 233 81 102 122 
282 771 147 146 12 46 
266 39 239 92 76 58 
362 640 395 40 53 122 
247 866 307 173 131 99 
329 192 261 112 52 67 
228 444 160 25 60 85 
157 314 361 146 144 149 
274 754 130 167 173 185 
289 358 178 78 108 133 
185 377 250 46 73 101 
213 229 232 81 104 126 
245 661 106 111 129 152 
193 596 275 70 75 93 
330 261 222 110 131 153 
212 231 233 80 98 116 
324 495 270 101 112 125 
263 904 210 116 84 75 
201 130 345 99 91 85 
144 369 307 61 82 101 
318 435 243 159 161 174 
151 291 320 132 13 58 
168 511 159 58 94 125 
257 939 232 143 104 69 
219 558 311 124 146 190 
345 725 350 120 125 130 
226 180 353 80 69 86 
309 264 196 131 138 149 
313 518 313 118 128 151 
314 413 296 121 129 143 
215 233 229 86 111 135 
214 232 230 84 109 133 
320 442 216 120 136 157 
214 233 230 87 112 136 
273 749 128 99 108 127 
272 900 201 97 73 56 
161 465 212 96 105 115 
222 180 353 68 51 72 
268 298 204 132 132 136 
289 135 295 72 90 109 
209 696 90 125 146 182 
193 558 129 111 83 61 
213 236 231 80 79 81 
313 702 199 138 153 168 
297 888 282 144 119 94 
212 713 92 58 92 153 
297 590 151 154 153 158 
341 641 404 63 57 57 
199 215 259 116 115 118 
302 487 173 152 154 162 
204 167 267 61 95 125 
287 624 316 37 46 59 
212 608 293 66 78 93 
184 493 267 91 104 136 
145 302 347 96 113 130 
187 527 300 104 130 180 
215 238 228 79 89 101 
187 318 360 124 55 60 
190 735 120 79 106 154 
167 673 214 84 119 148 
163 249 300 146 135 127 
266 22 200 158 141 128 
255 807 131 141 115 113 
276 553 139 88 105 123 
324 649 198 76 99 148 
183 560 240 147 146 152 
300 179 301 57 70 93 
349 708 364 86 64 117 
313 720 198 142 67 86 
207 328 355 122 139 162 
261 167 220 46 50 54 
163 483 190 83 100 118 
358 660 397 176 183 202 
334 655 398 178 187 211 
307 686 190 88 121 152 
276 624 325 48 53 60 
349 707 243 192 111 61 
246 678 116 99 115 138 
227 333 201 102 82 65 
169 201 287 146 140 139 
216 135 262 108 76 46 
293 507 330 103 117 157 
250 652 302 94 140 176 
355 703 314 181 100 53 
184 224 275 115 117 124 
246 676 289 115 99 86 
228 511 127 100 113 130 
180 500 295 131 142 161 
234 397 318 94 64 81 
343 672 226 130 137 149 
264 201 303 51 33 42 
193 584 125 108 82 63 
209 237 233 125 122 123 
278 145 297 77 49 48 
341 617 247 114 117 124 
237 395 314 100 115 136 
209 236 234 126 121 122 
209 237 234 119 120 124 
195 693 113 79 102 133 
209 239 233 113 118 126 
245 604 307 57 99 131 
196 551 302 63 86 154 
314 239 199 153 150 154 
200 816 147 135 94 95 
163 404 254 99 106 116 
173 418 234 121 124 129 
355 683 243 153 168 187 
164 317 290 141 121 102 
196 186 272 96 58 59 
242 909 214 72 53 38 
222 265 358 141 82 107 
335 211 212 141 109 110 
188 409 229 75 97 117 
330 315 236 175 130 73 
332 763 319 128 102 83 
214 541 115 122 96 68 
297 88 209 92 71 46 
184 250 266 112 15 43 
268 305 203 90 108 127 
297 576 153 141 146 158 
324 432 265 99 116 149 
314 317 285 141 145 154 
298 898 283 123 89 72 
350 152 236 110 49 60 
200 473 284 83 84 95 
168 449 214 78 86 98 
263 525 141 97 108 121 
164 729 198 177 57 79 
216 226 229 85 105 126 
246 368 302 118 120 129 
285 139 219 72 56 54 
212 573 303 110 129 165 
202 902 222 109 89 73 
241 250 295 105 89 87 
192 648 124 119 125 137 
210 461 325 171 176 188 
207 672 288 136 46 21 
349 721 307 141 129 121 
219 225 228 90 114 137 
263 216 208 145 66 8 
263 831 174 179 155 137 
296 874 240 107 85 64 
349 142 211 79 50 71 
321 217 270 135 59 12 
287 720 314 164 141 123 
186 729 229 99 89 88 
305 627 160 79 123 158 
280 244 319 89 121 147 
306 216 274 149 72 6 
301 736 171 168 31 46 
349 629 248 129 128 133 
295 511 329 112 119 157 
301 559 163 137 142 155 
156 488 221 114 138 166 
346 714 288 81 100 121 
286 905 303 107 86 69 
280 623 344 89 82 78 
216 230 228 78 101 126 
232 221 306 77 37 34 
256 516 144 80 94 110 
199 472 142 73 59 41 
226 813 195 198 147 124 
188 719 146 111 125 142 
247 409 311 51 90 120 
218 229 228 85 108 137 
317 294 201 120 54 69 
330 231 214 86 130 166 
335 319 259 116 126 146 
249 627 127 69 91 112 
268 351 321 156 118 56 
319 478 274 147 149 158 
367 652 326 80 125 159 
173 668 223 115 104 98 
173 574 169 73 106 141 
223 454 148 94 100 110 
173 568 173 64 93 151 
172 572 148 96 111 130 
201 692 279 86 82 82 
309 648 166 83 129 165 
241 443 158 100 112 127 
364 637 317 46 76 111 
316 648 392 89 129 184 
306 450 174 95 125 155 
223 224 226 95 77 80 
186 165 356 148 75 10 
307 625 317 57 74 89 
179 602 170 120 135 156 
264 878 214 119 76 62 
188 568 267 95 105 120 
362 633 372 76 97 116 
200 723 264 175 151 128 
285 76 209 143 117 90 
231 424 168 70 87 103 
344 654 231 112 124 141 
221 228 226 86 113 138 
276 453 155 92 108 128 
184 520 288 65 86 130 
354 623 269 74 83 95 
220 230 227 91 117 142 
243 520 328 114 119 151 
244 652 298 37 87 123 
264 870 212 169 126 91 
221 231 226 92 116 137 
220 473 121 85 73 62 
205 805 162 156 141 132 
307 444 175 100 131 162 
283 152 213 89 50 34 
239 772 107 58 81 121 
286 874 253 106 81 62 
269 191 206 121 35 33 
291 910 251 67 54 44 
337 611 322 50 79 102 
210 577 299 82 110 149 
228 521 123 133 132 136 
147 353 311 109 97 84 
314 469 257 125 139 158 
339 206 216 150 57 89 
177 476 306 169 173 186 
179 287 266 131 19 61 
267 788 267 192 140 117 
271 289 321 107 123 142 
340 639 234 84 89 101 
214 756 101 116 121 180 
238 934 311 103 79 61 
215 460 129 92 84 77 
348 620 336 94 109 125 
308 175 284 114 93 116 
207 718 282 197 179 167 
264 919 215 95 77 62 
235 827 149 204 175 150 
319 305 206 103 111 123 
254 486 329 183 179 183 
292 723 316 147 122 97 
167 547 163 89 113 156 
285 698 131 130 145 164 
230 722 292 163 153 159 
159 478 254 202 195 199 
194 658 265 138 92 57 
226 930 317 99 81 68 
292 605 312 38 77 104 
284 646 375 174 178 189 
276 920 228 114 89 63 
294 895 267 100 82 68 
226 373 334 161 101 74 
252 390 176 133 130 130 
234 238 300 86 44 73 
257 555 134 138 135 137 
190 543 297 148 160 183 
244 206 294 78 45 44 
278 938 243 161 125 92 
182 335 254 160 108 46 
242 595 309 150 146 147 
316 447 244 96 120 149 
219 238 225 87 114 141 
204 774 101 123 147 211 
314 491 223 137 146 162 
195 369 355 165 28 71 
334 696 216 109 124 142 
207 529 310 116 137 169 
208 315 230 130 70 38 
332 142 196 129 32 11 
291 781 173 144 131 123 
313 427 301 105 124 147 
216 238 228 86 102 119 
339 562 218 90 111 131 
189 703 130 91 108 137 
275 609 129 112 127 144 
205 844 276 139 111 83 
158 322 299 145 125 103 
263 599 127 79 116 146 
204 413 341 181 157 146 
209 317 229 132 61 3 
303 552 168 112 124 140 
242 857 305 156 119 89 
256 254 212 103 117 133 
301 520 323 171 167 171 
189 497 138 130 107 83 
259 32 204 163 130 101 
188 782 160 105 89 74 
332 615 225 165 166 175 
222 233 225 85 111 136 
266 62 241 82 67 52 
309 422 305 141 145 155 
187 494 131 134 104 82 
297 769 311 187 143 114 
190 520 132 129 103 83 
224 619 326 140 114 95 
145 361 348 106 115 159 
280 798 265 187 133 105 
201 400 344 204 92 20 
230 495 145 57 73 100 
259 64 233 103 84 64 
204 945 253 120 93 68 
213 661 104 80 75 76 
253 144 338 105 97 92 
296 396 308 64 93 125 
333 763 319 118 91 79 
293 752 314 167 127 101 
267 740 123 84 110 160 
222 169 352 148 67 7 
279 397 309 63 94 134 
320 398 214 75 109 142 
338 738 276 142 125 111 
211 241 231 134 132 134 
222 864 238 117 90 60 
203 569 111 120 92 60 
338 287 246 134 143 158 
211 243 231 122 124 131 
186 437 205 99 107 118 
205 594 292 84 110 148 
258 245 300 51 69 85 
298 619 148 77 120 153 
238 427 166 82 98 114 
245 825 276 137 98 71 
270 135 238 121 82 52 
210 247 230 106 115 127 
347 165 242 145 76 70 
205 749 98 92 111 160 
319 715 349 149 129 117 
206 933 239 92 73 57 
277 458 154 131 135 145 
162 720 205 81 86 135 
337 734 244 141 128 119 
313 92 210 94 75 54 
281 116 218 119 110 120 
284 693 312 68 84 108 
213 241 230 131 125 124 
338 242 232 163 161 167 
335 242 225 151 152 159 
233 311 337 96 77 98 
274 197 308 30 36 52 
365 661 346 123 136 154 
248 828 154 231 178 110 
252 771 272 199 148 123 
346 102 223 113 100 88 
320 440 221 148 156 170 
334 765 265 154 139 128 
310 770 205 146 126 108 
196 535 272 57 81 105 
178 670 230 62 72 83 
310 810 233 196 144 112 
157 317 303 149 129 109 
185 714 232 129 107 98 
330 503 267 53 88 116 
350 724 334 69 81 123 
284 547 331 113 136 161 
350 629 389 125 135 150 
338 718 229 132 55 83 
271 391 175 105 118 133 
213 244 229 141 137 139 
287 926 253 84 64 49 
170 203 349 105 78 81 
231 650 95 84 107 130 
231 885 224 106 78 54 
238 272 302 89 108 129 
271 101 281 68 51 27 
221 616 319 125 106 89 
373 639 295 145 150 161 
334 524 275 169 165 169 
191 719 116 98 117 145 
325 93 241 112 102 95 
214 244 229 142 135 134 
231 655 93 69 101 131 
250 732 296 150 124 97 
298 168 196 57 54 81 
207 353 223 105 82 73 
278 877 263 129 95 70 
341 230 234 156 152 155 
204 397 346 179 166 158 
337 642 231 73 94 115 
305 536 316 73 96 145 
350 717 353 174 31 59 
195 382 228 71 91 114 
310 589 184 82 98 114 
347 618 320 7 67 110 
286 398 308 93 111 133 
297 47 233 104 87 71 
336 756 325 173 158 149 
322 676 388 140 160 208 
304 664 348 120 154 187 
290 777 168 138 121 107 
302 519 169 79 115 146 
317 703 350 130 137 149 
302 614 309 24 35 60 
209 628 305 169 120 109 
199 341 360 170 164 165 
346 638 390 77 70 64 
351 639 406 77 88 100 
189 473 136 119 91 75 
303 341 181 141 142 149 
213 490 317 134 157 187 
258 119 251 87 94 105 
309 605 291 46 58 69 
330 764 245 169 157 150 
192 547 126 142 102 81 
200 348 358 153 147 147 
240 374 304 94 105 121 
327 401 277 79 104 132 
216 668 94 79 76 81 
334 537 267 128 142 163 
211 439 149 56 98 128 
340 144 250 109 54 70 
192 136 284 82 41 40 
208 246 234 124 129 139 
342 636 388 76 67 61 
233 273 335 160 76 9 
246 921 313 120 93 75 
155 267 312 163 140 115 
355 646 244 116 128 143 
247 418 314 59 88 123 
255 724 115 127 137 155 
354 699 246 165 91 103 
339 732 258 111 91 81 
182 583 193 93 94 104 
249 813 241 159 113 88 
330 629 195 148 151 162 
339 731 274 181 168 161 
316 477 223 121 137 157 
188 341 239 124 105 83 
172 527 213 81 133 174 
345 735 336 164 138 112 
221 797 111 183 15 36 
230 860 231 130 100 69 
237 229 324 106 68 87 
190 453 179 50 60 70 
279 323 309 153 68 96 
270 915 302 83 68 55 
247 658 117 83 104 131 
209 255 231 140 137 140 
184 373 248 62 87 121 
311 598 263 37 63 84 
219 367 208 62 90 113 
345 651 233 112 125 142 
285 380 303 44 74 117 
351 139 229 51 41 52 
186 536 153 158 152 154 
164 702 204 130 63 70 
255 149 337 113 100 93 
344 718 285 127 106 97 
183 490 165 113 118 126 
337 184 254 69 104 132 
204 395 203 63 85 105 
209 691 89 104 133 170 
253 726 299 78 96 115 
262 736 119 100 119 161 
174 502 242 137 153 185 
183 529 297 127 150 180 
230 838 245 109 77 39 
215 250 226 139 139 142 
160 302 301 127 93 75 
206 435 167 68 88 142 
204 445 168 66 84 101 
323 556 212 103 117 133 
298 568 312 114 127 151 
286 911 227 104 83 62 
269 841 192 228 162 115 
259 113 290 82 75 70 
339 622 373 145 147 155 
254 658 335 165 188 216 
235 424 169 67 90 110 
203 700 287 165 150 141 
195 787 163 159 135 111 
159 700 199 100 128 153 
143 337 339 117 106 96 
244 789 254 173 123 106 
244 985 267 92 72 52 
326 649 198 81 103 155 
258 622 318 59 55 53 
312 588 284 112 119 131 
273 343 193 78 97 117 
265 358 189 51 82 111 
214 253 227 98 113 129 
263 90 227 116 102 89 
260 22 248 134 118 108 
159 706 181 121 150 179 
191 622 126 101 83 85 
225 344 342 164 160 164 
320 441 297 91 114 141 
157 456 222 103 110 120 
214 255 227 114 121 133 
153 453 232 103 111 122 
303 622 305 38 57 72 
212 566 303 96 110 152 
328 698 366 177 87 75 
272 851 258 162 120 91 
192 534 132 119 93 75 
337 664 225 125 129 140 
269 429 326 91 112 160 
187 785 154 69 70 108 
324 681 380 143 169 199 
162 293 358 82 120 151 
224 451 325 113 132 167 
196 674 264 94 101 120 
303 99 278 98 89 84 
195 459 294 88 95 108 
208 249 233 117 124 135 
191 742 116 99 108 139 
313 566 197 110 121 135 
262 92 242 140 108 85 
322 227 273 114 106 103 
275 528 143 85 101 117 
166 422 234 125 124 126 
231 394 327 142 130 128 
233 488 150 90 94 102 
202 750 236 149 130 114 
268 276 316 131 131 137 
332 615 342 50 69 90 
297 409 310 121 131 146 
228 311 315 109 115 126 
367 647 323 59 83 138 
312 524 189 117 132 150 
232 371 321 82 104 131 
147 345 361 139 122 96 
214 926 225 99 77 56 
205 914 219 98 80 72 
279 510 333 106 122 148 
319 337 205 128 138 153 
235 542 125 61 82 100 
174 617 195 92 93 98 
245 260 295 120 119 122 
322 621 326 37 68 93 
196 499 282 91 105 122 
181 755 171 121 32 73 
206 534 307 95 116 176 
225 347 201 78 93 110 
172 628 235 55 60 67 
320 603 194 105 120 138 
161 460 215 76 92 108 
207 718 93 95 109 160 
189 543 257 105 121 140 
310 563 296 170 160 156 
223 489 323 94 122 169 
341 749 291 172 142 112 
319 250 279 107 122 141 
247 740 285 193 146 118 
178 279 354 83 88 102 
312 367 182 72 100 126 
216 440 145 109 96 84 
319 374 290 103 115 144 
231 416 325 100 118 148 
225 174 353 117 126 137 
334 552 247 142 149 165 
204 449 161 33 61 77 
253 687 118 58 89 116 
308 691 193 127 144 164 
276 949 270 128 97 72 
223 823 277 153 116 101 
265 457 154 139 138 143 
263 390 313 73 98 135 
218 628 316 170 122 109 
218 244 225 89 82 84 
151 297 319 163 138 111 
315 419 297 71 100 141 
282 873 247 101 77 59 
183 550 286 69 95 135 
301 767 189 115 106 102 
228 296 348 160 160 168 
368 668 371 142 158 184 
216 497 117 189 124 112 
348 168 217 60 43 68 
336 120 256 119 97 82 
244 945 303 105 84 70 
321 788 292 210 140 112 
257 909 200 85 65 49 
204 156 352 122 108 97 
259 536 336 144 155 174 
220 242 224 90 116 139 
170 229 345 87 96 107 
281 841 246 180 133 101 
252 145 338 108 99 91 
221 243 224 89 115 139 
182 597 248 143 141 146 
181 614 235 139 121 119 
239 934 225 125 92 67 
189 725 145 117 128 143 
235 284 305 131 131 137 
282 360 324 114 127 151 
207 932 237 70 51 37 
176 598 218 133 137 148 
185 699 241 169 59 33 
276 816 252 157 113 87 
260 565 335 128 140 163 
304 590 251 71 80 97 
174 629 188 71 87 103 
228 702 297 156 138 123 
152 338 364 126 116 112 
215 593 294 167 170 181 
297 561 316 117 126 145 
171 337 276 152 73 0 
160 495 178 56 64 75 
210 478 114 148 108 84 
236 499 150 82 91 104 
281 936 247 112 85 66 
225 884 229 136 97 62 
250 696 298 102 100 103 
187 730 139 122 142 164 
185 690 147 34 53 99 
328 364 261 43 76 124 
149 442 271 102 122 157 
205 784 202 119 124 133 
194 461 130 106 92 79 
346 682 390 177 178 225 
185 605 132 95 100 112 
344 125 208 100 50 22 
220 323 351 115 56 75 
233 268 330 158 112 61 
173 624 214 74 121 157 
327 136 270 110 105 111 
235 852 227 147 112 80 
225 945 234 194 141 90 
235 897 319 166 129 101 
326 678 207 155 164 179 
219 982 245 167 135 106 
247 157 309 131 54 12 
280 513 148 121 128 140 
192 926 254 76 58 49 
218 252 224 129 130 135 
167 346 363 168 165 169 
273 622 339 89 82 78 
329 348 241 56 116 156 
231 589 309 111 129 158 
239 829 179 200 175 152 
237 195 223 122 118 117 
196 863 277 162 127 100 
230 685 91 78 117 159 
200 305 240 139 131 127 
239 193 222 127 123 121 
347 618 313 87 102 118 
214 385 200 81 103 124 
240 727 100 98 123 159 
279 304 310 113 114 136 
163 207 294 86 69 76 
201 144 348 116 58 4 
342 727 257 173 132 104 
314 610 282 52 67 80 
215 641 109 144 95 67 
207 422 339 166 151 143 
181 370 260 48 71 91 
192 750 226 166 128 85 
298 727 157 112 139 174 
285 780 280 184 136 109 
306 208 272 139 85 54 
284 657 337 123 149 176 
336 743 258 161 140 122 
267 762 125 149 161 174 
168 446 297 174 173 183 
251 391 175 126 127 132 
196 512 146 52 61 71 
183 515 302 171 180 195 
341 711 229 161 64 46 
192 510 137 118 95 79 
209 149 263 109 108 111 
321 360 216 67 98 132 
225 824 279 154 114 100 
245 544 139 112 111 114 
317 513 311 110 125 148 
175 553 194 158 162 174 
290 494 330 95 119 166 
247 668 117 102 121 151 
328 607 241 87 46 52 
227 844 242 111 84 53 
321 751 332 205 184 169 
235 204 223 93 111 129 
258 51 216 131 104 74 
241 617 330 97 87 80 
170 738 184 195 133 95 
156 658 195 123 137 154 
152 388 276 114 116 122 
209 820 126 212 157 153 
330 611 218 113 120 132 
306 228 194 153 149 151 
237 200 223 108 114 122 
162 644 191 55 59 65 
179 424 337 154 132 107 
324 360 279 98 119 148 
260 266 305 102 100 102 
162 353 293 110 101 94 
286 909 227 107 83 64 
174 573 142 136 139 149 
165 253 298 132 36 65 
242 600 306 86 38 61 
317 303 281 150 145 148 
210 752 247 159 126 99 
190 512 257 103 124 149 
263 948 239 151 116 84 
210 558 304 70 93 152 
343 551 237 109 148 184 
322 364 285 91 112 144 
192 924 252 88 73 62 
328 333 234 163 159 161 
194 474 174 62 76 89 
266 142 237 115 59 46 
309 599 175 141 140 144 
159 487 189 97 105 117 
312 577 234 165 165 174 
328 360 269 108 126 155 
198 493 143 104 86 69 
234 829 255 130 84 50 
332 111 212 133 88 53 
245 984 268 90 70 50 
242 194 336 43 38 51 
353 119 226 139 102 78 
238 204 221 89 107 125 
200 704 278 131 110 92 
331 628 214 147 147 153 
331 649 213 98 136 169 
161 521 174 53 61 116 
173 218 351 111 57 71 
211 700 294 117 104 95 
306 550 310 120 137 159 
225 951 237 130 96 66 
305 560 306 115 131 152 
343 620 297 130 131 137 
317 489 263 79 102 124 
244 165 312 67 21 19 
261 941 234 165 127 87 
327 611 296 89 94 102 
247 838 197 211 160 126 
356 634 254 123 124 130 
158 210 306 74 100 123 
278 536 334 178 175 180 
261 365 308 99 108 122 
335 541 229 89 110 129 
180 489 313 155 171 198 
327 317 233 176 141 96 
207 190 358 114 79 73 
263 974 243 183 150 115 
234 263 215 115 126 140 
219 460 133 87 76 67 
281 366 180 57 89 117 
234 265 324 145 95 56 
228 221 223 140 136 138 
261 34 204 149 118 90 
279 440 335 92 124 162 
222 446 149 93 107 125 
257 813 137 157 145 144 
177 250 280 148 129 110 
314 738 336 194 147 80 
178 609 132 100 111 125 
155 212 320 78 68 73 
244 678 106 132 144 162 
179 173 353 147 65 8 
182 538 288 66 88 123 
160 508 171 38 80 125 
265 854 284 166 124 94 
185 691 145 63 53 100 
166 521 160 114 130 148 
202 896 226 117 87 63 
231 223 222 148 143 144 
187 671 252 87 77 73 
232 209 223 98 114 131 
313 674 379 138 166 199 
328 297 226 172 130 75 
225 387 333 140 131 135 
290 474 157 71 102 137 
256 983 250 142 109 71 
250 962 288 106 79 58 
187 538 237 146 145 152 
234 208 223 98 114 132 
150 236 323 102 111 122 
175 213 356 131 74 83 
305 290 192 97 113 131 
235 208 223 98 112 129 
235 209 222 105 115 129 
329 623 194 147 150 160 
264 843 194 238 173 129 
235 210 222 103 111 121 
283 911 225 105 82 66 
224 828 258 126 91 51 
181 564 218 66 100 132 
184 528 282 70 93 122 
152 282 353 101 117 136 
183 270 265 147 127 107 
354 710 356 191 42 57 
181 524 299 93 120 175 
247 829 260 105 80 50 
284 484 153 110 124 144 
340 711 228 135 10 23 
279 705 128 91 121 148 
332 625 202 166 172 186 
273 168 209 66 48 39 
242 936 227 116 84 54 
310 119 282 115 102 95 
191 368 241 95 89 83 
181 725 157 134 144 159 
244 503 329 118 128 151 
147 300 328 163 139 114 
300 270 284 78 116 147 
171 293 279 143 125 105 
326 498 269 53 73 93 
293 887 231 122 102 84 
170 274 354 110 111 122 
243 148 298 120 47 6 
237 761 102 73 140 194 
174 690 168 127 134 145 
286 663 131 85 105 124 
269 626 355 120 98 74 
172 225 347 93 104 118 
291 462 324 66 98 133 
280 513 333 142 146 158 
236 211 222 95 101 109 
297 611 313 46 68 92 
184 549 238 145 143 147 
291 813 191 114 127 143 
347 175 242 101 96 105 
297 743 165 140 125 146 
211 835 272 120 96 72 
303 603 284 55 69 82 
245 744 108 160 155 160 
318 476 310 143 149 160 
334 705 366 117 107 115 
229 908 207 88 67 47 
326 537 287 176 169 170 
239 215 219 114 111 110 
236 212 221 108 109 112 
300 103 281 116 103 91 
171 716 220 135 110 81 
318 471 215 108 130 155 
304 364 176 38 83 119 
278 308 198 145 121 100 
212 753 96 92 116 199 
322 400 219 134 144 159 
305 678 157 168 169 177 
314 722 341 148 140 136 
294 449 320 79 110 137 
331 625 216 97 121 145 
292 904 274 101 79 64 
188 742 134 145 157 175 
234 243 320 116 33 37 
230 313 341 77 121 159 
237 601 109 55 92 127 
267 874 287 158 115 86 
281 387 325 77 111 158 
223 610 294 79 78 80 
257 587 129 75 110 139 
305 679 156 172 171 177 
233 217 222 133 135 143 
338 610 333 35 73 100 
314 496 315 172 165 166 
206 945 249 110 88 72 
233 218 222 136 137 143 
273 823 251 133 97 67 
172 331 273 164 140 116 
340 258 261 84 122 155 
173 562 179 53 68 138 
255 137 317 85 75 64 
282 814 174 153 129 106 
201 373 216 67 96 129 
157 485 239 109 124 182 
293 754 162 166 26 47 
235 219 221 126 130 137 
234 218 222 128 130 136 
352 626 375 146 152 163 
168 486 181 70 74 81 
184 716 230 123 115 113 
250 270 211 85 118 147 
269 239 313 64 78 92 
261 627 311 50 50 51 
237 419 170 89 100 113 
280 470 154 134 138 148 
328 349 231 67 117 152 
224 287 216 118 126 137 
270 746 295 172 125 97 
193 649 282 148 105 58 
305 119 284 120 119 122 
318 889 236 87 69 56 
235 220 221 137 135 137 
235 903 212 71 55 46 
317 887 235 93 74 63 
257 224 210 110 99 89 
311 427 179 99 130 160 
312 600 266 58 70 86 
304 120 197 140 91 65 
271 771 129 129 74 55 
259 831 170 168 163 165 
239 216 219 116 114 116 
314 625 344 56 67 82 
325 106 212 132 118 107 
307 784 203 162 156 156 
303 819 224 188 141 108 
162 517 195 138 151 170 
274 178 204 43 55 71 
204 162 352 107 88 64 
203 499 266 92 102 137 
208 923 314 98 77 66 
309 794 211 104 113 125 
270 489 335 173 175 185 
234 389 316 81 71 68 
262 210 303 58 22 25 
187 486 290 61 78 122 
321 675 185 88 146 188 
268 882 210 108 74 60 
277 581 324 101 108 133 
157 653 192 97 100 107 
256 813 137 155 144 141 
144 402 292 79 101 138 
298 377 173 71 99 123 
355 716 338 165 53 69 
313 139 285 108 89 86 
265 34 204 136 109 85 
203 860 252 134 103 75 
281 328 296 171 129 68 
343 726 260 169 137 112 
193 557 268 64 82 101 
205 682 110 76 90 115 
257 52 232 100 79 56 
310 468 190 111 133 160 
264 792 262 184 133 111 
258 604 313 138 131 130 
262 409 170 88 104 122 
299 184 302 41 69 100 
330 696 372 100 50 76 
309 425 306 106 123 144 
194 795 122 95 115 140 
289 231 304 144 143 149 
289 922 257 82 68 56 
182 721 227 110 92 95 
346 730 341 162 141 123 
235 244 326 131 39 51 
340 740 284 169 149 133 
198 370 227 59 87 122 
214 858 240 137 106 72 
324 330 277 88 112 144 
196 784 169 92 84 88 
293 724 142 190 187 193 
348 147 209 87 41 63 
324 304 217 150 70 98 
325 511 300 129 141 157 
268 136 239 125 83 44 
262 41 208 144 112 80 
345 199 230 123 78 95 
288 566 324 97 105 130 
318 437 245 156 163 177 
231 321 339 75 120 155 
313 492 238 112 123 137 
263 466 327 123 134 150 
320 425 246 116 129 154 
179 729 223 141 121 113 
153 247 312 121 130 143 
155 453 228 105 110 119 
178 497 307 181 187 202 
205 761 232 121 112 109 
318 472 222 159 161 169 
283 293 293 123 138 156 
323 282 279 76 118 151 
191 928 291 94 76 64 
284 752 137 185 149 148 
211 661 105 77 67 57 
191 689 254 120 88 58 
209 470 152 56 61 69 
178 671 228 119 104 92 
160 276 355 81 118 148 
242 256 214 90 119 145 
164 197 294 72 96 120 
324 174 196 117 44 31 
290 559 325 173 165 165 
310 501 319 117 122 148 
178 576 181 70 48 106 
243 831 183 218 162 130 
287 149 300 98 79 74 
256 739 290 172 128 101 
327 518 295 106 129 154 
182 373 353 104 102 108 
256 785 263 193 139 118 
254 863 302 155 110 84 
182 514 154 107 117 138 
214 825 153 141 115 89 
207 395 192 99 115 135 
187 750 145 118 112 119 
150 234 334 102 115 130 
232 266 318 91 84 93 
260 464 153 51 75 100 
245 194 217 117 119 125 
351 623 338 103 118 135 
283 411 165 144 140 140 
168 689 214 94 99 120 
246 785 114 175 169 174 
336 756 324 201 187 180 
261 804 136 72 70 86 
293 639 380 82 86 93 
144 311 341 156 134 112 
337 154 253 132 56 73 
204 650 293 86 99 112 
315 572 223 162 163 172 
219 973 280 133 99 74 
186 679 248 150 95 27 
311 750 198 127 103 89 
230 824 284 144 110 92 
333 734 229 160 122 85 
245 196 217 116 120 127 
312 99 277 119 106 93 
314 397 192 78 108 139 
153 238 314 135 135 141 
220 640 314 71 84 103 
350 619 271 80 83 89 
193 528 122 122 91 64 
160 406 256 105 107 111 
261 107 285 108 67 47 
331 149 196 130 52 24 
209 814 121 205 92 92 
261 201 209 153 135 115 
314 475 313 129 135 147 
221 980 241 188 163 140 
320 432 221 154 159 171 
317 676 381 132 168 204 
347 620 367 92 107 124 
242 983 244 135 104 75 
231 280 213 146 143 145 
327 352 272 65 91 138 
329 618 334 75 86 99 
238 151 346 125 111 102 
227 544 316 117 138 173 
231 325 338 80 125 161 
223 786 231 178 124 105 
300 656 382 131 139 186 
193 691 258 77 90 106 
243 201 218 106 115 125 
323 265 279 68 100 126 
188 272 363 86 127 161 
176 291 272 139 116 91 
332 747 242 165 147 134 
201 925 312 96 80 67 
328 332 271 97 111 139 
240 201 220 112 123 136 
322 790 286 215 149 119 
300 420 311 76 104 142 
168 220 342 124 124 128 
271 326 322 136 61 95 
182 633 131 42 60 110 
265 561 336 156 158 170 
161 498 227 177 175 181 
281 305 322 148 41 77 
207 474 161 47 60 73 
346 618 312 106 117 131 
250 647 351 109 137 174 
226 189 353 28 58 91 
181 667 164 77 100 132 
259 638 356 136 133 136 
293 455 322 134 143 157 
307 290 193 107 120 134 
259 733 300 134 112 92 
257 799 254 165 116 98 
262 981 261 146 111 71 
215 145 260 102 95 98 
195 482 166 76 84 93 
237 924 219 91 68 48 
143 381 306 130 136 151 
179 599 237 168 160 160 
309 158 193 95 49 60 
239 574 319 114 132 154 
269 465 153 149 145 147 
220 838 296 153 116 100 
314 392 185 53 94 138 
177 624 183 119 124 134 
184 686 149 37 51 105 
237 867 226 132 103 71 
323 411 253 115 132 156 
306 668 340 48 67 129 
299 247 282 132 129 130 
219 955 245 80 56 43 
180 570 199 114 134 159 
304 480 179 113 127 147 
249 753 280 196 146 117 
264 655 342 148 172 199 
203 415 196 77 94 120 
192 390 351 211 173 131 
233 820 190 203 150 126 
193 922 298 95 74 62 
181 510 293 77 99 146 
261 840 267 146 107 75 
330 297 232 175 131 86 
302 611 155 78 113 142 
182 620 172 96 114 150 
321 132 280 143 119 96 
209 419 340 174 155 151 
245 207 217 142 74 0 
244 206 218 134 77 14 
240 180 341 42 77 116 
303 469 321 106 126 152 
173 456 202 106 113 122 
231 700 297 159 146 138 
202 610 295 98 89 83 
198 749 231 156 142 134 
252 652 348 132 156 190 
294 897 292 123 97 81 
231 902 203 102 83 66 
309 169 288 116 68 90 
212 822 130 155 144 150 
193 768 201 171 147 127 
204 143 266 138 71 43 
290 655 375 96 125 183 
233 902 320 170 130 103 
184 553 229 136 138 144 
198 662 278 137 81 75 
251 193 214 109 92 94 
152 240 316 86 105 124 
186 410 230 78 96 113 
312 244 279 118 124 135 
354 717 324 51 65 102 
335 593 206 115 132 151 
182 621 249 57 76 94 
332 778 284 197 137 102 
310 568 235 91 131 164 
247 982 278 108 84 62 
316 349 192 73 102 127 
263 194 301 63 28 42 
216 502 315 106 127 164 
192 557 293 60 99 143 
204 454 159 86 107 128 
172 582 142 96 116 139 
250 197 215 119 113 110 
251 196 214 130 124 122 
222 364 338 195 161 125 
323 391 250 131 144 162 
250 198 215 121 109 99 
207 943 246 98 76 62 
254 984 253 192 158 125 
297 506 328 123 139 162 
251 131 287 112 86 59 
285 608 133 149 148 154 
253 193 213 114 81 78 
328 367 266 84 110 145 
224 909 214 74 57 45 
234 214 314 38 47 73 
288 531 148 129 133 142 
265 653 326 114 145 175 
265 519 336 108 124 160 
264 652 309 115 115 124 
221 673 284 140 64 30 
229 623 102 90 107 129 
223 349 205 69 83 98 
184 474 296 141 151 167 
255 193 212 124 75 70 
155 336 302 102 56 10 
254 195 213 140 123 105 
249 263 212 81 114 141 
343 729 295 127 120 117 
145 295 334 159 136 113 
283 163 206 109 54 40 
252 196 214 136 127 119 
199 764 219 171 155 144 
272 623 328 52 50 50 
188 300 254 163 141 119 
180 581 241 79 111 141 
218 332 350 120 142 168 
218 948 239 133 98 64 
304 581 163 114 127 144 
191 916 254 83 69 60 
220 855 240 132 99 67 
236 584 314 122 136 155 
185 647 245 180 130 50 
197 779 188 169 145 122 
177 593 166 110 127 146 
308 442 179 88 118 153 
331 754 247 159 133 109 
249 192 216 112 89 86 
305 555 310 169 160 160 
282 565 139 106 120 137 
208 594 293 104 121 142 
319 470 272 123 131 146 
280 540 142 122 129 141 
262 855 290 165 121 94 
183 288 260 128 35 63 
188 763 194 40 32 44 
339 732 269 200 184 175 
242 755 276 199 151 122 
189 452 329 74 108 175 
188 890 271 138 109 79 
202 379 213 59 90 125 
298 691 142 172 169 174 
211 972 257 98 70 57 
370 670 292 141 155 181 
214 892 320 162 125 101 
185 512 250 93 115 149 
311 534 311 47 90 142 
289 390 170 72 100 126 
279 605 130 115 128 145 
219 595 106 126 95 61 
348 713 279 107 114 123 
215 314 223 129 82 50 
233 399 322 140 133 134 
218 525 122 97 84 71 
232 245 307 110 26 57 
147 387 329 69 94 143 
313 420 189 104 125 147 
200 507 306 64 84 125 
297 479 164 139 146 158 
196 132 280 92 45 40 
250 207 215 140 66 6 
181 458 290 138 142 160 
150 451 248 142 141 148 
236 508 324 182 182 190 
289 160 302 127 65 56 
306 523 177 161 159 163 
203 322 358 95 127 159 
228 655 295 103 124 147 
149 292 325 157 131 102 
210 788 204 119 133 150 
162 703 201 94 100 125 
273 119 235 63 83 104 
201 863 253 133 101 73 
194 445 187 71 82 93 
352 708 361 137 64 63 
244 752 279 197 148 119 
335 305 267 112 128 148 
237 948 235 122 82 55 
317 485 216 163 165 174 
321 462 282 109 125 149 
238 506 326 176 175 181 
252 204 214 139 69 0 
236 231 299 60 53 72 
253 206 213 140 66 0 
258 643 357 106 121 172 
164 518 163 94 112 132 
236 183 345 41 77 119 
286 779 159 71 64 63 
166 515 216 128 35 55 
306 193 272 119 30 59 
289 761 156 144 107 97 
237 595 110 28 82 119 
171 382 265 100 106 113 
259 949 292 103 79 62 
253 305 299 104 101 104 
207 790 109 173 155 183 
329 612 296 88 94 103 
209 949 251 110 85 66 
189 502 155 71 82 97 
275 406 331 73 111 162 
168 483 259 200 194 195 
354 705 317 210 173 129 
198 493 118 136 103 74 
262 841 274 152 110 81 
216 307 354 88 133 170 
167 270 354 122 113 115 
225 674 88 115 134 162 
322 790 232 159 121 99 
321 744 213 143 122 104 
229 354 305 133 131 135 
185 651 130 84 120 152 
333 620 363 109 122 140 
263 293 312 89 101 116 
285 255 306 127 140 157 
318 575 286 131 139 154 
238 398 173 79 99 121 
177 178 352 122 125 133 
245 617 116 43 75 125 
226 935 315 79 64 56 
147 252 337 79 72 83 
288 452 157 92 113 138 
222 932 226 108 83 56 
201 679 273 116 41 42 
254 523 142 89 108 126 
215 783 220 180 130 107 
301 680 145 165 162 166 
252 830 277 145 105 75 
286 856 235 169 128 97 
179 518 295 90 112 142 
345 710 238 150 27 59 
235 906 208 74 55 42 
197 526 119 133 99 68 
284 929 245 99 74 59 
267 560 335 159 161 171 
295 281 191 95 108 124 
238 216 333 115 64 62 
260 25 246 142 120 108 
193 906 306 188 139 120 
323 499 257 63 89 111 
339 543 256 160 155 157 
313 338 290 117 122 133 
236 707 298 171 139 105 
153 352 302 103 90 79 
226 980 277 146 113 81 
196 196 361 136 82 73 
284 199 197 131 58 71 
270 937 235 110 83 56 
203 435 182 45 47 50 
243 215 218 119 122 130 
312 638 386 95 79 62 
319 328 282 78 103 138 
252 927 221 121 91 55 
289 904 301 103 82 66 
189 277 253 98 75 84 
318 382 291 95 118 157 
292 647 137 86 128 161 
298 690 141 164 162 169 
277 313 304 149 83 78 
226 183 353 121 91 81 
185 614 247 89 32 57 
185 650 131 74 118 154 
291 756 308 173 130 102 
169 443 220 79 91 103 
220 826 266 128 102 76 
343 732 292 176 162 154 
187 916 267 90 74 63 
241 940 229 139 100 64 
313 339 190 84 104 124 
184 671 154 68 92 128 
301 131 203 123 49 36 
359 626 280 117 124 136 
292 563 321 110 122 144 
168 725 167 212 146 152 
190 546 258 94 108 138 
198 407 198 75 99 128 
176 711 160 125 143 164 
204 886 240 91 66 42 
310 486 188 111 126 144 
322 795 247 201 143 109 
155 685 187 136 149 167 
231 436 325 53 85 136 
311 755 201 123 113 108 
290 508 330 115 127 161 
321 790 230 178 156 139 
148 424 260 100 114 135 
276 516 336 116 136 164 
230 366 312 125 127 136 
257 754 283 198 149 119 
304 465 320 80 105 144 
252 261 295 97 93 93 
308 741 330 103 90 83 
144 354 351 123 126 155 
328 610 278 125 128 135 
142 348 324 136 121 107 
346 99 243 128 109 88 
302 373 300 113 125 140 
292 55 240 103 87 72 
144 310 339 160 137 113 
366 683 371 150 160 188 
247 221 215 113 114 119 
228 283 214 131 134 142 
163 512 212 150 153 164 
214 975 246 154 118 93 
196 512 142 68 69 77 
259 480 328 104 115 149 
309 203 270 157 136 112 
201 784 190 165 128 109 
227 335 200 70 79 96 
229 732 284 144 123 106 
145 353 354 126 138 164 
258 53 218 126 99 70 
142 351 326 140 122 104 
204 229 363 132 85 111 
286 609 311 66 88 109 
207 357 220 96 102 110 
220 463 130 100 93 89 
240 780 258 175 124 105 
247 671 118 109 124 145 
323 697 362 141 94 104 
150 413 310 67 84 151 
272 737 127 99 123 166 
254 913 204 69 53 42 
183 684 239 174 75 36 
288 214 197 152 146 146 
193 521 147 39 53 65 
156 443 235 107 111 119 
245 789 114 184 27 46 
247 633 121 88 110 136 
301 563 311 97 101 143 
240 223 219 105 114 126 
215 179 353 63 65 86 
319 427 214 104 125 149 
366 657 358 108 134 161 
318 504 238 88 107 127 
225 745 274 198 148 123 
249 394 175 57 79 106 
277 290 201 141 137 139 
237 453 157 90 100 111 
284 359 181 64 94 121 
258 65 226 120 94 68 
194 426 337 121 107 95 
233 313 337 93 123 151 
284 829 194 209 158 124 
261 381 180 37 74 104 
261 102 279 102 68 35 
351 636 398 63 65 90 
192 699 116 98 118 156 
168 713 217 135 90 61 
349 620 321 22 61 105 
162 207 338 110 85 90 
204 659 108 75 63 50 
228 823 282 151 113 98 
197 700 270 123 114 107 
258 839 186 232 163 124 
331 606 317 57 91 117 
321 488 303 97 111 139 
319 573 220 158 160 170 
265 540 337 140 152 171 
348 626 248 129 130 136 
181 235 276 87 102 118 
344 702 372 114 102 118 
245 220 216 119 124 134 
290 94 268 82 70 58 
192 348 230 124 109 99 
297 657 142 85 129 165 
256 90 254 139 115 95 
244 223 217 111 105 102 
260 376 182 86 100 115 
335 247 228 137 142 153 
180 635 251 156 102 42 
327 607 274 99 89 86 
314 458 235 156 160 171 
227 442 158 42 66 94 
170 729 213 136 122 110 
331 614 281 97 100 108 
190 526 129 139 104 80 
319 442 299 116 126 140 
285 661 130 92 108 124 
193 254 362 151 76 97 
332 754 251 164 140 116 
225 356 199 59 80 99 
269 309 202 98 113 128 
204 361 215 76 100 122 
248 210 215 139 63 19 
359 686 250 172 31 40 
303 745 190 109 82 82 
301 616 154 73 114 146 
321 680 368 97 87 147 
258 759 282 200 149 119 
186 598 256 157 151 153 
328 384 266 84 107 145 
310 92 261 97 88 82 
251 209 214 139 60 10 
198 725 255 184 160 138 
276 367 308 85 110 146 
314 552 298 126 140 158 
165 432 308 122 126 174 
251 800 251 168 117 99 
222 976 234 172 141 116 
160 471 209 93 103 115 
180 290 263 120 31 52 
286 39 217 101 88 79 
319 567 260 120 141 165 
156 433 241 71 87 103 
154 430 300 136 141 169 
284 775 152 134 69 99 
174 648 176 123 127 136 
334 247 271 127 115 112 
285 628 365 114 93 72 
270 100 279 72 50 28 
299 896 278 101 78 62 
152 378 284 120 125 133 
313 621 314 35 55 87 
284 380 303 53 83 119 
332 611 220 141 143 152 
316 536 214 106 114 125 
232 260 344 137 32 73 
282 830 192 215 163 130 
296 625 339 49 57 68 
244 746 106 149 149 156 
199 765 110 110 126 146 
331 181 258 47 83 111 
322 769 228 176 165 161 
293 793 182 189 151 108 
245 828 260 102 80 57 
281 353 298 145 146 153 
223 603 107 122 89 65 
236 769 263 193 142 119 
254 209 213 140 65 0 
244 146 292 123 50 10 
198 480 285 73 84 126 
305 763 320 191 143 112 
226 833 289 137 86 83 
262 729 303 89 97 108 
292 572 317 168 157 153 
261 810 139 161 133 114 
276 224 315 89 86 99 
153 461 260 110 127 166 
175 630 216 80 116 146 
241 214 293 72 51 70 
252 212 214 140 62 8 
201 437 331 103 76 90 
311 102 205 114 99 87 
317 473 310 169 162 162 
313 726 199 146 47 32 
297 787 187 176 153 133 
254 212 213 143 71 0 
224 826 261 128 94 55 
254 213 213 142 69 3 
335 608 341 116 130 147 
187 479 137 130 101 81 
279 926 292 92 71 55 
207 488 276 49 57 70 
218 845 245 120 89 51 
199 232 363 88 123 149 
277 709 128 118 139 166 
206 525 310 139 153 179 
347 725 306 159 125 94 
260 327 305 91 99 110 
287 750 144 162 150 154 
309 442 183 102 123 148 
326 509 248 99 109 122 
182 586 195 85 95 120 
193 759 217 136 111 86 
272 892 195 102 83 66 
153 455 231 106 113 125 
249 217 215 133 118 105 
318 426 211 103 121 155 
248 219 215 121 113 108 
261 98 242 161 83 5 
313 464 246 137 147 164 
284 126 293 93 100 109 
335 746 263 171 139 105 
289 745 146 167 177 192 
289 700 315 125 85 62 
213 504 119 164 118 103 
276 866 255 148 111 81 
339 231 228 152 149 151 
323 628 189 139 142 150 
281 89 209 100 83 65 
293 379 172 32 72 112 
256 253 299 54 61 71 
248 220 215 111 105 102 
248 221 215 110 105 104 
207 536 308 102 124 178 
227 184 353 99 53 38 
367 682 273 172 185 202 
333 645 403 117 143 189 
262 82 227 112 91 72 
310 645 391 74 114 190 
182 624 165 103 116 141 
289 434 160 62 96 127 
183 381 257 75 86 96 
233 365 181 54 78 99 
330 766 248 137 125 118 
248 580 132 61 101 131 
348 147 239 61 42 59 
310 223 274 115 94 79 
253 877 305 175 129 103 
279 526 334 104 116 147 
153 295 356 132 133 139 
362 640 346 127 138 154 
200 162 355 123 103 76 
263 785 127 168 50 35 
228 837 294 109 79 63 
333 704 366 81 45 109 
295 576 310 158 153 154 
316 393 198 162 161 166 
276 571 329 113 127 146 
337 588 212 99 134 166 
311 582 291 153 149 152 
284 637 375 91 69 55 
203 474 319 88 110 153 
271 308 202 104 113 125 
269 441 326 126 137 157 
320 253 206 150 150 158 
359 696 255 101 60 74 
281 313 321 143 39 68 
214 882 227 143 72 45 
308 400 304 155 150 150 
311 531 204 122 130 141 
254 218 212 126 67 15 
326 119 202 124 84 53 
374 648 297 177 173 177 
267 362 322 154 113 54 
306 599 169 132 137 149 
256 636 124 139 141 148 
296 155 298 136 77 73 
180 283 265 137 117 91 
275 941 246 135 100 72 
321 107 208 129 117 106 
256 567 132 133 131 133 
286 531 331 70 96 138 
179 623 242 50 58 67 
245 712 299 171 145 119 
194 680 260 115 100 87 
340 710 365 171 37 56 
299 154 198 49 47 53 
227 431 328 104 132 159 
220 834 288 88 41 32 
178 628 179 65 87 108 
318 86 214 92 76 59 
164 391 341 77 101 165 
197 592 281 55 80 126 
318 556 209 120 127 137 
286 534 331 124 140 165 
329 94 263 111 97 88 
266 349 318 150 131 114 
264 978 267 156 128 102 
315 472 262 86 108 144 
284 545 331 94 120 161 
187 760 144 117 22 50 
216 724 88 111 139 195 
208 288 231 156 137 119 
152 446 277 148 153 173 
321 233 203 86 118 145 
279 419 319 73 103 150 
307 521 179 91 108 126 
337 201 257 140 112 114 
225 392 333 163 134 118 
152 223 325 126 125 128 
239 832 218 174 129 98 
250 131 308 121 72 9 
231 194 230 120 116 115 
300 708 152 153 166 186 
231 195 230 124 120 120 
233 733 285 190 155 128 
355 658 401 175 184 203 
296 43 230 99 89 81 
317 757 328 154 158 169 
361 696 265 177 34 46 
229 196 230 123 119 119 
301 746 323 92 99 110 
305 674 156 162 164 173 
219 943 234 184 142 99 
320 316 209 136 38 73 
203 305 359 166 166 175 
300 461 164 139 146 160 
357 636 403 101 120 142 
354 647 406 182 190 208 
154 213 334 131 129 131 
186 449 305 33 61 121 
284 794 164 189 167 149 
197 493 283 86 104 132 
298 476 325 110 132 159 
209 259 230 129 132 140 
248 172 336 141 88 71 
250 434 317 61 92 140 
205 816 154 152 139 131 
258 811 136 104 93 86 
281 920 232 70 52 39 
287 656 318 110 149 182 
230 198 229 128 128 131 
142 387 300 93 112 134 
257 116 293 74 67 63 
263 738 119 89 114 152 
233 385 320 95 85 75 
336 98 236 130 116 105 
206 637 108 129 91 59 
256 15 200 162 144 132 
229 969 294 154 121 89 
188 502 261 132 140 156 
318 676 365 172 68 57 
233 385 314 98 85 81 
321 322 282 18 58 115 
247 829 282 141 105 76 
209 874 235 145 104 76 
331 314 272 133 143 160 
218 777 233 177 127 105 
248 625 126 88 107 132 
209 846 295 78 55 36 
178 364 269 99 79 78 
183 509 293 74 92 144 
217 383 339 189 88 28 
340 251 262 83 120 151 
225 194 237 118 116 118 
257 835 267 136 96 65 
245 561 136 81 102 122 
282 348 185 81 100 120 
187 740 138 124 143 164 
225 577 110 112 99 89 
337 608 334 46 75 97 
216 976 241 152 123 97 
244 708 107 107 105 137 
237 197 310 75 39 62 
178 705 222 145 46 45 
308 541 174 138 143 154 
332 629 226 94 113 134 
226 194 236 121 119 121 
209 962 274 113 93 76 
225 196 235 118 116 117 
301 195 283 93 43 69 
282 581 136 131 135 143 
225 952 301 106 84 65 
205 377 350 209 173 134 
192 896 255 73 60 49 
315 563 242 87 135 171 
259 563 336 113 127 150 
206 423 338 123 107 91 
342 649 231 143 147 157 
199 571 296 86 122 168 
360 699 333 103 69 84 
227 196 232 127 125 126 
276 838 195 217 160 126 
238 556 320 75 94 140 
189 720 145 110 128 148 
262 359 310 137 88 20 
313 269 282 101 123 146 
371 665 308 134 154 181 
301 669 331 165 67 79 
329 784 261 189 134 100 
226 199 232 128 127 128 
232 369 180 63 89 111 
320 891 229 107 91 78 
224 196 236 119 117 118 
349 712 248 158 133 111 
194 402 345 189 76 11 
226 343 342 159 156 160 
350 150 234 108 45 50 
266 857 284 167 125 94 
318 514 309 175 172 176 
163 301 294 114 41 57 
201 812 122 174 18 54 
364 648 350 126 140 159 
239 825 266 125 86 58 
266 42 239 90 74 58 
220 447 145 97 98 109 
326 153 264 110 94 102 
316 582 197 76 110 138 
275 756 130 158 169 185 
212 270 361 99 78 96 
300 766 187 117 109 105 
142 378 311 62 92 135 
249 709 300 148 125 103 
294 687 137 166 162 166 
319 450 264 54 88 139 
233 205 302 36 36 52 
206 513 117 129 99 74 
290 774 166 116 130 145 
313 675 171 123 140 161 
227 353 194 73 92 110 
276 511 336 98 115 159 
268 409 323 77 101 149 
284 297 196 92 103 116 
177 598 209 115 125 138 
277 813 253 164 119 92 
286 783 163 175 143 109 
197 735 108 114 132 155 
205 179 267 134 25 61 
226 203 229 124 127 133 
239 273 212 90 60 54 
215 161 351 123 78 28 
141 362 321 84 103 122 
284 851 213 223 172 136 
325 375 245 73 101 142 
226 203 231 122 120 121 
165 650 214 141 151 165 
304 524 320 179 171 170 
180 574 200 111 131 156 
315 388 189 73 111 145 
326 598 247 68 105 134 
246 404 172 83 100 118 
217 163 351 152 63 5 
359 633 388 7 66 105 
157 351 300 108 96 85 
319 573 284 94 112 144 
237 173 347 127 132 139 
220 437 149 115 104 95 
350 156 222 114 46 50 
348 171 235 126 68 73 
226 205 229 120 122 127 
280 408 316 57 91 144 
187 666 131 114 126 145 
216 442 143 109 94 80 
318 202 267 129 121 116 
205 869 297 137 110 91 
322 188 197 107 58 57 
306 169 293 116 57 73 
248 147 287 118 76 59 
192 898 256 73 59 48 
278 337 326 152 66 98 
271 46 242 94 78 63 
229 203 227 111 118 129 
227 628 328 176 127 114 
280 451 330 93 117 158 
329 227 211 78 113 146 
239 813 126 204 102 111 
242 584 122 45 63 80 
269 328 197 125 125 130 
220 960 290 100 76 50 
303 134 288 75 99 121 
211 613 305 92 86 83 
282 204 199 133 63 69 
194 913 248 95 80 66 
277 772 136 132 3 21 
175 448 209 71 90 107 
332 102 226 128 116 106 
196 512 140 98 80 69 
194 463 293 67 75 106 
285 905 225 138 111 86 
358 630 328 69 52 94 
239 825 141 190 162 143 
173 313 276 123 84 58 
228 203 229 126 129 137 
233 271 307 81 105 129 
259 545 337 167 170 180 
294 660 139 78 129 167 
155 390 270 106 112 122 
336 618 242 114 116 123 
248 177 321 75 33 47 
349 673 231 142 150 162 
222 951 301 128 99 76 
287 892 291 132 100 74 
251 837 187 224 168 134 
236 938 227 133 99 67 
229 206 226 92 108 125 
277 193 309 35 41 61 
143 382 298 90 106 124 
292 144 208 57 48 60 
245 186 320 53 31 67 
236 828 172 164 155 153 
305 651 156 81 124 161 
250 135 287 133 67 18 
196 583 115 116 90 58 
228 874 313 139 112 88 
316 627 367 96 83 71 
243 898 215 68 52 45 
278 697 309 158 143 138 
305 343 293 81 95 118 
245 334 193 97 107 119 
147 412 303 84 101 142 
145 408 305 81 98 146 
315 700 349 123 51 74 
164 207 294 83 50 61 
217 863 240 121 90 56 
224 201 233 124 122 123 
328 389 270 88 108 141 
171 547 187 112 108 109 
315 500 206 68 105 145 
179 260 273 153 132 111 
328 401 272 59 88 128 
255 898 204 95 68 51 
263 928 302 89 68 59 
177 336 360 141 144 153 
293 701 136 169 165 169 
332 119 265 132 97 90 
229 649 329 120 137 187 
352 698 371 186 186 191 
284 723 312 160 132 101 
188 643 129 92 124 154 
234 193 227 124 121 121 
235 192 226 118 116 116 
315 667 200 95 118 144 
233 769 261 191 141 118 
280 535 143 89 105 123 
235 194 225 136 131 131 
252 288 208 103 91 87 
251 455 322 116 134 158 
259 842 191 230 165 123 
248 302 204 132 131 134 
305 781 200 186 162 140 
326 308 279 150 145 147 
338 203 258 145 142 145 
245 939 229 148 103 65 
305 590 245 60 80 99 
279 636 371 110 85 61 
367 642 317 42 70 114 
260 154 231 99 59 52 
262 416 168 123 126 131 
190 777 129 73 88 118 
242 827 240 96 73 46 
176 663 171 117 121 132 
307 259 195 93 116 140 
202 484 150 86 74 64 
266 622 328 54 50 48 
287 645 377 172 178 192 
174 396 339 106 108 144 
323 737 213 149 134 124 
191 458 178 38 58 79 
185 656 133 63 114 152 
146 414 276 134 142 155 
233 196 226 121 118 118 
310 699 196 121 139 161 
231 573 312 176 172 176 
355 698 306 188 62 81 
214 786 111 157 177 203 
195 714 254 135 117 104 
179 225 358 114 77 77 
232 199 226 125 124 127 
369 660 365 76 111 141 
170 627 196 105 106 112 
