ply
format ascii 1.0
comment Created by CloudCompare v2.11.1 (Anoia)
comment Created 2/28/22 9:43 PM
obj_info Generated by CloudCompare!
element vertex 1993
property float x
property float y
property float z
property uchar red
property uchar green
property uchar blue
end_header
317 811 240 217 160 127 
321 725 215 158 129 97 
156 650 131 62 86 107 
298 697 295 116 112 115 
376 740 277 150 132 119 
179 550 169 67 71 96 
378 633 252 91 97 106 
236 231 206 133 135 142 
239 694 311 105 112 122 
316 418 293 71 101 136 
217 235 352 114 100 112 
196 356 233 117 104 93 
304 551 320 112 126 153 
287 203 280 53 34 51 
193 919 241 99 81 70 
155 521 231 145 144 150 
260 656 306 101 139 172 
249 733 139 139 158 184 
171 812 195 125 118 116 
234 705 308 144 123 103 
323 624 182 149 150 156 
289 783 276 198 145 114 
368 690 262 150 36 48 
172 341 354 130 112 98 
233 298 266 126 126 131 
330 272 213 83 117 147 
239 251 288 115 1 43 
219 495 299 131 142 160 
236 233 207 126 130 141 
189 804 142 142 158 176 
288 110 197 110 95 81 
180 534 161 96 109 127 
279 438 311 59 93 136 
155 489 231 129 134 145 
172 507 274 104 120 169 
159 403 305 103 115 132 
294 657 324 119 149 179 
216 321 359 117 95 94 
229 334 356 158 156 161 
272 724 150 166 178 198 
168 522 262 167 165 171 
261 114 237 95 81 67 
280 336 161 127 90 88 
263 297 170 108 115 124 
225 244 346 103 94 93 
136 394 221 93 109 158 
161 161 283 155 63 56 
328 307 259 152 146 147 
186 940 307 114 94 77 
272 466 322 99 122 150 
259 421 320 54 77 104 
135 586 164 141 105 80 
113 491 142 141 86 73 
289 559 166 131 131 135 
163 664 255 131 147 166 
320 564 178 86 110 134 
319 392 200 92 120 153 
200 960 290 102 65 43 
225 204 313 95 39 48 
260 488 328 130 145 178 
215 447 144 131 137 149 
323 435 214 83 113 143 
305 541 319 126 139 157 
354 611 308 67 96 124 
212 550 313 115 145 184 
198 365 363 62 103 168 
258 968 282 130 106 79 
237 239 206 143 98 87 
211 659 126 97 84 96 
321 717 300 160 145 134 
240 851 202 231 163 110 
305 441 180 112 130 152 
242 865 316 149 111 81 
217 470 297 85 94 118 
239 237 204 118 118 126 
238 238 204 120 118 129 
316 744 211 118 105 97 
194 371 208 100 115 132 
280 441 312 112 129 149 
267 931 307 98 78 58 
211 196 336 69 87 104 
233 224 210 130 62 94 
202 683 277 170 103 11 
230 770 273 195 145 121 
267 945 299 112 88 66 
239 372 185 72 99 122 
259 131 265 95 86 77 
305 357 299 119 123 138 
207 791 246 178 127 107 
234 257 235 130 132 141 
249 978 303 128 101 74 
288 731 299 160 150 144 
194 371 207 98 115 133 
160 191 327 121 37 66 
271 928 250 98 81 65 
163 346 316 142 124 106 
180 585 128 80 97 115 
204 321 260 116 105 95 
320 470 306 124 136 154 
205 873 322 144 114 92 
163 487 171 94 112 139 
264 125 267 113 102 90 
179 606 258 162 156 159 
182 826 156 200 120 131 
271 562 147 98 108 120 
233 225 213 134 51 79 
278 882 241 117 95 74 
161 250 346 140 133 132 
331 559 222 120 138 160 
290 353 180 154 158 167 
228 201 297 100 48 74 
165 523 151 80 100 122 
328 535 287 114 117 146 
161 560 163 53 66 92 
182 579 164 62 68 104 
228 533 321 130 154 191 
308 559 171 95 84 77 
198 847 289 133 107 81 
287 238 284 106 105 107 
233 580 310 36 79 159 
224 397 169 65 91 114 
314 237 265 98 108 121 
234 228 209 136 115 116 
377 718 326 194 135 89 
156 464 230 91 115 140 
280 406 172 72 97 126 
361 690 319 75 70 110 
214 510 283 94 101 128 
153 738 208 90 112 134 
425 654 336 60 102 152 
278 650 134 105 83 102 
273 548 320 133 147 174 
229 424 349 149 128 101 
331 277 217 83 119 150 
254 935 243 116 88 54 
327 801 241 201 145 111 
238 878 228 141 105 79 
316 540 195 137 133 134 
210 858 319 157 122 105 
235 231 210 124 126 133 
232 412 355 142 119 96 
265 896 306 95 74 53 
244 943 245 146 108 78 
232 883 235 114 81 55 
234 271 307 145 71 7 
267 449 162 93 117 144 
191 402 184 64 97 123 
225 838 261 105 80 51 
360 773 281 177 137 106 
398 648 290 60 92 118 
233 242 308 94 37 47 
235 866 320 162 125 94 
320 172 247 62 89 112 
152 756 179 109 113 121 
378 671 262 133 143 177 
234 230 215 159 136 111 
276 729 155 182 189 204 
169 494 183 116 129 146 
225 312 242 98 104 111 
295 778 201 153 123 91 
209 13 328 113 77 58 
227 780 143 185 20 23 
379 638 332 103 87 72 
176 246 285 108 112 119 
214 763 137 162 177 200 
306 406 309 65 102 157 
186 342 267 134 117 104 
421 664 349 142 149 193 
275 17 246 88 76 65 
209 720 278 134 111 88 
326 231 209 132 126 125 
400 668 284 129 139 157 
293 580 148 85 89 97 
231 875 234 170 127 95 
349 670 340 148 177 209 
157 710 178 52 70 135 
330 423 238 95 115 137 
208 625 288 114 88 71 
281 616 322 108 94 83 
186 833 165 172 154 143 
300 729 193 168 67 47 
176 660 262 88 77 69 
206 127 269 124 80 34 
363 727 262 47 40 63 
317 802 274 204 143 113 
219 428 334 95 114 155 
250 329 200 99 99 102 
162 349 310 130 112 108 
298 787 204 132 131 137 
316 635 340 133 105 78 
314 209 195 104 51 42 
171 696 262 153 67 70 
311 221 195 110 70 83 
145 551 172 88 75 62 
171 668 128 89 114 140 
207 425 154 110 118 129 
315 457 311 163 166 177 
169 630 124 94 118 142 
270 706 303 139 117 98 
219 876 242 128 99 64 
187 607 269 163 158 160 
152 477 252 110 119 136 
188 918 251 97 79 66 
336 675 204 179 187 205 
233 228 217 144 110 95 
193 214 273 82 120 150 
192 102 298 93 81 69 
299 192 185 80 73 104 
247 338 318 84 71 91 
187 792 226 156 115 71 
333 303 244 71 108 135 
193 216 275 78 120 153 
326 509 298 134 143 161 
198 348 371 142 134 160 
327 477 221 120 139 161 
242 481 340 109 135 176 
234 230 216 160 136 109 
247 477 154 89 113 138 
174 788 212 159 139 121 
149 581 137 117 90 60 
249 353 308 120 119 122 
342 787 286 205 141 108 
240 816 168 154 138 126 
166 285 303 158 132 106 
371 664 252 138 151 180 
244 796 161 77 79 81 
319 489 310 75 92 152 
322 365 267 70 106 135 
233 228 223 138 109 105 
234 228 220 142 111 94 
155 663 135 45 51 57 
311 544 314 140 147 159 
253 731 299 102 149 187 
323 414 225 84 110 141 
194 156 343 98 86 75 
234 229 222 148 118 105 
350 622 231 73 82 94 
275 57 243 111 92 75 
262 515 161 164 159 160 
275 317 162 110 56 53 
292 248 193 80 108 134 
174 611 247 162 155 157 
173 601 236 93 118 144 
346 778 294 207 145 115 
265 196 216 115 47 38 
283 573 320 157 167 184 
152 461 163 110 122 138 
213 937 336 89 72 56 
287 231 199 80 95 111 
260 340 292 138 135 137 
235 232 209 124 127 134 
297 580 317 137 154 176 
296 884 245 116 92 73 
151 500 159 52 86 113 
240 990 288 108 82 60 
144 546 169 90 76 66 
305 541 189 122 120 122 
273 569 146 100 113 128 
156 149 285 115 40 45 
320 415 214 87 114 142 
273 178 209 99 42 26 
156 653 172 116 129 147 
279 585 316 186 179 182 
239 230 283 94 39 49 
235 233 212 147 105 60 
320 601 165 80 94 109 
240 625 124 80 118 148 
209 123 284 72 67 62 
337 239 229 101 121 143 
270 302 277 84 108 130 
257 153 266 97 96 96 
150 666 128 31 65 102 
299 524 187 83 100 118 
235 235 213 151 79 20 
382 656 257 139 147 174 
246 823 176 177 144 110 
226 368 358 198 169 136 
315 726 204 164 127 80 
293 247 192 80 109 136 
110 468 163 120 94 77 
245 252 280 97 95 98 
161 396 274 101 118 138 
223 991 278 116 94 72 
226 918 336 145 108 86 
250 383 320 109 72 33 
287 506 176 137 152 174 
330 464 235 110 127 151 
157 457 229 69 88 138 
292 580 318 129 142 160 
236 236 208 136 114 106 
338 510 268 124 135 150 
306 539 187 123 121 123 
269 335 282 146 141 143 
236 236 210 155 90 55 
236 236 211 160 76 16 
232 134 263 115 68 23 
280 424 306 84 108 133 
292 125 257 147 71 6 
108 472 162 120 97 77 
236 239 209 158 74 0 
266 75 218 137 107 78 
294 331 181 129 63 75 
129 488 134 100 83 66 
159 154 356 96 86 76 
191 834 182 198 162 124 
166 289 350 159 138 117 
263 862 219 238 178 140 
290 64 202 137 109 77 
399 646 338 81 71 64 
252 714 308 195 168 143 
276 210 271 98 34 37 
172 385 340 94 111 152 
327 457 228 97 123 149 
321 351 270 155 154 161 
259 846 266 154 112 83 
223 499 324 131 146 169 
155 734 240 163 84 88 
229 658 305 142 97 61 
234 593 127 105 117 132 
208 249 358 144 110 91 
269 61 242 96 80 63 
346 690 309 136 91 79 
137 473 145 93 84 79 
275 368 289 97 113 132 
184 470 304 132 135 184 
155 581 168 86 71 63 
217 604 296 180 184 197 
334 748 305 180 164 155 
393 721 320 130 71 121 
201 419 159 81 99 116 
235 233 216 165 141 115 
265 365 296 85 108 130 
254 803 264 183 129 106 
114 487 168 101 81 66 
186 234 282 80 99 119 
173 217 284 79 111 140 
297 556 181 150 144 142 
294 503 311 166 166 175 
284 722 299 116 112 111 
246 853 305 145 108 78 
326 435 282 146 146 152 
284 837 243 197 148 117 
129 522 148 157 113 89 
233 235 301 83 24 33 
167 330 336 145 60 9 
261 302 175 104 112 122 
214 320 359 92 58 72 
228 666 297 137 114 100 
155 497 227 83 99 131 
199 446 317 154 153 164 
201 817 219 130 115 103 
193 81 298 113 90 71 
143 670 155 101 118 170 
150 375 252 61 92 150 
298 277 187 137 135 139 
265 113 216 122 101 83 
241 903 329 121 95 75 
343 773 299 176 138 108 
178 900 301 148 115 87 
246 982 302 121 93 71 
180 931 289 105 85 74 
333 290 224 101 58 71 
331 570 230 113 134 157 
230 267 244 81 102 121 
257 350 159 120 120 124 
143 598 167 131 102 78 
164 718 260 180 82 85 
384 649 258 140 150 168 
254 517 323 78 89 122 
237 641 313 84 75 72 
198 716 272 91 73 70 
245 766 281 208 159 128 
155 177 340 132 79 72 
150 735 218 169 15 53 
279 489 168 92 117 152 
208 837 185 168 150 137 
348 722 252 96 81 83 
272 173 209 90 46 40 
321 593 275 101 117 137 
176 517 164 62 89 126 
276 718 149 178 182 199 
320 713 299 78 68 93 
305 694 180 177 189 208 
269 154 209 128 47 28 
189 663 127 82 125 161 
212 209 347 94 86 99 
170 289 357 117 129 145 
218 294 357 144 144 150 
148 729 223 95 139 172 
175 154 256 119 113 124 
154 693 197 53 75 117 
297 280 276 116 133 152 
190 833 186 192 162 131 
197 666 273 167 133 91 
194 453 315 117 117 162 
161 526 152 78 95 117 
150 761 165 109 136 163 
161 136 268 55 85 111 
217 724 287 163 140 118 
162 438 170 87 109 130 
145 722 151 75 98 117 
209 515 283 105 113 132 
221 419 155 88 105 122 
327 566 278 104 114 144 
279 656 299 82 83 100 
236 239 220 160 64 0 
229 162 277 126 52 5 
163 400 319 83 105 138 
310 684 179 93 155 201 
323 356 265 96 106 144 
176 347 278 143 124 106 
236 238 223 153 74 6 
305 186 257 89 77 91 
236 239 223 156 74 12 
254 914 220 96 75 57 
268 871 228 182 140 108 
150 690 118 79 111 154 
215 791 144 164 55 47 
216 528 286 79 100 128 
334 421 265 119 128 143 
321 396 206 110 135 162 
265 25 245 134 107 82 
268 658 132 77 125 162 
237 242 207 161 87 12 
181 535 175 63 77 92 
235 844 191 216 165 118 
251 688 128 174 170 177 
222 988 293 104 82 62 
133 564 165 147 108 85 
310 403 308 84 121 161 
156 464 284 102 117 145 
327 754 226 123 113 107 
277 881 245 120 96 75 
409 699 303 161 165 177 
257 269 185 88 116 142 
238 243 204 130 111 99 
221 259 256 76 103 127 
234 270 297 133 81 61 
315 298 198 91 116 140 
152 751 177 131 138 151 
272 848 212 215 165 132 
288 766 284 200 147 118 
157 729 246 174 106 99 
184 573 158 43 63 92 
325 760 300 175 148 122 
209 154 317 109 99 89 
287 821 252 193 138 109 
201 266 275 95 104 115 
231 706 125 143 153 178 
333 209 227 73 88 102 
285 616 298 55 71 87 
161 383 269 92 115 145 
271 739 295 170 129 101 
334 675 197 160 179 204 
110 475 150 112 90 65 
237 375 354 187 154 118 
324 664 319 114 147 179 
266 629 324 182 137 125 
199 211 360 87 111 134 
162 390 313 98 113 131 
196 64 301 114 91 72 
299 86 236 113 94 74 
207 208 355 106 104 110 
189 758 256 182 149 113 
157 613 130 63 95 137 
194 201 266 141 76 77 
169 617 234 123 120 123 
199 657 277 192 140 68 
159 778 137 100 140 202 
259 527 157 91 108 125 
217 528 300 64 80 118 
194 131 305 98 89 81 
248 294 286 136 135 141 
189 587 129 85 123 155 
153 531 205 58 55 117 
157 600 203 100 112 127 
199 678 128 53 83 143 
204 225 265 85 119 148 
190 646 274 146 148 155 
248 276 281 86 107 129 
177 463 307 127 128 177 
239 251 205 134 136 144 
195 794 233 164 144 140 
292 640 336 64 67 93 
186 690 266 145 63 57 
158 667 219 71 96 130 
298 745 298 139 117 97 
156 431 273 127 130 139 
145 457 186 60 89 147 
199 909 335 178 135 114 
237 240 210 171 79 0 
152 787 179 144 10 29 
242 439 145 56 97 157 
247 300 270 133 134 139 
181 681 126 102 124 156 
207 612 285 154 113 115 
237 243 208 162 81 2 
172 369 243 129 116 102 
241 610 305 61 82 103 
273 418 306 49 86 131 
183 883 287 152 117 88 
284 205 199 83 43 41 
260 836 259 152 110 79 
184 883 315 77 65 57 
290 203 186 138 38 28 
159 224 346 147 145 149 
183 162 365 126 113 102 
320 618 191 83 84 95 
227 200 295 89 48 77 
230 982 309 133 100 77 
308 787 282 176 131 103 
173 190 282 50 87 118 
206 258 272 92 104 118 
165 542 185 50 64 83 
167 148 262 110 86 108 
227 833 298 136 110 85 
378 745 306 161 144 133 
155 773 193 183 150 108 
245 498 154 161 161 168 
285 722 172 118 130 144 
234 263 327 132 49 75 
233 531 145 92 106 121 
212 259 267 85 102 119 
286 704 153 80 131 168 
295 830 231 225 165 131 
110 473 153 98 81 66 
226 323 233 121 115 113 
193 215 273 83 121 151 
155 406 193 75 114 145 
264 890 301 117 82 57 
238 246 209 133 90 27 
285 886 252 103 85 72 
306 598 294 135 131 135 
246 980 304 121 93 72 
300 713 298 160 145 135 
271 489 325 146 157 176 
290 657 324 169 190 217 
241 292 314 120 125 135 
328 396 238 68 97 131 
279 925 291 82 67 54 
306 385 293 102 127 156 
232 675 122 70 124 165 
176 906 298 128 101 78 
223 318 239 124 113 103 
243 520 152 123 127 135 
151 682 203 83 98 127 
199 912 234 85 63 54 
359 677 328 117 152 184 
337 796 279 209 141 113 
322 619 159 113 149 183 
206 635 127 172 167 170 
162 159 282 159 52 68 
285 49 240 121 99 77 
211 479 145 92 115 155 
238 246 215 161 59 0 
197 758 259 167 144 122 
243 970 256 123 96 62 
423 668 327 123 142 180 
324 168 233 101 85 83 
171 579 190 95 95 113 
197 851 275 131 101 72 
237 241 216 166 71 0 
237 241 217 165 71 0 
134 475 169 75 92 109 
234 354 355 147 141 141 
294 315 295 96 94 100 
289 482 173 97 122 152 
306 99 227 109 91 71 
301 812 215 201 146 113 
286 282 184 99 110 122 
177 912 305 159 123 97 
249 861 307 146 106 77 
147 677 215 147 146 153 
179 898 303 151 116 88 
244 315 325 85 130 165 
276 517 168 109 123 139 
168 435 166 70 98 122 
333 200 240 134 116 100 
231 993 273 154 124 93 
294 694 176 145 163 185 
289 645 136 171 170 178 
268 82 241 88 72 55 
276 653 317 125 153 182 
232 833 253 105 82 54 
141 522 144 129 94 80 
235 298 256 130 131 136 
271 748 160 182 1 17 
244 817 171 156 132 111 
313 656 343 135 147 199 
264 93 223 101 83 63 
279 168 193 104 45 61 
138 453 184 50 49 122 
249 532 321 100 114 147 
136 551 168 130 99 81 
325 584 262 141 144 153 
276 610 136 98 116 136 
159 804 189 67 65 85 
327 572 208 159 163 174 
278 105 248 72 63 55 
334 691 222 157 170 187 
366 733 262 122 114 111 
222 136 265 123 71 17 
325 581 241 91 111 140 
136 617 142 129 94 64 
224 782 263 182 134 114 
250 808 172 167 144 125 
293 50 207 153 137 123 
281 462 317 99 124 158 
423 661 349 137 149 191 
325 181 245 80 104 126 
349 743 250 69 65 64 
328 804 257 222 158 127 
324 589 265 104 121 143 
133 517 144 184 125 107 
265 231 208 110 56 58 
238 246 219 165 72 0 
313 787 286 182 137 110 
258 412 151 155 158 169 
324 404 230 84 109 145 
228 826 245 157 113 86 
267 901 225 110 89 66 
146 374 247 70 96 136 
159 418 307 85 104 138 
211 339 234 101 81 64 
298 180 259 110 51 66 
248 345 314 137 135 139 
287 391 295 79 99 122 
205 142 306 96 88 81 
338 688 232 149 159 174 
372 731 318 104 113 126 
201 477 298 89 102 145 
225 417 154 82 105 127 
171 505 186 78 89 121 
238 290 332 106 125 147 
216 573 130 98 114 132 
327 358 238 96 116 146 
264 17 248 115 104 97 
254 336 187 95 90 91 
172 645 180 31 49 81 
201 354 224 128 118 110 
237 276 290 115 100 89 
239 249 208 123 110 100 
178 924 293 99 79 66 
256 348 166 102 103 107 
341 711 306 97 102 113 
255 284 277 98 116 137 
138 595 140 124 96 60 
302 376 304 81 103 143 
225 161 281 130 49 5 
255 852 286 151 112 80 
299 136 248 116 96 99 
305 614 280 43 41 47 
376 749 295 141 122 110 
242 294 316 86 92 100 
271 132 196 149 67 0 
239 909 332 126 97 77 
420 681 336 110 138 195 
330 438 237 128 140 157 
157 499 223 83 102 130 
408 645 315 84 97 111 
249 711 310 149 125 100 
185 431 328 129 127 175 
274 369 290 111 123 139 
276 929 262 84 67 54 
250 792 163 102 86 71 
172 512 270 132 150 172 
290 142 261 69 105 134 
261 731 146 150 175 208 
243 449 148 187 185 192 
232 175 277 108 40 34 
313 425 188 127 139 155 
239 248 216 155 75 11 
269 231 272 107 39 26 
288 132 272 115 122 133 
258 424 321 58 83 110 
275 374 291 93 108 125 
221 477 326 158 166 180 
175 563 250 76 126 164 
299 825 228 224 163 129 
189 161 359 101 93 86 
376 647 246 177 176 185 
289 305 286 86 97 110 
363 677 348 144 168 207 
164 206 355 135 132 136 
268 177 268 39 37 35 
309 500 305 182 176 180 
153 759 182 106 69 85 
250 830 261 130 99 70 
273 888 238 131 108 85 
236 803 159 147 137 132 
200 688 129 102 125 159 
255 942 315 88 69 55 
260 43 235 80 65 50 
351 617 239 48 65 80 
239 249 223 141 72 0 
219 833 274 129 93 62 
261 68 237 78 66 53 
191 866 299 148 115 89 
336 489 283 133 142 157 
222 467 298 62 75 115 
295 51 204 157 140 124 
214 226 354 89 93 108 
262 305 170 107 106 109 
157 662 131 53 70 86 
223 394 172 73 99 121 
333 552 255 126 136 151 
307 348 191 112 121 134 
152 704 131 98 111 159 
174 833 175 228 184 139 
216 764 267 173 135 111 
253 894 214 98 71 62 
271 441 316 72 99 138 
255 486 157 54 91 131 
154 690 231 108 123 139 
130 505 137 209 134 123 
164 339 305 114 87 66 
177 497 284 158 166 188 
220 808 243 178 121 103 
278 901 306 151 118 87 
164 204 285 91 69 81 
312 395 291 52 95 137 
331 802 269 219 152 126 
240 228 206 133 126 121 
228 795 258 178 129 110 
161 597 197 81 90 108 
163 561 161 51 69 99 
240 230 205 123 116 113 
174 520 182 72 78 96 
278 742 166 153 35 53 
150 713 144 71 103 142 
310 385 187 113 127 144 
285 297 178 105 48 23 
305 514 295 157 160 171 
168 594 129 38 61 102 
332 469 239 143 147 157 
262 883 233 147 103 82 
192 405 180 78 99 121 
212 987 286 141 109 79 
270 800 266 185 133 111 
316 360 195 89 111 137 
325 461 217 75 103 151 
316 347 194 123 128 138 
212 459 144 124 136 165 
331 479 292 83 108 146 
173 168 370 148 129 112 
177 375 230 110 72 59 
122 487 137 94 81 70 
303 217 189 125 18 37 
248 707 310 153 133 117 
230 666 302 105 83 67 
393 708 333 150 120 127 
361 619 289 86 115 140 
145 706 230 109 132 156 
281 263 277 79 42 45 
172 415 328 103 122 156 
282 798 268 196 138 112 
195 883 255 148 111 71 
179 608 187 63 73 96 
264 718 304 190 170 156 
188 927 320 97 77 66 
386 625 312 114 123 136 
173 622 246 162 155 156 
202 641 288 179 123 51 
319 625 158 143 165 191 
121 479 142 97 85 75 
181 138 345 109 101 96 
260 711 138 151 166 190 
295 554 189 126 129 135 
193 857 291 140 108 78 
243 234 205 126 121 120 
291 286 287 119 120 126 
240 236 203 110 111 117 
203 219 263 87 121 150 
211 312 361 107 93 92 
308 90 205 116 89 67 
204 961 275 88 64 49 
386 637 276 70 89 106 
216 177 313 128 52 21 
253 713 135 145 161 186 
135 582 164 142 106 82 
283 791 196 181 153 127 
277 413 170 87 106 127 
187 717 130 85 106 131 
271 91 215 114 92 67 
354 761 256 140 123 109 
193 282 280 107 28 37 
242 238 202 111 106 109 
174 442 318 149 152 180 
170 763 129 77 121 168 
280 166 191 108 45 63 
350 755 308 205 186 174 
222 316 360 85 111 136 
294 108 200 100 83 65 
326 255 262 138 138 143 
266 717 303 194 173 158 
269 135 203 137 73 0 
291 686 149 140 94 100 
245 233 206 123 114 109 
169 566 229 158 161 171 
233 758 139 184 188 203 
306 683 176 94 151 196 
276 233 272 96 25 46 
280 138 186 123 117 111 
183 359 252 129 63 2 
192 71 291 106 89 73 
221 613 296 46 51 77 
351 622 320 63 88 110 
388 666 268 81 106 163 
307 122 184 153 79 43 
177 605 253 98 115 136 
312 325 270 126 96 69 
188 380 354 49 82 153 
276 508 324 137 152 175 
344 756 307 175 163 159 
218 146 295 98 84 75 
402 692 291 151 160 176 
262 143 214 124 114 108 
186 702 129 164 159 164 
206 610 284 154 113 108 
277 214 207 119 43 10 
245 273 207 151 147 149 
309 61 223 120 95 71 
268 133 202 148 66 11 
187 645 127 102 101 106 
239 263 291 120 119 123 
316 506 296 134 141 163 
220 898 338 163 127 97 
105 484 164 139 102 91 
412 653 313 105 114 125 
290 502 320 127 134 166 
210 786 141 186 7 34 
213 524 143 97 112 129 
323 366 212 42 91 131 
248 738 294 201 156 126 
273 341 283 107 119 135 
290 338 175 94 112 131 
204 269 273 90 97 105 
307 345 191 122 100 83 
247 239 205 122 117 116 
365 678 348 137 171 205 
374 681 263 166 174 190 
342 614 242 111 111 115 
225 167 287 106 78 63 
156 249 313 143 138 140 
183 285 365 126 117 117 
371 629 261 112 124 140 
276 914 317 111 90 73 
168 333 311 117 101 85 
322 598 259 95 107 122 
225 539 320 125 151 195 
269 383 297 116 128 145 
308 65 197 134 90 44 
222 230 337 136 71 66 
284 715 157 155 167 185 
303 97 233 105 85 64 
379 633 254 25 44 60 
317 194 200 88 70 78 
251 239 207 129 124 121 
152 649 136 92 68 55 
257 145 266 123 57 11 
166 622 237 144 140 143 
194 467 305 99 118 152 
277 923 305 79 65 54 
182 816 200 136 109 81 
360 762 303 215 198 188 
309 91 207 117 91 71 
196 711 131 184 177 184 
384 685 272 161 170 187 
301 411 303 69 91 137 
322 177 247 77 97 116 
255 239 206 134 129 128 
200 117 289 95 85 78 
248 154 266 111 82 62 
191 496 149 100 122 146 
315 540 193 133 130 131 
241 226 208 115 46 38 
324 779 221 114 115 119 
245 275 213 104 119 137 
168 441 162 61 94 121 
156 184 305 85 56 73 
115 494 171 135 103 88 
229 833 174 214 176 139 
233 894 233 74 57 40 
396 631 324 100 111 124 
162 391 301 103 115 131 
209 736 276 166 144 125 
195 74 304 108 87 66 
147 536 168 79 73 72 
276 933 300 91 73 56 
222 528 320 82 103 143 
236 193 277 115 34 30 
313 569 167 84 105 125 
423 645 343 165 168 178 
317 746 212 143 109 78 
320 173 216 89 53 57 
245 820 172 146 127 114 
246 891 223 126 97 78 
164 414 320 105 117 149 
215 866 317 164 129 109 
163 284 306 157 129 100 
201 195 256 155 90 87 
305 667 292 42 46 130 
320 315 201 154 109 59 
167 542 245 78 128 167 
225 838 259 101 76 45 
107 492 153 172 117 105 
326 596 233 147 147 153 
370 672 354 113 143 190 
181 271 285 114 60 51 
236 818 166 184 160 140 
247 227 210 109 51 39 
366 636 334 109 92 74 
323 703 297 120 114 129 
396 660 356 105 131 201 
179 636 186 66 79 102 
286 183 185 65 60 93 
299 256 271 105 121 140 
234 312 239 120 122 127 
154 496 247 82 113 145 
342 666 319 140 154 171 
173 482 153 57 104 153 
225 817 242 178 123 102 
190 885 266 118 88 59 
149 729 229 152 90 100 
322 594 254 152 148 150 
204 498 286 68 88 131 
175 577 240 145 144 150 
261 351 300 138 133 134 
164 379 300 147 144 146 
162 339 320 118 88 67 
220 403 165 89 106 122 
155 515 224 154 148 148 
349 779 261 158 140 127 
247 231 209 130 119 111 
336 287 240 98 129 157 
423 666 329 123 143 179 
239 278 314 147 67 8 
171 485 289 207 202 204 
168 223 357 111 124 140 
206 714 131 121 140 169 
255 791 168 121 102 85 
158 562 207 107 118 139 
248 226 211 100 41 53 
411 682 304 79 120 160 
262 801 266 183 132 109 
172 302 360 154 143 136 
336 633 214 106 101 96 
249 224 213 91 71 70 
127 526 152 152 111 92 
146 654 139 113 77 55 
352 781 273 171 121 86 
163 365 252 120 112 105 
198 758 134 165 167 191 
172 162 269 139 69 78 
203 300 362 84 47 56 
321 592 280 93 109 126 
251 225 213 88 82 77 
292 206 186 144 30 21 
214 693 127 77 83 97 
176 182 365 181 84 10 
186 909 326 189 141 122 
255 781 162 130 126 124 
233 628 307 157 124 109 
328 640 198 114 114 116 
154 138 319 100 78 89 
361 740 313 179 162 151 
202 592 285 130 146 166 
328 406 275 100 122 146 
279 925 294 84 67 51 
196 240 366 98 92 106 
174 831 166 116 137 161 
235 367 354 157 22 67 
178 766 238 147 130 116 
229 152 271 131 60 4 
249 230 211 131 120 110 
196 293 277 111 74 55 
378 737 314 138 124 117 
259 784 169 161 138 115 
156 500 224 136 142 154 
319 628 195 115 117 124 
285 314 283 77 84 94 
251 231 211 123 117 113 
291 470 315 183 177 179 
244 383 342 190 157 123 
251 358 309 120 122 129 
320 785 291 188 141 112 
172 707 261 166 123 129 
162 759 222 63 52 54 
329 295 212 149 153 163 
155 203 304 70 102 129 
264 326 282 101 115 133 
366 628 264 112 117 125 
158 420 245 149 147 152 
188 628 282 63 56 91 
130 446 159 115 100 86 
305 805 264 205 155 125 
158 486 272 102 122 162 
267 387 301 107 120 138 
288 835 224 220 164 130 
141 434 169 118 126 136 
328 732 227 92 119 145 
341 662 199 122 154 188 
254 226 213 93 69 64 
304 440 180 125 137 155 
161 533 237 117 146 175 
176 654 185 49 65 95 
252 231 211 124 117 111 
255 332 185 89 94 102 
156 170 313 87 81 90 
330 304 255 168 162 164 
158 227 297 135 131 133 
265 142 211 122 116 109 
199 890 244 155 90 49 
361 646 222 176 183 198 
308 248 189 82 100 117 
203 279 363 80 127 163 
153 138 310 136 76 72 
159 275 332 95 111 129 
296 505 297 152 157 169 
189 559 132 150 151 159 
331 757 231 121 104 90 
155 221 312 71 104 132 
190 383 353 60 90 159 
254 230 212 120 109 96 
167 151 361 124 81 42 
156 518 238 140 140 148 
261 222 213 97 39 41 
306 113 206 110 100 94 
237 256 293 87 76 86 
249 233 209 129 117 107 
318 359 272 83 102 130 
229 195 291 82 27 69 
247 805 261 181 128 108 
235 994 279 144 115 90 
258 524 157 81 101 121 
325 574 188 103 132 158 
239 262 229 125 124 127 
354 778 287 209 177 144 
173 586 154 40 61 89 
308 620 295 77 87 99 
179 833 172 200 168 142 
187 713 131 102 113 147 
287 661 292 52 57 123 
264 216 213 96 36 19 
336 507 242 116 130 148 
166 194 360 66 107 138 
144 394 228 115 136 167 
194 423 333 137 142 179 
174 159 260 139 112 114 
310 280 192 128 136 149 
249 264 278 146 144 147 
264 820 256 147 106 83 
278 845 244 188 141 111 
148 718 161 135 142 156 
222 837 219 188 140 114 
158 183 288 90 59 95 
274 859 244 177 134 102 
234 250 307 129 48 36 
299 344 284 154 103 115 
413 676 306 125 144 167 
160 473 185 68 96 142 
367 761 297 182 150 117 
268 730 150 163 179 205 
150 709 164 144 147 159 
151 581 168 93 76 63 
328 541 214 116 131 150 
318 660 332 140 169 200 
320 536 204 118 125 137 
276 483 323 121 134 156 
283 501 171 153 160 176 
160 173 354 101 69 61 
297 360 299 130 59 89 
193 616 128 92 119 148 
254 217 272 80 56 69 
423 668 329 112 134 178 
191 477 147 89 119 168 
212 131 296 98 90 84 
225 532 143 105 112 123 
258 323 288 78 114 142 
161 771 137 145 159 191 
270 894 234 107 82 61 
264 536 324 83 105 149 
158 772 134 106 127 193 
394 689 282 144 153 168 
244 818 171 138 113 87 
254 236 209 125 118 114 
171 398 333 89 104 152 
229 709 125 137 160 194 
309 525 249 136 134 137 
278 899 240 77 64 53 
306 583 309 122 128 139 
155 611 130 115 103 100 
207 984 291 165 138 113 
228 445 142 142 152 177 
244 245 199 105 111 120 
168 507 193 103 114 129 
237 957 316 99 76 63 
245 246 199 95 106 119 
187 824 153 212 177 143 
173 674 127 106 126 151 
319 357 199 95 116 139 
189 606 270 158 153 154 
152 799 171 139 42 52 
163 421 317 133 132 151 
145 453 168 79 107 138 
154 483 264 176 166 164 
165 658 231 52 55 70 
178 776 131 86 118 212 
155 437 269 104 115 130 
254 961 278 97 69 44 
157 226 322 124 117 117 
242 354 344 153 142 137 
261 678 132 178 173 178 
158 708 182 96 111 128 
293 111 253 119 108 97 
253 405 316 101 81 86 
161 522 246 92 108 129 
284 22 224 111 94 79 
219 479 325 117 134 164 
227 286 351 151 152 160 
156 755 208 144 34 39 
297 97 240 108 89 69 
204 130 300 86 79 73 
338 509 249 100 117 137 
243 243 200 99 107 119 
189 293 283 133 111 88 
310 320 271 135 96 53 
316 522 256 125 127 135 
199 257 364 141 80 93 
334 728 238 58 72 91 
241 246 201 122 126 137 
269 610 134 112 124 140 
240 246 202 124 134 149 
214 526 316 116 143 176 
363 679 255 158 174 196 
343 791 262 193 133 104 
323 582 175 89 134 170 
222 166 294 136 53 6 
273 210 270 100 24 24 
248 305 205 73 89 104 
185 652 128 72 121 159 
242 247 200 112 115 122 
239 305 244 122 123 128 
285 421 304 98 116 136 
142 505 160 49 55 64 
271 379 162 77 111 149 
237 799 261 178 128 108 
143 484 146 148 109 100 
226 643 307 184 143 97 
287 703 154 67 134 178 
194 831 192 204 196 196 
203 145 311 83 77 71 
175 394 339 83 100 149 
179 225 361 77 82 93 
324 382 274 112 126 144 
277 238 199 88 103 122 
261 548 149 116 118 123 
219 269 355 149 41 83 
302 243 186 81 112 139 
172 605 240 82 106 133 
294 273 293 129 131 138 
246 243 202 91 100 112 
247 242 203 86 95 107 
196 288 364 74 108 138 
202 656 279 145 105 62 
255 417 149 101 124 153 
301 244 269 137 136 141 
410 667 301 123 137 157 
272 909 238 94 75 57 
268 133 270 117 59 4 
205 986 288 140 116 94 
293 150 255 91 104 119 
249 250 277 108 89 94 
294 514 321 178 174 180 
361 623 234 89 118 147 
240 270 229 147 145 149 
353 773 259 145 131 121 
217 773 262 179 133 114 
181 891 289 144 112 80 
180 394 187 78 103 126 
247 245 201 83 98 113 
262 199 267 34 52 73 
316 265 267 77 117 148 
181 919 271 92 76 63 
313 451 188 106 125 146 
257 674 129 109 85 92 
144 484 150 100 94 102 
178 594 253 117 62 83 
153 408 232 77 102 144 
202 116 257 102 90 80 
364 703 323 140 46 47 
207 574 284 114 125 145 
263 519 327 117 143 181 
144 693 130 75 104 156 
158 512 248 175 168 171 
379 676 265 175 178 190 
267 478 325 75 104 156 
164 653 247 98 102 109 
210 185 332 81 67 76 
181 486 292 36 74 162 
183 766 129 78 114 158 
308 659 316 72 119 153 
287 560 323 113 134 177 
252 142 266 129 65 3 
238 806 258 181 127 109 
158 419 256 98 113 135 
384 623 315 99 111 126 
199 537 280 148 147 153 
236 798 261 178 127 108 
226 325 359 103 129 155 
192 141 316 84 78 74 
186 880 311 116 95 74 
160 470 205 116 128 148 
245 249 198 89 107 125 
271 714 303 126 100 71 
175 388 202 137 141 148 
323 162 233 99 103 111 
189 280 365 106 126 149 
323 163 227 91 91 96 
285 227 281 84 23 41 
336 683 215 151 172 197 
196 153 334 111 77 39 
247 249 198 98 110 124 
182 908 321 186 140 118 
281 867 229 139 100 76 
298 370 296 95 100 113 
269 938 301 99 77 54 
247 251 198 106 115 126 
358 706 319 149 75 90 
213 557 302 102 119 152 
335 538 257 55 83 141 
310 158 194 49 54 73 
181 449 316 148 147 182 
268 546 321 89 95 134 
290 826 247 195 142 113 
307 179 188 109 53 44 
250 373 319 83 118 149 
290 130 181 132 56 5 
166 649 176 88 111 137 
348 720 311 128 96 71 
158 550 200 99 108 142 
360 772 289 191 165 149 
133 592 146 129 92 64 
153 680 118 82 115 147 
192 879 266 128 95 69 
314 400 190 129 139 155 
239 251 289 118 0 49 
295 287 281 136 144 158 
226 944 328 98 77 61 
247 255 196 140 134 133 
310 84 221 122 100 78 
362 647 353 128 146 168 
158 389 255 139 149 164 
332 563 238 162 160 166 
291 601 140 90 112 132 
164 334 321 118 61 13 
144 474 157 46 92 123 
149 472 176 88 114 138 
329 483 225 103 117 135 
300 214 188 139 42 34 
369 638 336 111 92 75 
182 142 349 120 80 25 
270 597 137 109 120 134 
176 446 156 33 77 115 
209 609 126 107 125 145 
234 272 303 145 65 7 
291 255 289 70 101 126 
276 820 256 170 124 96 
195 314 273 97 51 52 
225 846 221 185 139 105 
365 758 302 201 171 142 
324 607 231 69 92 119 
249 831 261 125 96 66 
142 632 139 144 100 66 
402 647 299 75 99 122 
254 460 329 69 90 118 
173 363 349 54 85 136 
289 625 137 138 141 152 
287 866 227 161 118 89 
299 510 280 138 144 157 
154 441 245 120 127 139 
145 674 162 84 106 140 
176 574 246 149 139 139 
283 33 217 87 73 65 
183 302 367 142 141 145 
194 562 277 108 132 159 
209 880 253 105 74 30 
306 422 182 107 122 140 
300 353 304 139 79 106 
321 441 207 117 134 156 
329 617 244 104 108 116 
220 512 292 98 104 114 
303 723 191 105 63 118 
151 731 162 107 118 141 
277 853 237 178 134 102 
310 138 197 104 122 140 
173 491 286 183 188 201 
237 835 276 102 82 61 
181 242 284 109 108 111 
275 745 291 186 139 108 
174 613 175 61 72 93 
197 796 234 110 114 121 
143 573 140 127 94 65 
212 736 132 150 157 187 
241 254 205 98 83 94 
247 889 221 130 93 67 
241 255 205 107 94 107 
141 449 166 66 95 125 
275 585 316 172 178 192 
291 759 194 185 148 105 
233 965 311 125 98 74 
187 915 325 182 135 113 
125 519 170 163 122 106 
155 438 238 83 104 126 
204 681 278 161 116 75 
249 322 215 106 104 106 
388 636 284 37 64 85 
161 615 169 104 83 69 
239 824 171 159 130 100 
268 682 295 75 45 49 
221 312 359 165 162 167 
187 589 128 79 120 152 
335 438 251 125 139 158 
255 457 328 41 65 105 
338 502 275 111 119 144 
181 180 273 113 111 117 
255 254 276 99 51 55 
159 406 259 131 135 147 
248 243 204 70 89 107 
154 151 299 117 51 70 
133 618 150 135 96 65 
162 594 128 94 114 136 
269 393 301 77 105 132 
164 567 193 72 86 123 
316 411 193 162 163 170 
315 502 201 70 97 131 
345 685 242 183 91 94 
165 545 233 133 64 80 
382 680 268 162 173 190 
214 803 242 177 123 106 
288 53 208 100 81 61 
271 249 274 72 101 125 
264 760 286 202 149 119 
143 695 123 115 145 176 
220 463 310 84 98 131 
238 292 231 76 101 125 
180 788 222 148 125 105 
270 769 283 206 151 123 
222 641 123 88 128 161 
229 987 260 125 88 59 
212 573 130 86 106 126 
262 613 303 53 50 53 
316 443 307 102 129 155 
336 537 250 65 94 144 
250 244 203 92 100 111 
188 867 294 154 121 92 
241 376 350 177 144 105 
257 338 168 88 80 72 
251 245 202 93 102 112 
258 982 274 161 127 88 
164 381 293 101 111 128 
140 495 164 66 71 82 
360 638 221 98 112 135 
181 503 285 119 136 160 
220 652 297 174 100 48 
206 451 311 130 132 144 
275 121 273 109 83 56 
305 187 258 82 79 93 
329 228 213 133 131 135 
367 717 265 159 131 100 
277 716 301 112 94 80 
237 683 123 90 135 173 
265 837 202 198 147 112 
255 722 304 122 121 123 
322 198 255 125 88 72 
365 638 337 113 94 75 
186 698 131 174 169 173 
175 650 263 83 65 57 
326 581 263 128 136 150 
317 688 295 120 97 82 
229 514 148 100 111 126 
414 693 318 147 163 189 
210 132 257 136 74 8 
272 912 243 65 50 41 
294 733 191 164 29 54 
315 663 319 113 142 171 
158 499 260 154 152 157 
419 683 332 173 187 213 
230 436 348 104 125 156 
257 473 158 79 110 139 
198 948 316 113 92 73 
162 171 367 157 112 48 
241 668 122 86 135 175 
219 482 307 69 87 129 
226 267 250 79 105 129 
160 746 232 167 128 98 
192 222 363 86 86 99 
180 527 169 72 92 117 
181 351 363 90 103 151 
265 51 239 86 70 53 
306 524 253 135 134 137 
154 476 239 106 123 143 
260 40 235 79 64 47 
264 390 154 37 90 133 
203 401 174 64 94 119 
295 862 209 120 97 77 
146 416 212 57 88 135 
246 259 280 140 139 142 
223 294 250 120 119 122 
278 529 324 181 179 185 
162 510 155 49 82 122 
317 733 211 88 58 54 
178 555 262 116 136 160 
321 437 292 81 107 143 
254 244 203 132 131 133 
255 244 202 135 134 136 
310 120 198 112 101 94 
195 285 278 103 37 41 
194 344 256 140 123 108 
280 236 274 80 39 53 
149 779 167 100 128 153 
330 655 349 123 152 182 
181 425 331 182 182 190 
331 454 237 133 142 156 
253 959 263 152 131 112 
248 251 198 115 121 132 
252 965 265 116 89 54 
179 136 352 110 102 96 
226 152 276 117 83 34 
159 265 337 91 114 137 
243 313 219 100 98 99 
328 635 202 113 115 120 
260 727 301 161 149 143 
149 722 122 64 84 149 
212 704 284 67 73 85 
192 224 364 89 83 92 
196 933 332 92 75 63 
222 710 127 81 106 132 
269 767 283 205 151 123 
121 444 181 113 139 180 
154 739 199 146 27 52 
177 548 263 175 168 169 
223 718 127 104 124 148 
206 624 127 170 167 171 
221 871 322 96 63 54 
277 163 274 70 25 27 
148 458 190 86 100 137 
331 568 265 147 149 157 
291 831 224 223 166 130 
167 824 186 141 126 112 
375 684 265 172 178 191 
240 865 318 153 115 86 
233 439 142 109 128 157 
256 333 182 80 88 98 
242 764 146 175 112 108 
298 235 290 84 125 158 
178 904 286 91 75 59 
174 303 301 139 118 91 
252 308 192 135 132 135 
317 498 202 177 172 174 
255 251 195 103 119 137 
196 166 346 102 93 88 
232 276 344 149 148 154 
194 742 264 167 143 122 
257 894 223 101 86 76 
210 656 285 154 87 46 
262 526 326 158 168 184 
240 521 150 96 107 121 
406 635 332 110 120 133 
138 478 143 106 93 83 
157 719 253 55 104 158 
137 402 203 116 135 156 
228 463 143 80 111 181 
159 402 260 102 119 137 
324 298 203 156 155 161 
200 980 280 119 94 68 
275 148 195 108 43 28 
222 322 237 123 111 101 
260 191 219 74 48 77 
322 541 200 112 118 129 
277 116 195 143 125 111 
155 358 271 138 122 111 
299 523 321 114 129 163 
279 847 239 182 136 106 
144 727 151 118 125 149 
273 738 157 178 187 204 
250 652 317 122 165 202 
214 471 317 92 113 159 
273 621 327 135 114 95 
304 192 187 108 73 106 
250 702 310 158 145 136 
198 175 344 139 64 3 
296 264 188 147 143 146 
330 267 260 148 144 146 
155 142 288 124 52 45 
199 381 356 44 92 151 
351 671 338 147 171 199 
263 373 152 78 114 144 
262 706 306 139 114 107 
256 346 173 101 96 94 
289 781 277 197 146 114 
277 728 299 161 140 130 
230 570 132 99 113 130 
264 830 255 143 105 76 
295 317 285 159 121 76 
261 291 177 124 133 146 
277 909 279 73 57 46 
323 432 215 86 114 144 
218 220 342 126 64 72 
241 721 131 143 159 187 
304 434 306 59 88 139 
183 440 156 46 78 116 
252 285 279 139 142 151 
176 658 125 86 108 130 
317 480 312 170 168 173 
354 623 245 71 94 115 
233 318 228 116 117 121 
197 889 249 168 118 91 
262 113 230 116 99 82 
318 441 198 140 149 166 
344 646 203 101 111 124 
381 623 325 127 132 141 
298 365 298 120 29 64 
183 390 348 120 144 173 
257 276 183 87 106 126 
207 981 259 162 134 107 
336 612 241 118 122 130 
332 558 259 135 145 160 
314 135 223 101 106 113 
103 485 157 149 99 90 
161 164 370 138 120 105 
302 396 304 45 89 137 
166 333 337 143 57 9 
297 44 217 112 99 87 
160 402 282 99 113 130 
281 553 157 124 124 127 
272 762 171 155 124 105 
162 509 146 91 112 133 
298 604 141 154 150 152 
163 383 305 81 100 125 
265 881 233 119 77 60 
210 749 134 151 160 187 
290 710 178 140 155 175 
376 662 353 184 186 199 
263 736 149 177 185 201 
133 598 154 134 95 67 
239 605 126 149 147 151 
241 254 209 121 135 151 
151 788 174 60 63 90 
324 618 246 92 96 103 
320 393 202 95 124 153 
218 836 176 194 163 132 
327 360 261 95 115 144 
252 415 323 109 93 107 
162 507 146 87 109 130 
402 695 342 126 145 204 
159 233 334 136 134 138 
152 711 195 114 127 144 
320 293 265 137 139 147 
250 323 204 101 101 104 
250 534 150 73 96 116 
240 252 215 130 118 110 
127 516 172 161 125 110 
218 814 154 61 66 74 
337 483 270 146 148 156 
165 537 242 79 131 171 
303 346 297 124 90 106 
156 242 309 136 133 135 
344 668 311 160 82 93 
325 574 182 105 138 169 
329 367 259 69 111 143 
322 782 293 189 143 112 
251 296 284 139 137 140 
254 472 156 97 117 139 
158 799 146 157 168 185 
316 811 232 225 166 132 
148 462 164 100 112 126 
221 519 292 69 85 120 
282 549 323 81 103 161 
327 362 261 87 111 138 
356 743 312 186 159 134 
196 613 276 155 150 152 
157 474 230 148 147 152 
336 277 252 102 121 142 
173 648 190 76 86 107 
189 802 218 147 133 124 
197 559 282 118 131 148 
241 254 216 114 98 82 
279 386 294 146 144 148 
204 375 203 69 92 114 
308 495 190 101 126 153 
338 789 245 187 153 126 
350 617 238 56 71 85 
190 738 132 134 136 149 
359 731 259 112 97 84 
249 540 319 87 105 148 
159 471 216 149 148 153 
197 672 273 171 133 104 
234 272 311 149 68 7 
162 375 280 101 116 141 
305 678 291 143 106 57 
240 747 139 162 167 180 
240 228 282 83 33 36 
241 467 150 109 136 183 
240 255 221 131 112 97 
198 442 150 113 120 130 
403 662 292 100 118 140 
279 114 198 122 107 95 
297 511 315 152 157 169 
251 460 334 115 138 173 
193 766 133 71 104 150 
307 174 188 110 35 48 
153 465 259 121 127 138 
245 871 317 161 120 91 
268 21 202 153 137 125 
137 461 162 63 99 132 
320 605 251 75 82 91 
330 297 219 167 164 168 
248 933 239 108 81 56 
230 224 232 127 68 82 
263 613 305 46 40 46 
295 293 295 113 121 134 
367 615 318 115 129 146 
199 392 190 54 85 110 
263 609 301 141 139 144 
179 906 312 170 129 107 
230 225 234 136 84 97 
286 112 193 119 105 91 
159 220 329 134 129 130 
222 228 337 138 66 68 
263 853 211 215 159 127 
194 454 313 131 132 168 
269 181 213 82 45 55 
302 770 203 158 137 119 
300 781 203 173 150 129 
243 291 268 132 133 138 
238 678 310 142 69 12 
237 316 239 131 126 124 
159 704 185 71 92 113 
231 829 250 141 108 83 
158 176 326 113 74 68 
340 686 236 155 163 178 
288 822 213 211 160 123 
163 769 135 98 128 201 
236 433 352 177 162 153 
272 675 136 168 169 183 
232 310 242 128 127 130 
281 115 189 120 106 96 
308 723 194 174 22 34 
267 105 218 103 81 58 
228 226 238 142 129 124 
320 613 281 54 74 93 
154 471 275 97 119 150 
148 753 163 91 125 155 
179 457 311 88 109 169 
336 696 235 79 81 121 
329 325 256 104 125 149 
242 495 336 90 122 175 
335 460 277 143 144 153 
237 568 134 122 124 130 
326 335 220 119 132 150 
174 731 261 87 78 78 
274 589 314 165 165 174 
238 238 285 125 17 35 
314 628 334 131 107 83 
278 746 170 147 18 37 
269 824 196 176 140 104 
269 460 323 155 161 174 
298 227 277 80 100 119 
266 375 301 85 101 126 
198 735 268 167 142 119 
299 510 187 65 105 140 
213 952 326 117 93 71 
239 836 273 107 80 46 
321 409 217 97 122 151 
314 169 200 63 44 55 
177 518 170 88 107 132 
331 662 326 147 169 195 
261 294 174 145 142 145 
263 580 138 87 107 126 
272 29 210 112 88 62 
271 768 174 94 115 135 
225 829 238 165 119 91 
235 265 324 147 145 146 
334 714 304 103 84 81 
298 228 187 145 137 137 
203 486 292 61 77 132 
341 792 259 192 134 100 
268 662 132 109 85 99 
162 175 365 176 82 12 
315 785 288 183 139 111 
322 228 262 118 101 102 
233 617 124 157 154 158 
296 293 284 118 133 153 
307 101 228 104 87 70 
403 647 335 65 61 59 
255 268 186 87 111 135 
214 573 308 114 138 173 
204 720 132 123 134 175 
230 232 239 132 132 136 
219 499 147 140 148 169 
204 464 304 133 135 144 
226 828 243 165 121 94 
256 332 183 87 93 102 
174 745 252 142 130 125 
241 801 262 182 132 111 
244 394 149 82 106 129 
230 234 238 115 123 134 
256 261 190 88 118 143 
266 933 307 101 82 61 
263 24 245 135 114 95 
231 234 238 116 124 136 
286 24 226 108 92 76 
164 380 302 121 125 134 
251 581 313 135 164 194 
261 160 267 113 37 22 
186 612 265 158 151 151 
275 696 298 119 107 98 
321 718 212 162 117 66 
255 624 127 132 124 124 
323 308 263 143 140 144 
276 689 295 80 111 138 
280 287 277 84 97 113 
242 450 344 77 105 159 
118 512 165 170 123 106 
252 706 309 199 163 124 
238 287 301 100 89 77 
199 361 365 23 71 142 
176 310 301 122 21 48 
242 513 153 153 150 154 
262 733 298 172 155 143 
316 708 200 171 69 68 
211 225 357 62 105 138 
298 822 220 218 163 128 
299 228 280 78 106 129 
199 950 312 93 71 53 
190 583 270 75 111 145 
183 210 281 145 135 132 
149 769 166 113 135 158 
193 814 210 177 160 149 
236 833 279 113 89 63 
164 137 349 75 71 68 
199 316 269 83 88 93 
181 586 159 37 70 98 
224 292 250 113 114 119 
317 203 199 96 79 75 
249 986 264 154 119 84 
332 405 264 95 115 139 
233 480 148 179 177 190 
158 522 237 128 99 104 
311 660 314 143 164 188 
275 942 287 124 99 77 
192 605 274 156 150 153 
232 226 228 139 96 104 
292 490 176 116 134 158 
200 392 189 55 85 111 
253 547 320 89 105 137 
252 365 160 57 79 98 
310 338 194 158 125 87 
241 674 122 80 133 177 
147 707 147 156 161 173 
153 756 169 135 147 163 
301 424 179 139 143 153 
171 349 282 132 72 0 
348 693 310 141 119 89 
265 316 279 90 63 65 
265 319 162 144 119 93 
228 993 270 147 120 91 
245 220 276 101 39 33 
229 720 299 198 181 172 
154 775 135 138 152 203 
353 774 260 168 153 144 
377 667 258 188 183 191 
218 549 136 92 106 122 
310 119 239 140 73 11 
229 853 220 201 151 114 
371 758 289 175 154 137 
300 617 139 96 120 146 
325 229 208 103 90 90 
310 209 193 122 49 43 
198 958 289 110 77 51 
253 578 314 120 142 191 
181 924 271 85 72 61 
157 404 247 150 150 156 
205 700 277 101 96 103 
257 331 171 83 80 80 
310 817 243 222 163 130 
196 857 300 150 119 91 
324 365 235 96 108 145 
171 584 227 97 104 122 
208 343 365 142 143 150 
169 577 225 71 75 92 
211 763 136 165 168 190 
342 620 264 52 63 75 
236 833 295 137 109 78 
310 616 282 48 68 85 
251 937 323 78 63 53 
269 654 132 92 140 179 
248 838 267 132 101 69 
215 466 319 90 107 163 
319 694 196 162 180 202 
266 348 288 143 141 145 
379 648 352 70 68 69 
310 277 192 103 122 143 
255 352 169 103 105 111 
297 199 266 61 87 108 
192 102 299 91 79 68 
394 725 310 204 42 54 
177 171 268 142 71 83 
220 497 322 143 153 169 
161 634 126 79 110 143 
181 609 262 155 150 152 
177 132 344 78 71 65 
269 325 159 142 116 87 
309 493 315 108 118 158 
187 906 252 98 75 56 
156 614 204 112 126 144 
273 221 208 109 41 13 
157 257 310 109 118 131 
156 777 193 160 105 89 
269 802 266 183 131 107 
165 541 134 59 93 119 
224 599 125 95 114 135 
178 484 293 148 155 172 
191 407 342 129 134 169 
318 617 252 56 62 71 
320 371 202 58 99 131 
325 554 195 144 141 143 
265 315 279 88 61 69 
214 732 282 73 89 106 
327 256 209 116 127 142 
326 323 215 145 145 150 
334 745 305 170 148 129 
199 417 336 174 173 182 
210 368 205 57 84 108 
220 719 128 134 147 180 
166 165 282 158 71 56 
204 918 335 164 126 105 
190 771 247 171 144 119 
270 615 133 155 153 157 
162 822 163 174 19 52 
158 399 255 148 148 155 
210 597 291 118 144 175 
234 232 228 131 126 124 
263 763 285 204 151 122 
218 719 290 124 97 70 
166 213 356 142 140 143 
147 533 169 69 68 73 
296 299 285 105 128 152 
234 234 229 131 117 112 
351 688 251 163 141 153 
163 705 261 122 152 185 
212 534 313 100 121 149 
177 281 291 150 127 104 
307 776 286 180 139 108 
298 623 293 52 60 69 
238 834 282 128 91 65 
156 360 266 135 118 105 
162 222 351 147 145 150 
266 851 257 168 124 94 
275 845 215 213 162 131 
355 710 257 154 106 45 
271 161 206 122 39 38 
235 238 224 159 95 61 
297 178 269 106 40 55 
190 942 267 93 78 68 
134 634 156 146 102 78 
177 259 285 119 106 98 
162 205 353 143 139 141 
361 663 353 117 129 187 
294 134 251 104 82 91 
159 654 124 113 126 142 
157 188 346 114 35 60 
371 618 299 58 85 107 
314 159 210 51 72 90 
234 351 355 80 112 146 
169 741 128 88 96 136 
163 660 247 142 151 166 
421 644 342 165 169 180 
333 204 236 123 108 102 
269 614 308 53 64 74 
200 555 281 89 102 136 
221 170 299 104 99 103 
358 632 330 102 87 73 
299 319 187 142 71 88 
279 919 290 81 66 55 
317 372 195 53 98 130 
234 238 230 155 78 42 
208 807 146 203 127 83 
211 942 334 96 80 66 
323 766 297 181 140 112 
236 607 125 154 151 155 
165 670 174 122 130 143 
162 206 287 112 72 72 
232 232 233 118 125 137 
216 989 281 122 93 66 
247 338 314 78 113 141 
317 567 172 78 101 124 
211 20 323 150 101 88 
157 702 177 67 98 129 
299 798 206 130 131 137 
166 244 291 103 115 129 
170 320 351 174 74 11 
232 233 235 115 124 138 
183 883 293 130 106 79 
188 408 182 99 116 135 
158 366 249 130 116 105 
170 821 154 207 151 84 
377 623 296 44 67 86 
322 580 221 147 149 158 
160 159 283 160 64 63 
228 732 291 129 111 97 
200 832 165 186 166 152 
325 210 211 46 71 94 
174 290 361 145 144 148 
232 234 236 113 124 138 
320 554 301 112 129 148 
233 236 232 106 108 116 
196 265 278 104 109 117 
302 571 158 88 90 103 
258 61 219 106 85 63 
195 449 316 139 142 170 
150 778 157 119 147 175 
279 442 167 81 111 140 
192 107 310 108 95 85 
247 363 184 72 91 109 
160 484 279 95 114 161 
240 520 150 77 96 115 
329 322 257 106 127 150 
288 36 239 115 95 77 
130 473 144 101 92 84 
323 629 180 151 151 158 
333 303 236 117 108 107 
168 460 303 123 126 168 
266 711 141 130 158 191 
254 622 128 158 153 155 
262 91 225 98 79 59 
296 720 299 128 104 80 
207 879 254 115 77 41 
165 390 209 113 130 148 
254 308 285 76 105 131 
327 579 269 116 129 147 
283 323 169 120 88 95 
163 211 289 133 128 128 
236 727 130 149 166 194 
264 878 277 158 121 94 
170 505 190 71 92 123 
250 914 223 86 64 50 
297 542 175 95 105 116 
169 620 220 76 113 143 
306 338 192 134 92 45 
278 43 214 94 77 59 
304 571 159 85 102 118 
309 654 342 145 163 200 
263 654 306 71 116 150 
186 476 300 104 112 151 
152 367 252 107 105 111 
210 338 362 146 142 145 
202 820 152 66 38 86 
187 905 253 92 64 45 
194 492 148 67 102 147 
226 226 242 145 139 135 
227 562 312 48 67 114 
160 715 258 168 68 75 
308 238 266 102 111 125 
263 951 272 118 89 62 
269 393 163 68 106 149 
163 731 251 186 86 105 
239 294 229 78 101 121 
235 241 294 119 37 40 
419 665 316 62 93 119 
188 278 283 110 29 45 
187 131 324 90 84 79 
402 707 326 175 190 211 
214 544 287 106 126 149 
117 463 153 125 101 75 
289 551 180 113 119 128 
161 399 314 93 103 126 
332 620 252 86 90 97 
335 534 236 111 127 151 
227 412 349 138 111 81 
247 877 224 190 133 94 
307 658 170 123 144 171 
218 426 333 93 110 152 
264 701 304 118 108 103 
150 434 169 115 127 143 
237 268 303 139 83 20 
203 334 252 114 106 99 
158 706 259 132 55 69 
227 229 243 138 134 137 
262 128 208 144 99 39 
368 675 354 114 148 181 
208 659 283 116 77 57 
