ply
format ascii 1.0
comment Created by CloudCompare v2.11.1 (Anoia)
comment Created 2/28/22 9:43 PM
obj_info Generated by CloudCompare!
element vertex 1997
property float x
property float y
property float z
property uchar red
property uchar green
property uchar blue
end_header
162 763 257 87 47 60 
179 836 180 198 170 148 
374 771 281 177 150 124 
395 668 323 89 115 160 
289 475 319 99 118 154 
195 396 337 129 143 164 
122 679 160 33 30 37 
425 666 317 103 134 169 
216 843 281 118 91 66 
314 200 207 113 93 97 
306 819 258 216 159 126 
260 915 243 97 78 56 
296 84 191 179 121 101 
176 10 298 103 91 80 
261 439 154 155 158 175 
302 283 168 76 116 147 
265 894 276 95 75 59 
268 281 216 108 103 101 
194 43 288 99 82 65 
219 346 355 127 125 163 
228 391 332 136 125 124 
164 630 245 95 112 146 
163 447 304 89 114 145 
162 576 176 49 90 117 
253 513 167 166 170 182 
234 223 281 94 43 20 
330 807 231 201 142 112 
222 493 155 130 145 173 
310 755 291 151 133 118 
226 551 152 57 82 104 
158 714 149 129 144 166 
200 171 375 136 117 100 
236 644 137 182 176 179 
329 411 264 59 96 138 
220 165 281 109 78 36 
153 601 176 46 72 94 
107 436 229 84 111 145 
111 387 237 47 77 101 
179 10 301 106 94 84 
178 10 302 110 99 90 
167 264 290 135 15 59 
261 395 144 106 131 158 
290 704 141 133 162 205 
305 321 181 155 155 162 
277 273 158 88 64 51 
352 777 286 135 120 109 
276 131 259 117 87 43 
230 393 328 99 95 96 
168 416 197 45 83 113 
158 792 159 165 192 223 
394 683 244 38 72 135 
147 682 194 94 106 129 
182 10 297 95 82 68 
331 682 281 149 94 98 
242 940 338 89 69 56 
181 346 225 105 103 103 
275 787 180 101 87 81 
224 926 348 140 106 83 
171 736 284 230 192 148 
195 284 259 85 94 105 
205 157 321 96 68 26 
181 10 300 101 89 78 
217 886 250 157 117 84 
333 810 240 223 158 124 
146 786 227 138 115 89 
127 490 241 119 137 178 
225 183 280 120 51 35 
182 10 300 101 88 77 
119 374 254 107 93 80 
266 543 169 82 94 107 
306 600 294 148 143 144 
324 442 200 118 135 156 
313 515 305 140 152 169 
221 996 307 63 45 38 
173 733 287 168 50 60 
202 227 354 96 55 61 
242 860 216 229 167 130 
201 956 337 86 70 55 
315 515 304 146 152 166 
232 370 181 110 116 125 
200 612 291 169 165 169 
192 763 278 88 73 67 
231 581 141 97 112 130 
155 658 194 119 127 141 
262 122 226 86 68 48 
263 307 208 77 92 107 
139 542 229 66 88 125 
238 526 323 76 99 142 
160 230 300 89 70 80 
302 607 292 74 110 138 
357 669 308 146 171 198 
280 511 275 127 140 162 
165 438 188 109 118 130 
304 715 188 129 116 114 
259 235 247 120 40 36 
167 246 288 87 101 118 
236 458 150 118 134 166 
176 619 153 122 139 168 
191 842 216 165 138 123 
169 698 153 141 145 156 
263 179 213 110 35 16 
280 787 185 153 134 119 
317 561 305 114 121 132 
336 696 283 179 161 155 
176 557 272 100 135 166 
175 909 329 167 129 106 
215 918 351 184 138 116 
185 399 198 70 97 119 
252 720 315 125 103 85 
188 11 288 103 83 60 
239 634 307 98 64 63 
250 640 131 162 162 170 
179 882 305 165 127 99 
232 560 148 88 100 114 
327 537 286 171 168 172 
237 239 318 135 99 80 
313 593 205 107 130 162 
192 539 156 87 103 120 
183 614 279 116 132 150 
316 415 183 77 109 150 
242 849 295 146 106 77 
419 708 262 138 151 175 
191 11 289 106 86 63 
193 783 267 63 43 41 
257 402 143 83 117 156 
270 672 130 115 147 190 
93 474 199 67 97 124 
213 573 145 117 125 136 
291 513 307 101 113 163 
303 531 197 72 99 124 
273 795 278 200 140 115 
255 877 232 189 128 91 
267 430 302 80 101 130 
213 665 297 212 157 82 
224 998 302 55 40 25 
183 825 228 158 150 148 
255 481 338 117 140 186 
191 10 292 105 86 65 
183 524 162 99 109 123 
264 119 217 111 86 57 
190 10 295 103 85 67 
246 539 162 101 108 118 
242 429 145 101 132 189 
184 510 300 186 187 195 
272 263 169 81 123 158 
377 741 294 164 130 110 
193 271 349 113 126 142 
369 747 292 196 178 168 
215 874 246 177 131 97 
298 309 270 119 94 64 
185 10 299 99 85 72 
241 439 330 100 117 151 
283 783 184 165 152 145 
180 945 282 98 81 70 
261 931 254 76 58 43 
213 506 306 102 120 153 
137 351 257 116 84 50 
266 376 300 109 120 136 
271 160 204 147 55 6 
249 990 281 184 143 101 
233 976 268 101 78 47 
141 599 184 66 58 57 
272 321 171 90 83 85 
307 772 205 129 115 105 
226 951 254 140 102 60 
285 529 247 135 144 159 
262 118 223 98 77 52 
180 843 204 210 157 79 
310 530 201 65 93 125 
326 567 253 105 118 144 
222 752 291 165 96 113 
361 744 239 101 97 96 
91 423 235 63 102 151 
73 464 216 74 112 160 
194 564 292 160 166 179 
147 767 154 139 155 196 
263 671 131 135 150 189 
181 382 328 87 109 135 
319 628 214 99 107 117 
297 153 240 54 80 100 
324 685 202 157 165 182 
189 10 298 101 86 72 
155 661 236 89 108 140 
302 702 156 89 145 186 
264 168 213 96 77 76 
189 156 369 85 72 62 
246 940 336 87 70 60 
190 10 298 103 87 73 
295 82 221 119 99 79 
327 434 275 100 115 133 
126 706 166 92 115 139 
222 362 348 84 122 157 
168 321 256 81 27 42 
232 201 272 91 36 65 
205 915 351 190 145 127 
185 831 175 88 91 97 
64 500 187 129 95 78 
294 473 316 90 112 145 
308 602 214 126 125 130 
217 244 260 124 118 116 
248 390 351 201 166 127 
151 812 169 152 37 51 
232 340 208 108 114 122 
154 511 274 146 151 163 
237 391 327 112 82 75 
191 10 302 111 98 88 
260 964 303 129 96 67 
176 10 304 116 105 97 
176 10 305 117 106 99 
201 33 300 135 124 118 
324 556 233 86 117 148 
247 330 351 140 159 183 
141 782 163 128 152 192 
113 644 174 144 100 75 
177 10 307 117 106 100 
147 542 247 97 71 72 
234 398 162 38 77 106 
177 233 337 101 120 141 
194 416 178 125 128 135 
242 352 349 174 136 100 
149 560 240 80 129 167 
179 10 306 114 104 97 
328 698 284 122 75 97 
176 10 308 118 107 101 
234 867 325 142 108 78 
258 257 228 119 76 55 
127 491 231 71 70 85 
136 430 255 146 148 156 
176 10 311 117 107 101 
176 11 310 118 108 102 
305 75 198 157 110 63 
290 268 265 58 81 102 
258 90 233 79 65 51 
360 717 287 117 134 155 
258 346 334 156 153 159 
196 698 150 175 172 181 
303 132 199 125 77 34 
89 492 177 89 77 65 
273 412 158 134 143 156 
134 810 181 188 31 53 
285 763 288 190 141 108 
271 899 271 103 87 75 
244 853 290 144 104 74 
312 622 303 87 82 79 
248 289 280 126 118 115 
249 438 344 85 95 143 
308 626 264 43 64 81 
181 10 306 112 102 95 
313 347 269 134 57 88 
313 713 210 156 165 178 
145 534 246 105 121 140 
244 264 324 124 3 51 
154 581 208 135 132 138 
182 10 306 111 101 95 
260 730 146 167 155 173 
397 672 323 89 120 164 
304 301 182 91 110 131 
85 479 210 82 123 169 
330 796 225 138 125 117 
211 963 336 132 102 70 
214 807 170 89 65 70 
265 541 184 101 107 114 
122 684 166 93 127 156 
287 443 313 52 89 133 
201 654 147 94 102 123 
203 584 295 156 162 175 
223 658 302 167 128 96 
154 343 280 128 114 102 
200 318 234 125 123 125 
321 247 214 155 72 7 
211 187 360 110 124 137 
408 674 248 78 110 152 
255 777 288 206 152 124 
166 135 331 93 105 119 
423 705 264 107 138 178 
212 484 156 91 119 173 
296 567 308 149 160 182 
292 75 224 117 97 77 
190 776 270 123 97 74 
160 156 315 109 75 73 
310 216 258 85 64 91 
266 422 310 122 132 144 
252 711 316 154 134 116 
223 363 194 118 123 131 
297 745 295 102 81 64 
173 215 330 130 129 135 
176 291 328 142 23 52 
317 390 270 82 107 135 
271 705 138 88 155 203 
134 733 151 136 160 203 
263 391 330 176 84 7 
182 627 151 174 170 177 
264 550 195 119 121 126 
161 597 206 124 119 120 
177 11 316 117 107 102 
223 453 311 98 107 124 
314 626 220 73 82 92 
177 222 275 73 105 133 
250 808 181 185 159 135 
179 11 317 118 108 103 
407 678 320 108 124 169 
226 545 300 82 97 127 
295 538 313 175 174 182 
329 663 305 90 125 155 
150 574 206 113 109 123 
159 676 234 120 127 146 
268 203 245 29 48 78 
265 890 263 111 80 60 
238 530 162 71 94 114 
138 441 259 127 135 149 
329 663 304 109 137 164 
213 644 308 197 150 80 
165 672 266 56 102 133 
330 788 224 154 141 132 
315 410 181 79 110 149 
244 415 335 121 101 81 
259 355 334 138 140 148 
282 533 238 117 124 136 
180 11 314 117 107 102 
192 701 151 162 160 169 
316 325 199 153 153 159 
247 263 268 121 39 74 
220 693 145 178 165 165 
326 810 273 204 141 112 
166 142 256 164 72 8 
191 688 291 156 51 64 
274 403 304 95 97 104 
159 164 307 93 79 94 
182 11 315 119 108 103 
239 600 137 147 144 147 
201 196 265 119 92 100 
307 137 207 135 67 9 
189 860 299 136 105 75 
304 131 201 123 79 44 
243 533 326 143 159 182 
228 838 191 194 170 153 
165 206 281 70 98 123 
179 745 157 83 108 154 
294 285 152 104 131 160 
324 410 253 51 89 125 
273 912 254 53 44 43 
213 849 234 191 139 113 
213 216 359 105 93 101 
246 837 268 138 104 74 
126 433 204 141 145 154 
239 394 157 59 80 98 
226 989 270 133 94 67 
183 11 319 123 111 104 
415 727 289 200 153 168 
279 537 230 122 123 128 
334 630 266 32 94 135 
169 683 291 84 112 137 
161 585 183 28 78 109 
293 466 180 80 118 157 
117 499 202 86 113 142 
236 660 138 89 140 182 
318 338 246 149 81 102 
390 651 313 110 90 70 
186 10 305 111 100 92 
136 787 198 121 76 71 
209 179 364 161 66 3 
372 697 246 139 146 170 
145 535 189 86 105 135 
318 248 253 143 140 142 
183 238 341 76 110 138 
253 980 298 133 109 82 
211 784 162 97 83 120 
185 10 308 114 104 98 
185 10 309 115 105 99 
98 470 231 71 86 103 
307 683 147 181 178 185 
371 745 293 116 111 111 
206 283 253 73 92 111 
155 739 271 149 63 81 
231 215 319 103 50 64 
293 656 313 60 111 147 
96 515 173 107 103 102 
224 750 292 177 169 167 
251 710 316 175 153 133 
273 263 168 77 121 156 
278 756 291 188 139 106 
269 898 279 80 64 52 
238 627 307 160 122 108 
213 853 259 140 104 77 
178 174 346 95 102 113 
226 468 311 71 82 120 
151 540 162 106 121 139 
263 703 138 79 153 208 
189 10 307 116 105 98 
314 821 254 228 169 135 
113 561 163 100 102 108 
175 904 326 156 118 91 
119 756 161 135 147 176 
167 706 291 86 119 147 
364 786 275 138 152 169 
204 158 359 131 77 23 
118 489 221 83 134 172 
319 366 236 81 102 142 
283 54 203 110 92 72 
318 365 196 117 127 142 
164 184 279 41 65 97 
260 785 285 203 148 124 
389 636 291 107 122 140 
292 566 175 140 136 136 
303 437 180 110 130 156 
157 706 232 65 93 120 
296 810 205 143 143 148 
222 842 192 215 201 194 
281 799 192 174 149 128 
216 261 351 71 52 64 
129 424 205 102 119 139 
315 326 202 150 152 159 
200 317 235 132 129 129 
280 531 182 69 89 108 
246 940 253 100 73 36 
81 482 187 103 99 98 
160 712 150 159 157 168 
320 382 202 108 130 154 
291 535 240 118 126 138 
205 873 263 142 104 75 
195 860 278 129 100 73 
189 813 245 141 129 126 
229 848 313 128 103 77 
254 326 337 160 156 159 
135 773 194 114 138 164 
270 732 148 175 191 215 
310 529 202 72 98 127 
186 10 314 121 109 103 
186 761 277 138 142 150 
279 140 183 136 100 74 
136 388 211 113 122 135 
126 553 161 67 91 112 
169 318 257 77 8 30 
81 448 210 107 110 116 
167 143 271 73 62 73 
258 280 255 142 139 142 
293 836 242 219 159 130 
185 11 318 124 111 103 
307 626 169 82 85 91 
306 163 186 70 91 112 
218 382 182 64 92 114 
172 709 293 81 139 181 
315 815 267 204 146 114 
283 485 179 96 124 156 
157 136 307 106 98 96 
188 154 345 105 65 31 
216 990 272 141 100 71 
309 161 233 112 96 94 
137 680 192 90 108 144 
175 298 310 113 110 122 
125 441 245 96 117 140 
320 462 289 116 129 147 
360 779 245 180 145 106 
300 244 267 79 114 142 
171 368 213 99 94 91 
260 13 203 164 144 132 
224 442 313 54 70 108 
295 757 185 79 80 109 
190 10 313 122 109 102 
332 519 241 139 146 160 
191 10 313 122 109 101 
243 539 161 102 112 123 
190 10 315 123 109 101 
249 368 169 96 102 111 
155 711 205 87 106 126 
286 400 167 84 112 141 
152 812 223 145 128 114 
189 688 151 180 174 177 
118 558 162 71 97 123 
194 642 296 63 75 86 
194 409 182 73 94 113 
310 482 302 103 116 142 
285 535 230 121 123 129 
262 378 331 181 152 121 
325 760 289 102 123 145 
168 217 321 81 53 69 
214 238 261 95 84 101 
191 10 316 123 108 100 
307 623 271 52 69 85 
163 670 206 27 47 105 
213 345 355 114 124 159 
411 684 318 110 130 173 
150 604 178 53 63 73 
299 273 270 123 121 125 
245 662 307 168 103 91 
173 420 319 116 128 151 
177 27 319 156 141 139 
263 401 146 84 114 154 
351 770 288 148 110 115 
255 368 143 89 109 130 
182 266 277 110 107 107 
225 806 269 187 137 119 
230 845 310 135 109 82 
282 587 146 83 85 93 
359 775 286 173 157 145 
395 661 237 78 101 139 
241 504 326 112 126 147 
308 628 205 47 66 87 
124 632 154 133 109 86 
363 673 306 140 168 199 
366 637 299 87 81 77 
159 485 293 84 106 157 
158 356 293 126 106 87 
312 199 195 106 91 99 
263 158 209 163 72 17 
124 489 236 100 120 151 
285 542 183 95 104 114 
307 758 203 158 128 95 
307 131 209 131 65 11 
159 203 293 77 99 118 
242 295 348 154 150 151 
264 246 206 95 79 92 
136 652 188 138 104 90 
302 298 180 94 122 147 
298 721 163 153 167 186 
254 891 312 160 118 90 
275 150 193 161 62 1 
178 29 316 163 137 137 
232 257 354 144 97 89 
276 557 177 135 133 134 
308 641 139 144 146 156 
283 665 128 107 126 180 
186 327 234 144 126 108 
303 276 171 89 123 153 
178 781 258 159 136 116 
299 73 216 134 111 93 
193 817 168 99 99 113 
266 347 274 136 134 137 
206 803 262 175 126 109 
289 113 202 97 80 62 
271 941 288 72 57 48 
250 873 228 247 182 144 
142 528 240 73 74 79 
181 884 288 142 105 80 
183 565 278 81 130 164 
275 279 186 120 117 119 
234 391 168 69 96 120 
190 986 305 152 124 97 
288 462 319 103 120 158 
115 569 164 105 108 123 
185 401 198 65 91 113 
179 309 250 128 113 98 
145 466 277 67 91 151 
235 556 321 97 128 176 
122 679 173 77 99 155 
61 502 202 142 101 87 
374 646 316 116 94 69 
180 30 314 163 144 135 
275 638 127 94 112 136 
160 349 298 151 135 129 
180 911 271 88 63 51 
256 896 311 148 111 82 
176 901 328 157 121 96 
208 347 212 122 120 122 
245 323 352 141 157 178 
182 31 312 126 99 90 
182 31 313 138 116 107 
265 811 272 184 133 110 
223 149 259 103 93 84 
313 200 199 96 89 99 
183 30 314 174 156 149 
232 521 318 78 93 139 
331 790 283 187 141 107 
297 462 182 128 144 166 
176 746 155 127 130 154 
240 394 155 44 69 89 
230 917 346 142 110 84 
182 955 291 124 99 80 
329 466 276 55 86 137 
334 656 325 92 122 190 
281 549 182 135 132 132 
258 141 250 108 91 82 
151 762 249 193 159 115 
288 341 269 120 80 19 
308 309 266 134 51 67 
271 356 276 129 129 134 
111 475 245 145 155 170 
128 770 162 162 171 210 
199 266 270 112 110 111 
98 489 209 58 105 147 
178 295 331 175 147 118 
322 238 226 120 130 143 
164 700 288 87 132 168 
305 357 175 142 144 152 
271 271 195 113 110 112 
291 361 274 145 104 47 
161 670 280 121 136 155 
164 706 151 112 126 154 
275 807 194 163 150 145 
186 27 319 156 142 138 
280 17 238 127 115 108 
287 180 197 64 45 54 
155 609 183 62 82 115 
231 508 304 72 97 144 
251 953 263 105 76 55 
269 513 285 114 127 156 
317 379 211 70 113 146 
282 224 170 111 34 13 
100 540 201 167 126 106 
184 30 312 151 135 128 
318 738 216 131 111 93 
280 418 309 76 102 127 
317 307 212 150 148 152 
350 678 285 118 100 119 
300 409 174 67 104 143 
129 550 172 40 63 83 
307 141 226 129 81 44 
149 537 253 117 135 162 
257 71 214 120 96 72 
264 431 153 129 142 164 
298 135 188 141 79 32 
222 452 311 119 126 139 
271 922 286 78 64 54 
332 484 250 83 112 143 
308 140 204 128 73 29 
326 542 289 164 162 167 
187 758 156 150 154 182 
199 949 258 113 88 58 
264 519 174 126 136 155 
124 657 159 141 100 73 
268 571 153 133 129 127 
281 360 276 143 120 95 
204 681 147 88 136 174 
321 313 247 160 123 81 
315 659 157 142 145 155 
317 356 185 81 115 145 
200 982 272 134 103 75 
219 563 299 115 133 153 
447 672 309 171 180 198 
113 530 182 45 63 78 
320 223 241 115 29 55 
188 26 319 171 152 149 
292 766 184 137 125 118 
253 848 267 156 116 84 
250 560 154 95 106 118 
207 182 366 176 77 5 
145 769 214 112 122 131 
270 822 200 134 137 149 
298 459 305 114 126 143 
271 634 317 175 120 113 
219 462 150 105 132 184 
159 680 254 77 100 127 
147 488 279 114 129 154 
172 927 297 89 74 64 
190 26 318 173 153 148 
232 982 323 150 122 91 
191 26 318 175 152 150 
172 391 310 71 96 124 
102 448 225 87 112 138 
214 878 248 156 114 84 
260 341 322 113 127 144 
261 628 316 174 125 116 
200 999 296 178 156 139 
241 368 177 101 110 121 
318 362 203 118 135 155 
138 817 198 144 130 116 
176 910 287 67 55 44 
157 547 257 80 125 161 
324 411 253 61 95 126 
257 956 272 126 93 60 
323 314 241 160 119 65 
96 415 224 62 87 108 
176 549 275 83 134 172 
251 294 308 82 107 129 
191 147 356 123 79 27 
257 88 221 112 91 68 
301 706 159 138 159 183 
243 261 324 94 85 93 
191 28 315 127 103 112 
157 521 167 82 102 125 
131 728 176 117 135 158 
153 836 208 143 126 114 
158 699 234 61 92 139 
163 35 271 123 108 94 
187 586 280 72 115 150 
340 697 283 153 49 73 
320 772 283 184 137 106 
296 589 306 174 173 181 
261 556 175 103 112 124 
327 570 278 148 143 143 
254 558 320 56 67 106 
162 38 269 127 113 102 
183 872 296 131 99 73 
198 15 334 153 121 103 
366 685 237 186 187 202 
276 823 204 152 106 74 
279 352 155 167 112 87 
311 273 188 133 133 138 
268 848 219 215 160 128 
174 587 154 93 117 144 
145 627 152 63 87 111 
298 834 230 237 173 138 
299 769 195 143 128 120 
195 817 169 57 105 142 
219 389 339 86 94 148 
306 132 206 128 64 14 
263 722 315 185 153 121 
292 287 266 108 107 111 
347 677 284 163 79 87 
301 755 291 123 91 69 
164 781 247 136 112 101 
205 755 284 153 126 99 
150 719 205 97 113 134 
308 452 186 149 158 175 
124 400 252 66 97 154 
233 364 335 48 58 71 
333 479 263 158 154 157 
400 648 248 37 72 98 
218 421 324 112 117 150 
134 354 258 122 66 8 
247 902 328 112 88 70 
258 851 264 153 113 85 
316 661 308 127 153 180 
328 546 273 79 107 139 
329 627 273 74 102 126 
126 491 229 47 66 90 
197 483 310 108 127 168 
308 616 190 117 119 125 
122 449 246 101 121 142 
167 39 267 120 104 88 
288 315 264 98 105 116 
135 739 186 119 131 153 
263 207 191 59 54 60 
223 532 159 90 103 117 
308 626 192 58 78 95 
309 249 263 98 70 78 
231 910 238 95 70 57 
242 375 344 166 136 103 
173 772 260 108 86 71 
319 454 287 160 158 161 
166 36 268 122 105 89 
123 630 189 143 107 86 
248 763 294 204 150 122 
234 865 221 230 157 108 
218 185 347 108 101 99 
378 668 233 179 177 187 
148 617 185 61 60 63 
189 660 150 86 133 172 
300 290 167 98 95 97 
346 701 234 146 153 164 
168 188 318 117 13 54 
317 628 213 93 101 112 
163 46 263 126 113 101 
242 994 275 160 126 89 
244 270 289 163 144 125 
256 500 333 87 122 184 
309 429 181 82 109 149 
305 69 207 141 97 63 
165 42 262 124 107 90 
158 500 285 177 181 192 
134 479 268 121 137 158 
166 42 262 125 107 89 
280 220 174 107 37 13 
167 425 193 83 104 125 
244 521 326 148 162 184 
121 522 184 56 90 118 
120 455 247 140 145 156 
254 346 343 102 123 146 
274 349 148 154 77 88 
201 512 303 51 67 138 
411 731 265 170 54 35 
228 881 334 136 110 92 
277 137 185 137 121 107 
309 702 199 146 151 162 
319 361 233 136 141 152 
291 543 185 74 91 107 
135 648 189 137 103 87 
201 266 352 78 116 146 
329 735 287 183 161 142 
143 532 243 85 87 95 
183 431 326 104 117 152 
233 969 322 84 62 45 
350 768 288 124 124 129 
378 644 308 111 91 71 
317 340 259 122 99 114 
148 722 241 118 138 160 
207 994 305 123 94 62 
274 849 252 194 146 114 
80 529 189 202 142 125 
181 160 268 102 57 82 
167 44 261 123 106 88 
212 647 143 75 124 164 
86 440 229 88 122 174 
167 44 262 123 106 88 
308 473 300 137 142 153 
206 716 151 186 180 185 
240 813 181 188 161 133 
217 440 151 69 97 121 
151 509 268 78 108 151 
163 40 267 123 109 96 
251 835 200 129 102 78 
229 695 300 111 84 72 
208 938 350 85 68 54 
81 491 177 92 81 71 
325 814 232 223 163 128 
323 662 306 113 143 172 
163 43 264 124 110 96 
150 657 151 87 112 139 
201 859 332 148 117 96 
194 199 273 120 98 97 
232 373 180 68 89 108 
193 574 287 141 150 165 
130 558 172 34 58 81 
261 901 311 95 67 46 
307 304 182 95 110 127 
90 483 209 74 118 159 
294 582 306 110 138 175 
268 510 310 140 152 176 
162 41 270 135 123 114 
216 391 340 90 114 163 
158 786 239 114 98 94 
268 428 304 71 96 129 
259 427 342 144 126 110 
201 147 334 118 75 19 
168 143 334 78 88 105 
75 518 174 205 142 133 
410 730 263 181 41 60 
328 567 269 125 129 138 
206 160 313 87 71 60 
148 500 265 106 134 167 
279 465 314 69 90 116 
178 198 277 65 103 135 
273 274 176 118 119 125 
194 784 160 135 109 107 
290 617 134 85 108 130 
201 697 149 189 179 184 
284 23 237 92 80 71 
329 481 220 158 158 167 
205 127 258 122 80 30 
168 612 262 108 125 146 
162 46 265 125 111 100 
188 332 232 141 127 115 
327 573 266 109 118 132 
277 538 178 94 99 106 
163 47 265 128 114 104 
326 451 206 100 122 146 
193 62 299 106 85 61 
328 682 205 138 139 147 
163 46 267 128 115 105 
134 430 203 103 118 135 
147 650 197 40 67 115 
308 799 209 150 136 127 
276 361 154 139 147 162 
96 428 210 104 114 127 
280 550 191 140 134 132 
111 442 203 90 112 150 
118 381 259 134 121 108 
140 790 208 148 25 56 
199 401 185 89 104 121 
167 347 303 143 124 106 
103 501 190 88 104 120 
306 130 207 125 75 35 
278 728 306 98 86 86 
194 644 289 51 63 77 
266 644 127 142 155 177 
163 46 270 130 118 109 
163 46 271 130 118 110 
315 542 208 97 110 129 
119 690 154 85 115 147 
185 818 168 212 82 93 
125 480 259 131 143 160 
160 468 297 91 109 147 
306 317 271 113 34 52 
164 40 267 120 106 93 
198 497 306 158 173 195 
389 740 251 162 26 57 
302 707 166 102 133 161 
117 734 153 100 127 157 
180 232 275 79 114 144 
167 41 264 122 105 87 
262 124 227 86 69 49 
165 210 282 67 101 129 
313 238 192 134 136 143 
174 834 179 126 141 157 
180 376 325 69 94 128 
164 47 268 131 118 107 
142 482 274 100 123 147 
282 23 240 93 75 59 
169 216 322 94 60 66 
302 181 253 119 40 59 
303 388 275 85 103 131 
180 128 257 98 56 22 
160 562 186 69 80 108 
295 41 223 114 103 94 
170 398 310 98 112 134 
243 781 286 203 151 123 
168 35 269 120 103 85 
302 77 213 133 108 87 
169 35 269 119 102 84 
357 722 287 87 94 103 
171 162 338 113 78 92 
277 513 312 159 154 155 
126 741 153 78 118 209 
261 943 317 98 80 60 
283 536 236 118 123 132 
181 953 313 94 75 62 
185 505 301 125 141 162 
275 532 193 98 104 112 
171 35 269 117 101 84 
159 216 296 77 106 133 
155 647 239 94 116 141 
224 574 301 115 128 143 
87 495 173 103 89 76 
238 576 319 105 125 154 
184 332 331 153 83 54 
297 539 312 185 181 187 
328 459 250 87 116 143 
169 39 267 118 102 85 
286 217 179 81 48 42 
353 674 292 124 151 179 
260 72 238 95 78 60 
309 803 272 181 132 100 
430 701 268 95 126 160 
185 344 224 95 111 128 
282 812 200 147 131 120 
273 934 302 78 61 47 
316 350 182 108 126 145 
226 841 286 109 86 63 
218 185 331 104 113 123 
237 916 235 94 71 51 
289 484 181 102 128 157 
175 905 327 158 121 95 
356 696 285 153 79 74 
266 69 206 129 104 78 
316 395 181 85 112 144 
352 709 285 79 30 71 
180 931 264 134 111 92 
150 703 258 124 140 159 
217 618 297 140 131 133 
201 992 308 161 131 102 
280 910 267 94 79 65 
172 34 270 115 100 83 
135 603 155 26 54 79 
186 536 292 121 141 167 
239 313 351 133 112 116 
128 727 175 116 130 159 
198 605 145 168 166 171 
313 212 200 113 94 89 
185 254 277 94 86 80 
155 552 186 72 94 125 
190 260 347 86 91 103 
232 422 145 52 93 133 
207 680 146 81 132 173 
219 352 207 106 115 127 
214 941 349 81 66 53 
318 364 199 107 124 145 
262 572 154 135 131 130 
294 655 319 100 134 170 
151 546 186 55 83 121 
150 759 221 167 101 104 
396 682 244 76 114 173 
126 487 252 107 129 174 
89 468 198 74 99 122 
196 857 277 127 101 72 
337 697 283 168 127 103 
203 142 290 99 76 52 
312 655 324 91 110 199 
216 349 354 125 135 162 
165 721 151 81 85 113 
212 299 356 139 139 145 
269 780 170 146 118 95 
127 377 267 127 114 102 
148 731 262 139 98 104 
247 613 308 116 94 96 
288 443 294 61 92 126 
158 513 169 139 139 145 
179 328 326 159 76 27 
229 339 211 117 120 125 
353 798 264 206 143 110 
164 667 284 120 135 153 
320 648 172 198 197 208 
257 357 149 87 99 113 
238 839 196 163 150 144 
261 239 248 129 34 18 
186 928 341 139 110 95 
173 544 274 72 126 165 
232 579 312 83 124 170 
179 843 199 201 167 134 
228 877 333 169 133 109 
178 892 326 95 80 66 
243 378 335 154 125 93 
169 47 260 125 108 90 
147 736 252 100 125 147 
211 522 160 104 116 131 
265 552 176 108 114 123 
103 449 201 104 122 145 
300 761 287 179 131 97 
158 677 272 101 117 135 
235 576 318 129 156 189 
140 512 235 88 87 94 
287 230 263 74 19 35 
287 571 309 213 201 198 
170 46 262 122 105 86 
320 557 222 162 162 170 
319 208 220 135 91 82 
144 372 276 154 117 129 
215 443 151 73 98 120 
321 530 297 121 136 155 
296 659 295 87 133 171 
262 720 315 173 142 111 
140 755 155 133 158 199 
171 316 258 68 56 46 
180 941 326 93 75 65 
195 846 199 206 177 148 
292 497 313 88 113 152 
169 41 265 122 104 85 
257 325 315 76 113 145 
172 329 233 147 127 107 
268 317 262 91 94 101 
264 472 164 165 168 184 
266 267 218 72 80 91 
154 733 227 140 154 172 
299 346 268 144 112 72 
158 135 313 101 94 105 
303 172 178 45 58 72 
229 789 168 221 181 124 
205 783 273 96 94 96 
346 761 233 109 100 95 
294 371 276 110 116 126 
403 636 284 96 108 121 
221 844 262 119 88 62 
294 107 203 110 90 69 
170 43 264 122 105 86 
206 440 323 171 168 174 
132 760 178 109 123 149 
322 458 198 171 170 177 
171 42 266 120 103 86 
166 220 281 104 102 103 
100 435 204 139 144 154 
142 585 173 34 52 67 
407 739 281 186 39 56 
301 231 266 119 41 69 
276 140 185 146 126 107 
173 40 267 108 93 77 
143 531 198 95 115 144 
306 203 172 127 77 48 
166 335 306 128 65 18 
311 164 217 125 107 91 
284 577 307 196 191 195 
172 43 266 113 97 81 
175 905 296 127 98 73 
271 941 287 71 54 46 
156 574 199 77 80 92 
182 323 331 119 107 113 
249 495 161 103 121 177 
174 42 267 117 106 96 
207 212 362 110 111 115 
336 801 232 127 118 114 
245 971 313 73 56 42 
310 212 188 66 105 135 
212 339 357 123 137 156 
317 372 184 106 124 145 
319 585 234 116 129 146 
234 770 288 195 148 124 
322 266 231 150 142 139 
321 232 236 145 138 133 
108 546 196 135 106 94 
297 350 269 153 125 92 
298 547 210 118 122 130 
269 586 311 120 146 181 
317 354 253 110 118 136 
183 496 304 169 176 193 
170 148 268 84 82 87 
316 352 225 128 138 154 
138 355 272 118 70 32 
244 417 143 105 119 173 
290 124 238 105 95 87 
299 309 179 160 156 158 
305 598 295 141 138 143 
225 844 277 104 83 59 
116 651 182 163 114 95 
380 705 250 131 153 177 
308 741 292 139 136 138 
195 629 287 167 160 160 
246 578 141 129 126 126 
308 305 182 87 101 116 
269 283 212 99 96 96 
262 759 156 152 11 41 
310 622 141 105 125 146 
380 683 311 127 163 197 
313 698 202 129 157 187 
237 346 342 77 69 65 
240 772 289 208 156 129 
183 510 163 101 119 161 
296 547 219 116 120 126 
298 804 267 197 143 112 
267 728 145 167 190 216 
317 374 184 88 112 138 
175 47 269 118 103 92 
218 270 350 79 70 84 
150 574 224 99 113 157 
212 216 360 103 92 99 
248 317 350 111 124 141 
200 157 363 123 74 23 
205 718 292 122 106 102 
192 855 291 130 100 72 
168 631 257 59 69 88 
263 443 156 152 160 176 
242 361 340 79 79 90 
197 561 294 124 139 159 
272 581 147 89 108 126 
356 651 218 193 192 202 
302 479 188 85 117 159 
105 584 175 135 100 70 
186 961 301 107 87 70 
238 693 142 172 172 184 
250 827 264 158 107 84 
291 193 191 82 36 24 
162 35 274 128 115 103 
149 618 186 40 50 62 
292 525 190 70 91 111 
218 724 150 141 158 187 
405 726 259 158 172 188 
256 239 223 120 46 69 
119 661 178 169 118 98 
246 980 314 122 95 69 
274 558 317 105 127 164 
250 303 297 116 120 127 
272 144 194 125 110 98 
329 560 271 105 118 134 
141 361 231 104 91 77 
175 920 285 80 65 54 
161 35 278 137 125 117 
285 356 274 127 96 63 
205 264 263 118 116 117 
320 376 195 95 120 145 
253 711 317 160 143 130 
259 74 238 91 74 55 
260 471 339 97 129 180 
282 543 215 119 121 125 
76 481 189 84 85 87 
199 21 323 131 95 73 
254 754 155 157 179 206 
213 432 323 143 147 163 
161 38 273 137 125 115 
168 680 290 110 140 168 
290 158 260 91 61 61 
145 390 212 83 104 129 
132 407 251 87 111 147 
107 539 167 161 155 157 
272 899 271 115 99 86 
162 36 272 129 115 102 
296 666 130 115 135 199 
308 395 176 72 102 136 
252 656 318 161 123 77 
162 39 272 135 123 114 
261 329 191 95 90 88 
334 737 287 161 141 126 
188 351 215 95 89 84 
270 797 182 170 150 134 
265 327 186 95 84 79 
178 183 276 155 88 53 
336 806 239 207 149 112 
114 588 165 117 88 58 
196 275 268 81 91 102 
256 811 185 193 165 141 
286 518 281 147 154 169 
196 448 163 77 101 124 
170 386 303 71 95 121 
254 409 144 109 132 163 
106 483 231 74 76 108 
296 489 316 125 133 155 
308 501 307 146 152 165 
333 799 228 137 126 121 
242 984 318 124 100 77 
190 872 314 149 114 90 
241 292 349 101 42 58 
304 83 195 170 120 96 
338 660 317 153 183 216 
280 303 262 68 88 108 
165 32 272 121 105 88 
283 901 271 151 131 113 
186 196 276 69 109 142 
391 751 286 125 110 116 
174 936 310 116 90 77 
345 718 236 153 36 42 
290 256 266 65 86 104 
441 669 313 173 184 204 
120 606 191 138 104 83 
318 755 290 99 98 100 
264 399 328 157 128 101 
107 545 198 144 111 98 
207 641 309 65 62 138 
221 198 348 135 89 81 
242 962 266 147 114 79 
250 624 311 141 102 99 
247 705 141 76 144 199 
297 566 174 146 141 141 
287 667 293 37 64 130 
228 209 288 90 41 44 
234 358 337 50 57 66 
283 366 167 114 123 136 
203 791 268 83 96 111 
369 647 321 117 94 70 
317 710 288 123 111 108 
364 639 309 113 93 72 
160 32 285 99 90 83 
281 513 303 130 139 161 
308 363 176 102 117 135 
256 598 135 88 111 133 
213 969 330 84 57 38 
160 32 286 89 78 72 
99 500 200 68 81 95 
160 33 286 90 78 71 
307 570 176 136 135 139 
312 407 180 81 111 150 
119 541 178 55 72 90 
232 679 142 140 52 66 
166 356 299 136 125 121 
151 663 196 102 120 142 
280 409 163 66 103 142 
263 323 194 101 102 106 
147 687 195 72 91 127 
182 891 284 131 97 71 
103 415 214 124 142 163 
259 253 250 96 70 79 
270 558 188 138 134 132 
287 523 263 124 137 157 
161 36 280 119 109 103 
256 295 260 139 138 142 
325 476 285 100 112 148 
177 501 299 129 142 174 
180 902 283 91 72 61 
255 687 136 134 159 197 
164 758 264 56 48 75 
118 559 183 83 70 64 
163 359 294 135 120 105 
121 751 155 128 145 195 
329 452 258 79 111 145 
274 524 265 139 149 166 
306 81 206 139 107 86 
207 401 338 109 123 166 
294 90 226 118 96 73 
318 384 185 94 117 142 
254 576 145 131 128 129 
142 535 166 82 110 135 
199 995 279 157 125 103 
198 985 312 152 123 93 
197 865 332 182 134 119 
325 707 285 147 135 126 
155 677 243 119 130 150 
120 546 164 118 119 125 
351 633 262 45 98 133 
273 206 246 62 28 42 
218 793 272 184 141 119 
314 557 206 104 120 140 
306 691 165 67 116 151 
304 521 305 124 135 158 
141 544 242 68 60 87 
162 37 285 89 72 63 
190 945 340 93 78 64 
171 364 218 131 118 106 
101 466 201 90 119 149 
225 871 228 169 117 86 
262 198 201 58 56 59 
268 393 149 75 108 145 
163 39 284 80 65 57 
199 995 281 150 116 91 
193 149 350 115 62 12 
260 402 145 83 116 155 
116 734 157 85 112 156 
272 942 300 107 87 69 
228 457 148 126 143 191 
317 580 205 96 128 158 
256 815 187 185 160 143 
261 670 131 166 169 185 
227 355 195 98 104 115 
257 90 222 108 88 67 
308 635 145 147 151 162 
207 783 161 153 171 192 
235 942 250 124 92 64 
204 200 362 54 89 119 
199 847 297 127 103 78 
193 123 289 90 62 50 
278 548 201 134 131 132 
238 292 232 101 103 109 
289 171 186 51 67 94 
220 854 206 225 164 116 
233 462 321 79 96 140 
170 344 228 105 114 124 
302 282 176 80 117 147 
307 186 180 124 50 59 
269 324 160 101 83 77 
195 738 153 132 131 138 
247 910 332 88 69 54 
423 714 300 153 185 219 
186 959 287 117 95 79 
162 40 278 105 95 89 
164 257 306 145 139 140 
226 722 299 138 120 103 
181 480 163 155 156 166 
304 371 271 132 114 98 
271 306 191 92 98 106 
374 681 306 148 175 205 
332 521 246 136 143 157 
298 215 174 75 55 57 
176 450 173 84 105 127 
233 845 286 110 81 52 
243 552 156 101 108 118 
322 415 275 96 114 142 
206 845 192 238 204 169 
217 448 149 68 100 135 
201 796 265 150 133 120 
192 825 171 59 42 51 
185 198 276 66 105 137 
416 685 315 140 159 183 
127 714 168 90 100 134 
179 442 322 127 134 166 
319 572 220 122 134 151 
83 442 214 128 130 136 
268 840 214 216 165 129 
269 238 248 101 32 24 
135 423 205 95 113 132 
179 363 318 89 106 130 
259 350 315 155 151 153 
217 889 251 145 107 79 
208 218 362 132 73 82 
308 725 292 150 133 118 
222 372 343 43 74 136 
327 649 179 131 125 123 
239 241 276 93 29 43 
201 597 144 112 120 133 
256 927 247 120 92 64 
207 632 291 96 47 54 
131 480 265 99 121 148 
267 334 148 120 76 71 
405 642 271 71 88 104 
330 642 186 113 90 84 
313 322 263 135 65 82 
270 915 302 136 104 91 
153 734 148 105 129 158 
280 149 259 108 39 45 
285 371 168 90 108 130 
327 457 215 137 147 164 
216 315 230 84 100 118 
272 914 282 77 62 51 
297 224 174 85 43 21 
135 512 176 110 123 138 
328 566 282 116 124 137 
165 633 195 39 57 97 
342 662 314 149 176 206 
160 189 300 82 48 70 
164 46 277 102 92 85 
280 486 317 91 107 140 
235 547 321 93 121 168 
196 670 148 88 128 162 
240 333 209 122 121 123 
231 864 326 150 118 86 
186 881 280 138 103 75 
269 47 239 107 87 67 
288 188 196 78 50 51 
349 768 288 147 143 145 
302 275 162 108 141 172 
112 639 178 145 103 78 
185 635 280 107 50 61 
103 556 173 152 108 88 
315 611 253 94 105 119 
163 43 281 67 56 53 
182 344 327 127 110 98 
219 903 249 76 58 45 
141 687 150 94 118 145 
270 835 213 211 161 127 
276 354 152 162 116 25 
84 457 201 106 123 141 
158 628 154 101 123 147 
237 400 153 63 83 102 
413 656 259 52 78 99 
330 497 278 148 150 158 
312 435 286 98 117 138 
273 302 157 108 107 108 
311 370 268 105 113 126 
252 744 303 126 117 116 
207 864 265 119 87 59 
228 580 142 100 114 131 
224 994 318 123 89 64 
112 538 190 76 68 71 
281 163 254 70 28 29 
162 140 262 127 115 115 
300 85 193 182 126 106 
276 653 127 148 163 184 
316 332 260 115 115 122 
162 43 287 91 73 57 
222 311 229 86 103 122 
235 847 279 103 79 47 
205 129 260 126 66 20 
154 403 274 115 129 146 
135 729 189 105 118 155 
163 44 283 74 58 50 
316 676 190 165 178 199 
310 676 179 125 128 136 
212 489 155 109 130 179 
236 236 323 122 78 71 
163 47 281 56 43 34 
303 615 286 70 107 136 
285 569 309 120 135 162 
154 788 235 111 121 134 
278 523 264 140 149 166 
293 518 296 142 147 167 
327 641 181 71 103 130 
294 412 171 57 103 153 
329 800 279 194 138 105 
111 478 194 96 115 134 
149 762 215 102 120 138 
331 801 226 110 106 106 
298 142 235 126 73 40 
161 47 287 97 80 62 
197 796 263 75 67 75 
288 105 233 121 98 73 
378 641 249 29 94 133 
289 132 243 129 100 62 
350 675 225 73 108 176 
133 457 261 121 130 145 
245 669 136 188 182 190 
328 468 229 151 153 163 
162 45 286 94 77 59 
259 13 238 119 108 101 
220 424 321 79 95 137 
283 327 154 181 136 80 
157 669 232 111 122 141 
313 175 231 97 93 98 
268 734 148 174 191 214 
243 375 331 142 119 97 
162 46 287 96 79 62 
309 622 250 46 56 67 
149 497 173 184 182 186 
418 662 261 58 84 108 
156 703 239 87 113 137 
155 648 238 102 122 144 
277 622 315 130 110 93 
294 284 152 104 132 161 
284 515 283 146 153 170 
311 59 202 167 152 144 
234 552 154 95 103 115 
154 742 148 97 123 154 
124 577 179 94 76 62 
214 252 261 125 123 126 
316 603 270 133 128 128 
218 858 227 206 156 122 
179 700 294 179 137 139 
272 420 159 138 146 161 
271 825 262 173 120 94 
319 371 199 134 144 159 
207 843 307 106 76 58 
261 886 247 135 99 74 
214 436 321 103 108 155 
148 719 245 117 134 154 
234 733 150 133 154 189 
199 443 324 194 187 188 
240 718 310 121 106 95 
193 49 288 94 78 63 
268 868 250 157 114 83 
297 415 290 86 111 137 
189 929 344 113 86 75 
244 769 160 93 78 94 
229 217 331 96 54 71 
277 15 233 128 115 107 
115 497 202 106 129 156 
254 357 346 128 136 148 
252 714 143 108 127 153 
246 608 309 124 134 176 
98 556 180 148 104 81 
276 125 198 105 86 65 
255 642 317 89 75 58 
303 709 172 133 145 161 
75 482 205 104 84 93 
183 839 214 193 174 162 
224 408 327 137 132 140 
178 545 279 180 174 176 
242 219 264 50 58 82 
249 305 283 103 118 136 
117 491 186 134 145 164 
95 444 202 88 110 136 
126 750 155 178 181 218 
120 699 152 88 132 174 
419 697 260 120 135 163 
183 612 279 121 136 155 
153 435 193 75 102 126 
184 835 178 203 186 171 
314 666 179 120 144 170 
361 639 252 76 110 139 
99 425 209 47 104 141 
181 413 194 87 104 120 
169 627 201 144 142 146 
210 644 143 74 120 156 
373 638 256 61 102 133 
164 204 283 97 79 98 
305 536 199 86 105 125 
289 692 136 125 159 202 
310 339 180 135 142 154 
165 53 257 138 121 108 
142 589 178 40 49 64 
167 396 296 111 119 132 
285 34 238 124 100 83 
123 670 162 136 104 83 
127 552 161 78 73 81 
189 157 370 97 78 58 
301 761 286 181 133 100 
258 243 218 126 22 40 
165 142 257 159 77 29 
218 900 348 160 125 95 
247 470 333 106 131 170 
165 54 259 143 126 114 
201 848 211 168 148 132 
276 144 186 142 121 99 
329 415 263 76 110 143 
231 899 342 157 122 92 
205 854 271 124 85 54 
201 573 146 134 137 146 
326 553 283 93 110 130 
320 426 189 79 113 149 
295 543 313 112 126 170 
244 653 135 173 167 173 
98 516 205 137 112 100 
231 215 307 72 49 50 
275 850 227 225 170 135 
284 424 302 71 104 137 
167 52 262 153 138 127 
200 991 308 155 125 98 
162 822 220 165 144 127 
243 512 327 96 111 149 
318 382 232 86 119 149 
241 353 348 149 35 70 
257 265 254 130 129 133 
280 816 266 197 136 112 
76 480 191 71 78 87 
121 472 192 91 110 129 
283 535 229 122 123 129 
192 121 292 107 51 16 
274 225 172 122 44 11 
305 437 181 94 118 151 
247 703 312 98 100 106 
177 322 237 144 124 102 
237 985 271 165 127 85 
165 49 266 137 122 112 
304 697 164 64 108 145 
147 596 156 72 99 126 
177 185 276 146 92 66 
202 957 336 102 84 67 
316 597 286 142 134 132 
310 208 187 106 105 110 
234 681 141 181 179 188 
224 1001 281 138 114 90 
202 233 272 74 107 137 
160 210 302 78 114 142 
351 637 250 65 104 134 
343 649 201 87 131 169 
298 699 146 188 180 182 
173 644 264 138 136 140 
213 282 353 75 110 139 
244 362 336 132 112 94 
280 536 200 109 113 120 
280 523 270 145 152 168 
264 781 168 133 142 153 
165 48 269 134 120 111 
269 487 324 93 115 158 
253 969 312 128 100 74 
287 79 191 157 119 90 
89 523 206 171 126 112 
318 213 240 112 95 84 
362 737 241 95 59 49 
193 436 168 104 115 130 
315 269 193 113 122 134 
179 275 336 106 122 142 
265 248 180 85 119 144 
265 333 177 109 93 78 
170 651 154 135 124 117 
206 946 349 97 80 65 
79 504 203 102 70 62 
273 287 190 77 92 107 
310 521 302 156 159 172 
158 403 278 132 136 147 
197 819 169 82 101 126 
273 480 172 170 169 177 
162 483 296 89 100 153 
153 636 195 79 103 134 
188 292 261 149 134 119 
208 157 353 133 125 119 
243 763 159 78 66 129 
294 480 183 107 132 169 
214 316 356 121 129 142 
70 509 176 113 89 61 
430 681 312 169 178 207 
235 223 303 105 37 54 
166 56 256 135 117 102 
267 438 292 60 86 120 
151 501 271 125 138 166 
92 489 188 88 87 90 
152 391 211 39 80 110 
327 463 208 143 148 160 
280 900 291 147 119 91 
149 567 161 145 149 159 
399 741 258 178 80 86 
316 433 283 97 118 141 
218 751 156 183 173 187 
286 628 129 117 126 138 
448 675 299 119 138 190 
265 861 227 209 157 123 
163 63 266 143 116 89 
149 584 172 37 65 92 
195 51 291 103 84 65 
330 437 265 80 107 150 
311 674 150 156 156 163 
215 427 324 153 154 165 
202 353 209 109 110 113 
198 835 234 198 147 127 
161 63 270 139 116 93 
177 747 281 82 96 110 
128 446 250 88 112 138 
326 409 271 71 106 149 
265 562 167 140 135 132 
267 45 239 102 83 64 
181 923 337 175 130 107 
360 695 240 130 142 175 
169 159 334 115 83 97 
278 517 298 124 136 163 
249 967 314 89 72 60 
156 707 231 106 118 133 
189 229 345 146 144 149 
162 62 271 138 114 91 
297 258 269 68 98 123 
280 563 314 166 170 181 
307 780 207 147 126 106 
319 271 254 105 122 142 
256 337 310 86 99 113 
69 497 202 105 76 71 
208 689 147 77 135 181 
345 672 292 90 114 142 
304 380 173 109 126 147 
229 478 310 87 99 131 
299 303 177 124 129 143 
266 859 227 211 156 125 
355 647 216 178 178 190 
245 678 306 158 153 159 
183 169 262 109 81 100 
188 540 293 117 135 165 
134 421 206 118 129 144 
320 626 313 114 98 84 
276 384 289 116 124 138 
263 888 295 113 79 56 
167 63 265 137 102 56 
184 959 301 106 88 74 
82 523 175 203 142 130 
184 739 155 40 89 158 
120 520 185 45 80 116 
301 334 268 131 94 71 
235 934 341 114 86 68 
239 862 317 145 109 78 
237 307 226 90 104 120 
271 236 248 98 36 25 
264 88 215 127 101 73 
153 565 201 85 87 98 
106 469 239 58 83 118 
219 459 149 104 132 171 
173 298 278 177 147 114 
327 480 213 167 165 172 
365 712 245 147 29 33 
326 635 184 75 97 120 
61 491 200 144 104 89 
165 62 268 139 113 86 
243 762 159 83 49 121 
264 331 183 107 85 72 
306 534 310 139 148 163 
276 771 170 81 97 121 
288 796 195 191 168 149 
140 362 230 105 94 84 
194 547 153 109 117 128 
240 334 206 119 119 123 
206 998 298 153 125 96 
407 713 305 136 160 187 
383 636 292 107 123 141 
325 529 216 122 134 156 
162 734 281 192 114 121 
201 459 157 117 122 131 
226 421 320 53 65 88 
189 795 161 189 9 37 
365 640 309 113 93 72 
296 114 227 114 94 73 
267 782 171 172 149 128 
198 852 312 141 111 83 
306 167 236 105 103 107 
228 843 269 99 77 50 
312 704 289 179 159 142 
278 635 316 171 125 109 
292 838 240 221 161 132 
170 49 259 118 101 84 
317 351 257 112 104 124 
241 223 265 46 51 79 
178 212 338 149 146 150 
210 850 319 108 74 58 
176 236 275 89 109 128 
213 974 328 105 75 46 
322 245 220 153 84 15 
248 877 319 149 105 78 
316 773 212 127 113 102 
130 696 148 155 165 188 
324 629 206 118 126 138 
182 886 319 125 102 78 
299 734 295 182 171 167 
398 697 252 103 116 176 
425 715 268 167 172 186 
196 317 349 127 126 130 
200 784 270 158 127 119 
304 249 160 154 151 155 
180 711 154 118 142 167 
267 125 243 80 71 64 
207 837 294 132 104 81 
418 664 262 81 101 121 
100 406 230 73 92 109 
242 882 232 215 149 106 
111 626 167 137 97 67 
325 579 277 102 108 118 
171 55 259 120 105 92 
320 496 295 139 144 156 
153 574 159 148 153 164 
124 503 182 83 107 128 
212 365 204 99 111 126 
168 54 261 136 120 107 
172 135 340 70 67 68 
289 436 303 105 124 147 
212 1001 287 129 106 84 
167 592 190 92 91 113 
165 389 290 104 115 132 
203 732 152 134 140 170 
173 245 329 111 126 143 
409 724 261 170 173 181 
285 188 199 73 39 46 
229 534 305 80 102 136 
258 240 194 81 39 41 
235 279 239 108 111 116 
203 972 274 106 85 62 
164 201 309 122 118 119 
304 372 174 101 119 139 
309 621 250 46 57 69 
373 637 294 73 96 124 
170 54 262 126 108 95 
151 575 224 80 97 151 
306 125 217 123 109 96 
309 767 283 188 134 101 
129 712 185 149 152 161 
273 151 197 151 82 43 
289 350 271 139 100 45 
279 586 146 94 110 127 
261 820 194 179 155 141 
362 622 278 31 62 94 
258 894 247 130 97 75 
350 631 261 32 92 129 
240 962 265 165 127 89 
286 509 295 131 139 163 
144 803 215 127 55 62 
154 591 173 43 73 114 
189 398 197 60 90 115 
283 846 234 235 175 140 
164 599 204 124 120 122 
334 739 287 176 147 119 
245 660 308 176 118 44 
155 675 245 132 139 151 
161 136 271 81 82 105 
98 504 186 43 71 92 
229 458 149 114 133 187 
242 924 236 82 55 41 
174 49 263 124 110 98 
172 52 257 121 106 90 
160 678 216 33 62 126 
238 588 315 89 122 162 
196 367 341 86 103 150 
239 519 324 62 84 135 
251 817 186 228 182 102 
270 639 127 91 115 141 
221 880 241 185 137 107 
236 268 241 104 108 115 
255 803 277 200 140 120 
270 319 150 105 105 107 
131 438 201 104 118 135 
292 727 299 134 106 87 
203 666 146 128 92 104 
158 666 228 124 129 147 
239 250 290 86 46 45 
172 53 262 123 108 96 
219 838 187 210 177 133 
117 474 194 105 117 131 
299 534 312 117 132 166 
288 721 149 164 184 207 
129 439 250 144 149 160 
182 839 184 208 153 131 
312 204 251 42 66 93 
189 258 345 81 88 103 
180 311 328 167 137 105 
140 511 233 74 75 81 
97 416 219 76 92 109 
291 90 195 137 98 77 
261 573 317 153 166 185 
194 455 162 95 111 128 
299 834 238 226 166 133 
156 613 156 100 88 93 
270 272 208 73 82 92 
159 479 295 101 118 145 
166 666 251 73 105 138 
147 547 208 114 119 127 
249 415 144 101 125 183 
290 66 193 121 97 73 
241 398 334 140 79 23 
205 867 265 133 98 70 
181 516 296 155 167 189 
316 627 217 90 97 108 
282 164 255 70 26 29 
169 52 269 122 105 94 
276 298 176 94 102 113 
153 495 283 190 183 184 
312 182 204 100 85 83 
303 464 302 111 125 143 
298 507 191 117 134 157 
250 300 278 113 117 125 
168 54 271 111 94 80 
296 641 128 114 127 145 
290 701 140 127 160 210 
260 106 221 113 88 59 
175 574 155 124 135 151 
171 52 269 118 102 90 
263 426 339 165 151 145 
346 804 256 192 129 98 
189 169 265 106 85 94 
234 916 235 95 74 58 
221 359 349 55 109 145 
214 148 278 73 59 46 
228 600 139 109 124 143 
343 718 235 141 103 113 
196 224 274 115 69 74 
317 822 243 226 163 128 
215 384 184 70 94 114 
233 674 302 155 81 95 
178 894 292 149 110 82 
205 715 151 185 179 185 
215 845 313 137 90 83 
417 712 263 139 157 179 
234 861 213 229 157 112 
372 670 330 118 151 199 
128 796 177 161 183 210 
346 695 231 156 165 182 
290 517 289 148 154 171 
200 129 280 86 77 69 
255 655 321 158 131 102 
226 702 146 189 184 191 
130 499 218 111 132 162 
303 342 178 102 117 133 
247 720 145 187 178 184 
209 326 357 146 131 123 
127 713 168 86 99 131 
165 825 174 190 80 34 
245 473 328 70 94 151 
376 764 251 154 142 137 
153 745 227 113 134 155 
316 650 170 190 183 184 
272 917 260 67 54 40 
285 512 301 118 131 161 
147 717 249 120 137 157 
162 608 155 72 116 152 
239 827 189 207 182 162 
180 936 329 91 72 62 
295 292 156 122 145 173 
260 625 316 167 126 115 
317 241 201 133 91 61 
323 427 206 106 125 148 
306 126 210 131 103 83 
260 612 131 101 73 63 
297 747 181 161 74 49 
172 52 264 121 104 95 
157 156 301 124 58 76 
262 755 155 187 16 35 
154 626 154 90 118 146 
301 444 181 104 124 156 
168 477 168 135 141 153 
234 160 260 138 69 7 
201 780 272 156 143 134 
211 20 321 151 106 91 
203 586 144 148 148 155 
178 600 152 98 125 152 
203 272 260 96 104 114 
195 978 313 150 126 103 
179 797 160 82 87 134 
172 55 271 116 93 68 
350 746 237 116 114 116 
233 718 304 131 121 114 
133 667 149 92 123 153 
204 577 145 140 140 147 
361 644 318 122 99 76 
197 555 295 119 136 165 
327 560 253 119 125 142 
175 52 269 119 102 85 
161 133 284 100 80 89 
279 362 276 128 116 107 
260 458 157 125 139 179 
141 565 160 128 129 133 
150 620 189 62 74 97 
319 406 274 79 106 137 
218 532 158 69 87 105 
241 314 221 80 98 116 
292 797 273 200 146 113 
310 320 182 151 148 151 
322 589 262 69 90 111 
254 833 200 170 140 104 
201 551 152 101 115 132 
256 597 314 129 153 193 
127 450 198 78 105 129 
162 591 156 141 147 160 
172 326 294 136 118 100 
173 697 295 100 140 175 
201 880 335 143 114 91 
195 992 295 122 102 82 
300 809 207 101 133 163 
121 443 202 142 145 153 
212 494 157 44 94 150 
262 756 296 197 144 114 
116 433 203 91 113 137 
301 574 167 133 130 132 
111 386 251 96 118 140 
214 710 149 182 176 185 
320 286 225 79 124 159 
107 441 229 61 97 136 
315 712 211 155 164 176 
252 887 239 162 118 84 
135 676 191 130 138 152 
345 724 286 125 91 80 
264 557 178 107 115 126 
258 293 221 111 111 114 
324 465 284 128 135 149 
92 499 203 67 66 78 
354 672 299 129 156 186 
320 419 230 136 143 157 
381 664 234 167 166 175 
179 806 163 161 174 187 
372 779 273 188 159 131 
240 184 259 125 38 23 
206 174 370 161 90 16 
185 511 300 147 157 176 
112 637 167 146 100 70 
133 716 148 178 178 194 
411 648 271 72 90 106 
331 816 253 221 155 126 
211 490 308 120 134 164 
230 424 146 38 89 133 
288 535 317 146 151 181 
250 885 237 185 134 96 
278 361 159 140 146 158 
253 848 268 155 115 83 
234 983 323 162 132 100 
281 487 317 88 106 142 
318 282 215 97 101 119 
252 390 142 87 121 158 
219 381 342 81 96 152 
134 400 255 74 104 149 
150 741 210 125 137 153 
235 564 146 89 102 116 
302 827 221 226 164 129 
290 375 279 136 136 142 
148 541 202 107 119 144 
170 61 266 126 92 44 
306 574 173 144 143 148 
395 634 285 124 128 135 
251 684 137 162 166 185 
276 314 264 99 107 119 
266 735 307 93 107 122 
181 913 262 105 72 51 
301 305 271 99 71 64 
340 672 290 115 141 168 
177 300 326 174 146 118 
146 728 256 117 143 170 
251 740 151 149 178 209 
357 680 286 76 131 169 
351 760 234 116 100 85 
287 249 264 61 41 31 
183 285 338 152 138 127 
316 341 252 148 68 92 
169 60 269 129 101 68 
327 629 269 74 108 138 
301 64 213 132 96 72 
353 692 236 160 173 192 
262 525 173 138 137 143 
252 638 130 138 148 166 
247 276 304 101 113 128 
172 413 318 102 116 142 
277 306 262 77 90 105 
255 368 345 159 17 72 
226 745 154 137 161 194 
295 717 152 153 175 199 
265 887 254 117 86 62 
178 267 279 93 96 102 
248 594 315 93 123 171 
223 323 222 77 94 113 
288 743 161 127 64 109 
217 848 197 179 158 143 
178 680 155 172 170 176 
220 534 302 88 109 132 
309 581 174 130 136 147 
182 409 194 66 93 116 
189 161 345 131 32 12 
317 203 236 86 89 98 
275 557 181 141 137 137 
