ply
format ascii 1.0
comment Created by CloudCompare v2.11.1 (Anoia)
comment Created 2/28/22 9:43 PM
obj_info Generated by CloudCompare!
element vertex 2003
property float x
property float y
property float z
property uchar red
property uchar green
property uchar blue
end_header
134 706 203 139 138 146 
306 620 303 99 87 78 
386 765 275 182 159 141 
232 216 292 90 32 45 
309 182 186 107 81 93 
177 405 320 92 115 142 
235 952 341 82 65 52 
350 657 214 178 184 203 
247 850 274 148 108 78 
145 556 165 131 137 148 
231 485 157 189 184 188 
111 457 256 117 131 150 
209 335 220 124 121 122 
132 396 267 95 120 152 
246 791 286 204 151 126 
316 684 282 149 89 83 
211 813 178 105 103 102 
211 142 269 86 72 60 
298 284 171 93 60 81 
333 692 279 162 105 110 
244 388 147 57 84 105 
108 622 170 128 94 60 
207 188 350 61 28 42 
321 390 241 74 104 131 
296 236 255 98 67 79 
446 686 275 153 168 189 
89 427 218 72 95 116 
157 683 202 73 93 134 
305 725 189 137 84 85 
146 541 168 125 132 143 
233 340 207 110 106 105 
178 283 325 178 151 124 
158 151 297 146 34 72 
145 403 212 58 93 124 
355 684 228 190 184 191 
293 330 170 152 149 153 
151 565 195 96 115 134 
227 307 341 132 129 132 
272 323 151 92 92 102 
235 211 260 99 47 66 
295 633 175 51 58 68 
198 971 282 102 73 49 
254 328 285 121 131 145 
213 350 209 108 115 127 
165 13 296 123 111 102 
281 286 167 118 119 125 
190 217 269 124 84 90 
164 13 298 129 117 110 
157 653 248 100 120 142 
224 1005 284 113 91 66 
152 593 238 52 78 135 
217 654 146 83 142 188 
166 12 296 121 109 100 
159 148 298 156 77 84 
301 390 171 95 122 153 
184 282 251 95 98 103 
104 545 204 98 84 80 
148 517 272 104 132 166 
170 819 174 165 0 21 
310 286 184 101 115 132 
254 884 293 156 118 86 
257 332 186 104 91 80 
194 814 173 185 116 118 
279 626 130 54 87 116 
204 22 323 127 85 73 
219 236 349 59 62 88 
261 550 192 120 121 126 
294 765 287 183 133 103 
393 694 242 71 124 165 
311 335 201 160 122 86 
275 250 175 146 57 86 
381 635 247 44 98 139 
196 244 340 87 121 150 
105 482 202 110 127 147 
305 417 279 114 128 145 
241 606 311 128 161 195 
237 538 316 109 126 159 
288 638 191 57 75 91 
314 433 187 112 135 164 
259 961 312 110 83 60 
276 761 159 204 92 25 
299 223 160 86 71 63 
192 154 343 91 78 64 
266 704 136 199 189 196 
82 535 215 192 137 124 
310 672 140 131 151 175 
237 244 274 93 29 39 
178 555 281 103 133 158 
312 310 199 157 156 161 
266 141 241 102 76 55 
169 11 295 111 98 87 
387 632 260 79 98 117 
300 135 224 133 71 10 
165 153 307 117 73 73 
308 231 170 123 33 62 
239 838 198 162 142 128 
229 260 346 105 43 73 
381 730 288 116 107 114 
303 344 171 142 144 152 
317 346 217 154 76 81 
120 427 255 99 119 141 
267 223 246 75 26 22 
272 519 323 137 151 175 
153 634 192 63 82 114 
305 458 297 119 129 144 
444 674 271 136 143 155 
268 734 312 195 182 175 
54 486 219 132 146 166 
377 693 285 132 81 97 
216 921 355 179 136 110 
300 627 146 107 123 142 
262 132 226 109 91 75 
214 362 206 109 114 122 
241 987 321 122 96 74 
315 815 269 198 140 108 
107 509 209 67 96 148 
312 663 146 152 154 164 
248 328 204 106 111 118 
222 448 312 113 129 152 
420 695 251 107 131 168 
191 698 303 83 67 73 
329 637 197 106 111 120 
133 685 201 87 105 136 
136 796 214 138 67 67 
225 360 342 78 116 147 
168 12 295 114 101 91 
195 846 225 179 156 135 
345 733 283 97 99 117 
280 290 160 117 120 127 
176 403 202 105 113 125 
343 656 209 133 140 165 
278 851 241 219 165 132 
234 585 143 143 137 137 
261 419 343 136 114 96 
255 890 309 140 100 67 
234 733 305 188 144 85 
248 684 308 151 139 135 
335 663 200 176 185 200 
174 11 289 99 83 66 
219 278 344 75 109 137 
319 372 245 97 115 136 
137 705 156 76 107 135 
191 990 306 149 117 89 
178 812 247 150 108 75 
402 749 279 173 121 58 
311 175 193 99 101 111 
193 871 329 157 116 97 
202 188 362 55 71 97 
173 10 292 100 86 71 
221 964 339 117 99 83 
212 412 331 136 148 165 
373 707 283 162 83 83 
266 512 174 142 147 160 
287 711 305 71 83 98 
316 236 211 129 132 139 
319 444 195 151 157 170 
320 309 221 104 123 144 
208 548 156 77 95 113 
174 10 294 102 87 73 
98 400 252 46 89 130 
212 466 154 188 182 185 
193 132 315 45 59 80 
242 244 294 83 83 88 
179 889 322 121 99 78 
236 888 336 162 125 95 
261 335 278 78 107 133 
261 914 324 128 106 85 
169 11 297 117 104 94 
174 660 279 118 119 126 
445 690 293 154 173 206 
283 91 194 133 102 76 
291 330 168 147 145 150 
226 659 143 83 131 166 
304 740 294 184 171 164 
344 770 284 172 145 140 
171 11 297 113 100 90 
279 157 249 100 25 31 
170 11 299 120 107 98 
320 627 286 83 78 75 
171 11 299 119 106 97 
228 212 273 92 37 44 
265 377 141 81 118 153 
136 769 210 131 145 164 
343 639 208 99 115 133 
108 571 169 48 83 110 
209 181 371 173 75 10 
274 730 312 201 179 163 
387 657 226 60 102 149 
270 251 194 100 70 79 
306 747 196 160 134 115 
258 203 183 49 60 77 
389 763 257 154 162 175 
159 339 293 142 123 103 
313 619 245 72 81 93 
258 377 139 76 113 151 
165 596 159 152 156 167 
298 351 170 114 127 144 
284 450 174 100 121 162 
143 366 221 136 123 112 
318 708 212 157 161 173 
232 156 260 108 94 82 
169 466 180 148 148 155 
265 518 174 140 152 170 
396 743 246 182 147 102 
173 10 297 109 96 84 
73 486 228 90 133 176 
203 971 274 141 100 58 
172 11 298 115 102 91 
223 154 279 90 80 71 
156 471 299 89 105 149 
267 326 176 94 67 56 
376 627 262 47 68 87 
153 572 187 36 62 107 
156 697 279 111 123 139 
349 722 280 86 81 81 
292 502 315 72 98 152 
90 406 242 62 96 122 
159 657 203 122 128 138 
175 10 299 110 96 85 
153 629 201 84 101 132 
149 738 263 121 144 169 
265 143 241 110 59 13 
176 616 280 75 101 128 
277 282 198 99 100 104 
157 717 289 119 150 180 
326 455 260 86 112 138 
315 825 231 237 177 139 
324 557 242 64 89 128 
273 120 207 112 89 63 
354 651 213 141 149 190 
174 10 300 115 102 91 
169 652 268 65 94 119 
175 10 300 113 100 89 
50 508 202 139 97 87 
375 769 244 148 139 136 
377 780 261 202 170 139 
359 637 300 110 93 75 
105 632 176 142 100 71 
130 449 204 129 135 148 
97 535 177 94 116 136 
151 763 261 154 59 93 
129 421 263 146 148 157 
192 923 248 126 94 77 
295 619 294 50 61 71 
294 418 290 78 103 130 
254 747 306 159 156 159 
308 679 179 94 121 152 
234 609 307 69 113 163 
203 184 368 127 136 149 
139 739 211 115 128 151 
233 212 321 85 81 96 
161 15 307 142 131 126 
210 850 241 187 139 111 
131 551 186 13 61 95 
181 168 340 107 108 113 
248 456 327 106 128 156 
194 899 267 118 52 19 
283 256 156 79 113 142 
202 180 361 69 79 90 
128 610 197 106 84 71 
241 647 135 174 171 177 
306 454 293 108 121 140 
154 738 236 118 136 157 
263 362 336 183 157 131 
167 507 296 116 132 173 
321 556 234 103 124 151 
311 660 172 157 159 168 
235 215 332 93 96 104 
301 412 281 65 99 130 
184 166 261 104 73 91 
265 458 340 67 101 168 
266 368 316 151 138 130 
131 690 200 85 95 135 
177 323 234 105 110 118 
189 562 294 179 179 188 
270 922 278 66 52 38 
168 180 312 139 93 84 
172 376 304 93 113 136 
222 344 347 112 115 151 
130 474 276 66 94 134 
194 366 332 84 107 145 
253 551 322 156 168 189 
224 913 244 72 53 36 
333 656 195 88 137 175 
168 587 267 125 142 162 
166 11 306 135 123 116 
283 137 185 119 106 95 
315 627 284 75 72 71 
165 419 202 144 145 152 
156 577 256 79 76 79 
273 53 206 110 96 82 
257 29 200 138 115 97 
376 768 243 152 137 126 
184 509 304 146 158 177 
312 237 200 155 137 119 
163 204 275 134 30 67 
256 544 177 96 101 109 
335 656 317 141 169 205 
208 148 328 120 82 21 
240 289 349 75 118 153 
420 732 266 199 217 241 
260 432 343 160 145 136 
196 779 166 171 180 198 
201 183 365 88 103 118 
167 232 315 129 127 130 
144 801 228 125 103 84 
223 442 313 90 106 148 
397 736 245 102 26 45 
262 545 323 102 128 176 
341 813 252 205 141 112 
229 774 165 181 0 28 
165 701 162 76 118 152 
64 501 216 153 120 114 
282 37 209 130 118 110 
426 707 300 107 128 191 
173 915 289 73 61 49 
163 842 199 197 168 143 
299 598 299 148 143 145 
277 157 197 108 88 71 
391 688 240 76 96 173 
317 339 245 116 129 146 
325 661 302 134 158 184 
159 767 266 133 82 105 
162 628 217 75 79 110 
209 381 199 60 91 115 
148 544 167 135 139 148 
98 523 199 37 48 66 
176 763 277 145 119 93 
283 365 163 109 124 147 
165 14 314 139 127 121 
258 247 226 116 33 45 
306 706 186 120 134 152 
230 420 147 107 116 130 
270 679 130 50 89 169 
264 670 129 76 116 189 
216 182 364 170 70 3 
297 361 168 123 131 145 
283 621 309 71 69 69 
278 104 204 110 88 63 
307 604 190 150 160 175 
184 327 234 126 122 121 
281 669 128 25 76 150 
167 660 260 119 127 141 
294 41 224 129 118 111 
136 352 272 143 126 110 
271 26 213 113 89 73 
164 194 306 116 32 58 
167 15 316 132 122 116 
381 698 286 159 109 103 
119 429 212 101 121 142 
267 247 203 89 32 33 
169 11 305 131 119 112 
154 749 227 118 132 149 
383 766 251 178 140 105 
156 648 162 148 149 159 
194 560 299 115 138 164 
289 135 185 112 102 94 
112 432 212 109 134 160 
326 687 279 106 119 141 
171 11 305 129 117 110 
142 620 188 66 61 62 
268 705 320 146 120 105 
269 426 306 79 103 134 
255 874 280 164 121 93 
278 225 165 114 34 14 
207 621 147 169 167 173 
222 185 307 78 93 107 
162 128 313 129 104 93 
299 127 221 116 105 95 
420 665 288 95 81 66 
169 11 311 130 118 112 
258 233 243 111 37 26 
235 710 147 83 146 198 
237 231 263 49 57 77 
230 651 312 163 110 68 
415 662 297 104 86 67 
123 575 187 66 58 61 
143 450 282 146 146 153 
91 565 194 138 96 74 
233 502 304 95 109 142 
356 633 253 62 100 132 
303 743 190 148 75 42 
262 340 284 71 104 133 
121 437 260 147 150 160 
316 346 224 154 96 111 
199 958 342 84 67 52 
274 55 205 118 102 86 
197 116 256 119 106 95 
73 521 218 156 115 102 
216 172 296 139 63 3 
238 750 157 164 181 204 
174 10 305 124 112 104 
158 429 201 115 126 140 
167 653 213 69 77 117 
266 526 328 136 156 188 
214 557 153 120 120 124 
174 11 306 124 113 106 
86 418 245 71 98 131 
86 468 238 79 100 122 
327 472 251 120 132 149 
280 295 174 107 110 117 
153 468 189 92 108 126 
172 11 309 128 116 110 
215 390 185 73 95 115 
191 430 327 116 126 161 
321 386 243 49 85 120 
229 730 302 139 121 106 
116 499 250 128 147 182 
219 828 186 182 159 138 
151 565 189 36 50 79 
174 11 309 123 112 106 
173 96 321 98 87 79 
311 618 238 78 87 98 
143 556 215 112 113 128 
251 958 269 103 78 55 
293 229 159 88 46 26 
90 418 250 117 140 168 
274 632 317 180 124 114 
222 457 310 151 153 164 
357 732 235 105 51 45 
235 214 260 105 53 62 
254 444 336 119 136 160 
169 12 312 129 118 111 
230 499 159 115 131 170 
191 261 259 111 110 112 
148 396 212 62 96 128 
380 740 287 94 117 144 
279 182 247 38 47 55 
87 418 228 112 119 130 
169 13 315 126 115 109 
285 708 138 124 156 208 
190 733 297 55 46 66 
228 185 266 74 34 42 
326 509 281 168 160 160 
265 256 218 94 85 89 
399 727 290 171 80 91 
282 272 160 73 64 80 
140 346 233 104 97 91 
275 555 176 139 135 135 
194 848 200 223 193 165 
344 673 286 124 151 179 
168 14 316 128 117 112 
325 499 281 103 113 144 
231 542 304 90 110 150 
307 281 184 111 127 144 
172 419 201 98 109 122 
250 293 225 110 111 115 
336 631 283 71 80 90 
198 919 242 128 93 76 
131 770 198 122 140 161 
170 13 317 121 111 105 
416 652 279 109 118 132 
200 662 306 110 98 93 
316 588 236 91 106 124 
187 953 274 126 97 68 
275 738 307 141 153 168 
231 278 329 54 61 71 
94 520 187 84 99 114 
296 194 180 68 41 41 
353 760 232 120 98 74 
216 882 339 52 46 46 
285 782 179 110 94 83 
90 522 215 142 112 106 
173 11 312 123 112 106 
279 737 306 177 112 123 
173 11 314 121 110 105 
343 685 276 135 163 193 
295 678 292 67 75 125 
175 11 312 121 110 104 
121 690 157 111 129 157 
223 992 327 133 100 76 
330 502 239 102 120 149 
111 513 192 59 98 133 
229 354 202 112 89 71 
190 183 344 55 91 118 
237 279 346 70 102 131 
149 605 181 46 73 96 
211 448 318 133 133 155 
282 235 159 106 28 25 
240 984 279 143 111 72 
174 12 315 119 109 103 
172 12 316 120 110 105 
293 95 217 129 106 83 
215 719 298 183 157 148 
269 721 141 87 145 190 
143 410 210 63 95 124 
326 824 251 228 161 128 
326 463 222 127 136 151 
164 260 300 134 132 136 
173 12 319 117 107 102 
311 673 154 109 130 154 
202 996 314 148 121 91 
267 864 236 190 138 103 
97 415 216 70 92 112 
439 703 289 111 128 200 
186 936 346 91 71 61 
295 361 168 94 111 131 
220 826 185 162 141 123 
233 565 148 92 102 114 
266 929 265 79 62 51 
192 806 261 135 133 135 
187 133 324 51 57 65 
249 540 326 66 96 161 
157 841 199 74 83 93 
399 668 235 89 52 129 
297 434 294 107 123 144 
175 221 273 105 86 82 
256 680 133 122 150 193 
285 320 264 100 114 132 
229 194 339 125 60 75 
288 638 206 71 78 86 
208 552 155 142 136 134 
311 671 146 124 142 164 
277 589 306 110 136 168 
162 17 290 117 104 94 
292 610 145 112 103 99 
284 275 146 121 127 136 
147 720 260 125 140 160 
249 967 281 125 94 69 
128 736 184 156 154 161 
236 747 303 173 165 163 
197 20 283 146 129 116 
258 886 246 149 109 77 
326 654 182 146 153 167 
221 316 227 80 100 121 
165 567 269 98 127 159 
91 507 210 65 92 122 
55 484 220 100 127 155 
290 200 184 75 44 33 
126 511 237 71 133 177 
160 16 294 129 117 109 
142 350 226 129 104 83 
305 559 195 126 133 145 
185 326 326 109 116 130 
291 308 161 128 144 164 
323 772 283 168 122 89 
260 153 225 165 87 21 
225 254 346 73 56 63 
294 309 173 80 108 134 
324 433 248 57 96 137 
63 490 198 104 99 95 
160 21 289 118 104 93 
311 448 189 140 153 175 
300 718 164 146 156 172 
198 610 295 116 140 166 
235 892 339 151 119 88 
358 642 231 80 116 147 
167 665 280 98 98 102 
316 607 262 128 126 130 
245 260 294 91 44 64 
132 746 199 101 109 139 
92 495 205 76 101 126 
209 442 321 175 172 175 
309 796 275 186 138 104 
174 620 157 175 173 180 
302 489 309 128 133 145 
255 946 324 117 92 81 
274 362 148 143 144 152 
227 364 339 79 110 136 
214 587 304 109 125 174 
353 642 250 52 100 134 
196 913 353 176 136 115 
266 142 212 104 86 67 
231 848 282 103 81 57 
190 835 183 188 157 147 
271 266 206 105 103 104 
153 328 272 109 22 49 
138 336 251 141 122 102 
251 726 145 155 84 94 
413 692 310 81 106 177 
374 776 248 150 132 117 
315 523 300 119 127 155 
186 758 285 136 123 117 
200 844 232 192 139 113 
239 906 339 143 112 85 
181 805 255 189 165 143 
369 773 281 167 143 122 
193 261 256 124 119 117 
203 1004 301 155 130 105 
193 870 276 141 109 77 
144 568 244 137 146 166 
321 560 237 97 126 154 
242 969 273 181 149 119 
162 16 310 129 121 118 
174 212 274 99 70 74 
241 264 270 109 41 65 
248 864 220 230 172 138 
248 756 156 161 178 202 
245 918 339 85 67 53 
281 483 315 157 158 164 
283 545 183 63 86 106 
251 381 347 208 175 141 
296 605 293 138 121 122 
258 87 236 87 71 52 
109 457 209 87 114 138 
267 489 326 116 141 173 
88 528 181 156 105 91 
318 395 230 80 110 139 
288 788 281 200 146 116 
282 222 166 85 44 25 
227 653 142 175 168 174 
148 560 164 92 114 138 
252 835 202 133 104 65 
229 347 344 114 117 137 
186 556 293 184 183 191 
425 691 254 87 117 151 
171 495 303 130 143 175 
291 111 206 117 94 69 
288 128 247 122 111 101 
254 939 258 107 80 60 
239 899 232 108 62 57 
229 787 284 194 146 123 
220 919 247 65 48 43 
150 587 222 129 130 137 
214 151 349 158 79 9 
371 759 237 128 113 100 
175 556 159 113 119 130 
358 626 257 59 101 132 
175 158 329 109 78 95 
331 501 256 146 149 159 
408 641 274 0 54 87 
124 503 190 102 122 146 
174 903 307 147 114 85 
158 787 250 112 112 119 
273 374 147 97 119 146 
143 617 161 132 135 143 
190 171 263 104 86 100 
306 598 196 101 125 150 
324 790 280 179 136 105 
264 749 151 146 166 196 
386 691 239 56 82 114 
162 23 313 130 118 110 
176 464 178 149 147 151 
292 454 309 79 109 144 
96 444 211 172 171 181 
146 370 285 154 90 108 
168 272 312 171 145 117 
228 652 142 186 182 186 
281 21 220 125 109 94 
275 557 312 125 133 151 
145 359 222 123 110 99 
267 541 209 110 108 108 
130 571 179 26 48 69 
315 383 227 50 92 123 
171 678 297 135 154 176 
278 694 133 108 150 198 
220 832 188 161 136 113 
312 291 185 84 106 127 
257 87 217 111 89 65 
384 771 261 158 145 139 
268 216 174 54 49 46 
192 774 279 180 146 108 
111 737 166 94 117 164 
207 909 258 100 74 52 
132 342 251 150 130 109 
303 474 190 122 135 162 
230 852 208 220 161 125 
301 281 177 155 153 158 
279 385 285 132 134 143 
274 644 312 87 58 48 
279 667 307 114 75 83 
250 269 326 104 39 75 
312 648 320 99 119 142 
204 276 253 85 99 115 
172 804 248 138 118 101 
336 635 262 60 99 128 
136 821 209 185 154 118 
226 410 324 141 134 143 
200 172 339 107 29 32 
268 15 211 151 129 112 
101 597 194 162 113 91 
133 720 203 115 124 149 
271 592 144 86 82 81 
227 419 152 63 84 104 
146 809 232 119 137 156 
259 784 167 169 153 141 
232 550 163 109 115 122 
306 159 219 108 99 101 
242 240 318 98 103 110 
244 424 327 104 86 122 
158 501 293 106 118 156 
181 278 261 78 84 91 
328 528 278 115 132 155 
322 706 216 156 168 187 
212 998 313 110 79 52 
275 200 247 57 32 30 
352 711 278 155 126 116 
378 661 320 91 113 167 
193 192 269 99 86 101 
292 80 217 127 106 86 
166 23 316 139 127 119 
56 480 217 89 108 128 
327 663 312 118 135 166 
50 497 214 155 111 109 
69 504 216 161 122 111 
163 666 216 47 65 112 
160 24 310 114 102 93 
307 149 213 121 90 93 
284 346 269 149 129 108 
161 195 279 102 74 91 
264 343 155 98 55 58 
201 1003 290 197 172 151 
331 795 224 130 102 74 
177 917 273 90 71 57 
202 911 355 178 139 117 
182 819 245 118 118 122 
246 325 208 117 117 120 
160 28 310 128 97 79 
303 268 161 159 161 170 
436 669 300 68 65 63 
257 256 248 114 39 73 
126 741 174 90 107 149 
229 900 238 124 90 66 
172 286 302 138 17 59 
255 852 266 152 110 81 
228 791 283 194 146 124 
159 686 245 127 138 155 
276 655 126 97 122 176 
149 763 242 48 59 91 
189 458 320 165 166 178 
160 246 298 144 139 141 
281 207 177 81 52 35 
162 31 311 130 95 81 
160 806 170 65 76 138 
265 557 321 81 95 143 
199 969 326 110 89 68 
229 645 316 163 113 83 
179 115 325 127 58 15 
194 993 299 116 91 72 
263 958 309 142 113 82 
237 199 256 108 35 42 
170 820 175 187 31 19 
314 318 193 145 146 154 
331 705 280 114 101 112 
175 780 264 160 146 136 
245 350 336 81 79 91 
174 923 332 177 133 112 
410 660 287 99 84 68 
159 455 302 112 127 144 
290 841 229 236 173 137 
287 68 225 129 108 87 
147 812 232 138 129 127 
163 27 312 134 104 88 
163 27 313 136 107 91 
314 429 276 142 144 152 
386 721 289 137 84 81 
137 806 216 164 133 89 
263 892 273 114 85 66 
83 425 243 56 101 135 
145 428 206 78 103 126 
277 610 303 119 138 160 
379 648 226 17 85 130 
118 409 215 138 145 158 
403 640 263 105 117 131 
268 387 328 181 150 116 
164 26 313 137 113 99 
317 550 218 15 67 137 
249 731 148 197 190 199 
246 357 336 80 93 111 
252 518 168 140 153 171 
270 73 239 113 91 67 
307 756 200 113 119 129 
96 583 195 159 114 90 
291 762 174 56 30 87 
192 524 303 125 148 174 
166 388 297 141 140 147 
331 815 270 215 150 121 
137 353 230 115 66 6 
218 1001 277 94 69 56 
175 362 308 110 107 126 
152 843 210 199 145 113 
178 765 276 156 115 129 
180 131 330 67 53 39 
197 724 297 97 94 103 
261 359 340 180 154 129 
328 643 187 153 154 161 
318 373 236 98 119 142 
155 707 250 117 128 144 
248 293 283 106 94 80 
303 133 204 125 72 28 
153 413 208 74 101 129 
286 761 166 161 32 54 
186 475 315 161 171 186 
343 808 245 202 139 108 
373 742 238 119 36 47 
249 277 296 104 111 121 
158 211 289 75 102 126 
186 637 153 85 126 159 
228 306 338 117 116 121 
224 782 169 113 28 45 
111 655 188 166 116 95 
326 646 182 138 140 148 
280 272 177 95 108 123 
170 537 283 159 155 162 
235 950 257 123 87 58 
322 756 217 114 97 82 
167 30 313 139 105 86 
244 631 133 169 165 169 
103 481 256 100 127 155 
250 388 336 178 134 87 
138 611 192 69 58 57 
168 17 318 126 117 111 
302 621 213 85 87 92 
230 198 338 121 86 72 
324 535 290 163 164 172 
286 765 290 189 140 107 
314 669 185 204 202 212 
181 910 344 167 129 108 
287 126 193 101 82 61 
350 693 277 125 64 62 
315 420 272 103 120 140 
274 51 238 120 101 82 
168 495 175 88 110 133 
158 660 162 121 111 105 
317 380 254 78 106 134 
200 989 276 166 129 98 
179 495 306 195 192 198 
309 195 173 135 65 70 
195 916 252 164 123 87 
108 481 259 160 166 179 
168 23 318 140 127 120 
380 762 243 148 130 117 
185 721 299 152 97 108 
203 690 300 185 152 115 
235 851 209 225 168 130 
207 217 258 128 65 67 
156 535 273 188 182 184 
298 733 166 111 102 124 
307 670 287 84 65 140 
297 397 279 63 98 129 
324 472 209 146 150 159 
168 26 316 156 136 126 
363 731 237 96 29 35 
166 657 259 143 143 152 
228 258 340 60 64 81 
325 520 286 88 105 145 
239 899 237 131 97 71 
196 191 345 57 42 63 
180 953 287 96 82 73 
170 27 317 167 146 136 
143 633 159 86 116 144 
436 659 271 87 99 112 
232 991 276 181 139 94 
348 794 236 170 155 146 
328 521 244 105 121 147 
306 613 171 110 129 151 
220 776 167 80 75 81 
242 309 341 125 77 73 
281 241 255 100 31 54 
137 621 159 92 119 147 
128 348 258 147 130 113 
162 813 237 183 165 153 
162 398 292 143 143 149 
301 816 210 144 117 91 
314 495 202 83 104 126 
178 162 335 100 87 104 
217 177 294 142 59 4 
169 31 313 132 97 80 
271 517 178 83 111 141 
309 730 292 171 143 114 
170 29 315 140 110 95 
133 536 201 68 103 141 
205 708 298 178 62 20 
295 660 296 99 145 184 
287 32 232 107 87 67 
85 547 202 182 122 102 
247 329 345 166 140 113 
179 247 273 71 100 125 
153 646 162 165 162 168 
271 512 310 148 157 177 
162 693 292 139 162 187 
283 316 146 166 166 175 
199 997 281 179 151 127 
313 774 210 125 111 100 
277 910 312 162 130 96 
179 437 321 157 161 172 
336 697 278 159 78 54 
143 657 201 84 103 136 
234 935 345 120 93 77 
246 844 206 185 128 97 
203 821 178 130 110 99 
361 742 235 116 91 56 
259 88 215 116 94 68 
324 499 282 99 107 145 
191 858 300 132 103 74 
310 757 203 135 118 104 
317 406 185 122 138 158 
154 103 330 131 70 6 
205 860 331 121 92 75 
320 593 276 124 124 130 
84 481 240 58 66 79 
260 502 315 92 132 169 
55 509 215 144 107 89 
271 667 128 182 182 194 
173 29 317 151 128 119 
286 755 163 171 37 47 
216 681 150 88 137 176 
322 688 203 183 182 192 
214 736 295 103 97 96 
173 30 316 135 106 93 
229 694 149 180 176 188 
270 428 313 71 100 140 
278 85 196 135 109 83 
216 196 362 68 91 112 
193 186 344 56 86 109 
175 28 318 176 154 149 
317 372 184 125 139 159 
246 384 146 63 87 107 
269 865 248 164 120 84 
294 123 207 115 101 87 
310 189 245 120 49 57 
196 951 348 90 75 61 
164 649 221 97 102 122 
211 894 351 153 124 97 
263 890 270 129 96 73 
299 340 262 163 122 67 
261 22 199 158 140 127 
302 244 150 125 110 108 
272 695 133 128 162 204 
306 302 179 85 117 146 
221 797 277 193 150 129 
256 24 244 164 145 141 
86 441 212 134 139 150 
296 440 298 83 108 138 
179 11 288 104 86 66 
227 713 151 115 147 186 
178 10 290 102 85 66 
261 257 225 107 77 78 
273 906 271 144 124 106 
314 485 201 150 154 165 
149 712 268 117 138 162 
302 143 226 141 65 4 
140 563 242 89 114 159 
273 638 313 152 111 98 
52 490 216 109 126 152 
309 669 178 142 148 160 
84 448 238 112 136 175 
265 137 213 103 85 67 
251 372 154 76 91 107 
286 136 185 121 108 98 
92 528 214 153 122 114 
82 485 238 58 75 96 
321 724 287 97 97 100 
378 646 299 110 91 72 
276 381 294 112 122 136 
179 10 295 101 86 70 
274 159 241 89 27 21 
224 196 294 36 69 94 
302 135 198 126 78 42 
257 203 239 79 43 64 
181 11 289 105 87 65 
270 179 204 76 47 29 
295 686 133 182 183 198 
315 64 196 174 158 148 
257 326 271 66 98 125 
388 656 226 58 104 141 
197 474 162 90 115 141 
267 483 334 89 109 161 
168 131 339 102 84 84 
297 636 198 68 83 99 
286 174 251 75 56 64 
259 715 319 172 160 155 
298 629 141 93 111 130 
279 52 236 125 104 82 
164 336 296 144 125 107 
235 979 275 122 91 52 
348 796 237 155 151 152 
206 820 179 170 137 113 
190 595 288 77 127 165 
338 804 233 209 168 121 
330 514 263 93 110 154 
260 900 248 125 93 73 
163 474 181 102 117 136 
183 10 292 105 87 66 
268 921 302 118 92 76 
279 164 198 112 59 37 
150 431 203 82 104 126 
289 827 258 201 146 114 
257 36 203 153 126 99 
303 631 204 75 85 97 
198 533 303 143 153 171 
177 824 177 141 39 60 
219 596 304 163 169 182 
279 443 291 57 85 121 
322 67 200 180 163 153 
113 449 256 108 126 148 
104 580 176 110 83 58 
205 953 350 104 83 65 
308 210 162 119 88 73 
333 811 273 205 142 113 
305 142 220 144 72 5 
178 10 298 105 91 77 
178 10 299 106 92 79 
212 149 288 116 104 95 
304 606 162 83 121 152 
228 205 271 93 48 76 
341 629 270 68 79 92 
244 861 312 146 107 77 
267 946 315 125 100 74 
159 171 293 55 82 105 
155 414 207 68 96 126 
214 160 371 108 65 19 
234 329 340 95 89 101 
205 336 345 139 71 73 
247 830 268 158 102 78 
101 516 189 72 95 115 
194 869 333 164 120 101 
382 654 315 86 110 133 
216 944 253 82 59 45 
316 270 246 149 147 151 
247 531 168 87 101 118 
262 922 331 94 75 58 
180 10 297 103 88 73 
181 10 296 103 87 71 
283 154 252 105 65 58 
190 938 350 92 76 64 
271 691 317 160 65 30 
238 223 302 110 33 50 
308 638 170 61 101 134 
165 541 275 68 129 174 
182 10 297 103 88 72 
318 211 227 55 78 102 
268 248 200 100 26 47 
284 267 150 136 132 133 
265 915 323 122 94 71 
387 752 283 132 125 128 
212 365 206 121 123 128 
303 648 132 125 129 137 
216 333 349 153 136 130 
178 944 282 107 84 65 
284 125 249 103 92 85 
193 216 341 145 144 149 
180 10 303 111 99 89 
251 962 274 147 108 70 
146 462 288 87 109 142 
220 301 348 140 140 146 
318 430 230 132 144 160 
209 671 151 80 137 183 
384 720 288 144 57 64 
147 353 290 133 68 5 
170 739 164 80 107 147 
98 499 202 71 90 112 
216 642 315 67 55 81 
391 634 261 86 102 118 
265 780 166 78 99 139 
271 927 330 117 97 80 
101 446 243 89 114 145 
269 928 276 65 52 44 
353 708 278 170 131 106 
184 11 290 108 88 65 
290 98 226 123 98 72 
316 681 282 163 94 91 
262 287 217 105 102 102 
322 67 196 181 165 155 
168 274 301 146 91 78 
212 868 253 160 118 89 
364 675 295 114 149 182 
90 423 249 87 117 165 
388 639 245 56 87 110 
208 637 147 150 148 155 
309 178 211 102 85 91 
184 10 292 106 87 66 
189 657 298 92 112 132 
294 67 217 139 114 93 
337 790 227 189 173 164 
209 520 162 153 159 175 
87 425 222 98 107 118 
286 157 253 104 48 40 
150 453 290 144 146 153 
268 558 176 135 130 128 
376 645 296 106 89 70 
253 890 311 159 113 85 
397 700 244 88 113 165 
249 377 145 65 86 105 
338 662 312 95 142 194 
265 361 292 133 133 138 
247 261 332 139 89 87 
285 661 313 122 162 198 
182 708 304 185 96 101 
259 956 277 107 77 64 
281 87 194 138 112 86 
226 961 339 131 108 87 
312 651 162 117 79 84 
160 173 298 53 78 103 
189 10 291 112 92 70 
261 515 329 92 113 178 
267 799 282 200 142 118 
133 690 201 52 55 116 
277 441 306 59 83 117 
163 724 158 132 140 165 
192 53 308 109 85 61 
278 674 128 105 134 187 
218 826 184 192 165 142 
310 700 198 111 130 153 
286 829 212 203 149 117 
187 868 289 137 104 77 
254 491 332 136 154 188 
175 655 158 77 122 158 
176 303 304 117 78 99 
200 830 250 177 123 104 
286 836 253 198 143 114 
175 270 324 95 117 141 
78 532 185 215 150 138 
217 795 277 188 144 122 
320 429 199 110 130 154 
87 516 217 146 115 103 
446 667 273 44 72 105 
116 677 173 77 55 57 
78 483 236 54 86 147 
167 511 173 100 116 136 
190 10 294 113 94 74 
257 369 139 106 120 140 
275 379 286 102 116 133 
398 686 240 98 121 173 
110 540 189 48 69 87 
90 512 210 78 79 90 
313 657 173 178 172 175 
185 10 297 105 89 72 
291 703 139 152 118 118 
287 79 226 120 99 77 
81 495 205 63 94 130 
250 627 310 74 66 66 
236 952 259 147 117 89 
199 238 261 75 106 131 
301 601 158 85 119 148 
270 322 174 94 59 53 
95 570 203 167 118 98 
95 471 210 93 112 135 
310 315 204 157 156 162 
293 46 222 124 114 107 
54 502 197 125 99 75 
217 655 146 76 134 180 
154 548 265 72 120 157 
296 592 158 78 93 107 
130 461 203 44 83 122 
323 639 258 65 96 123 
147 652 202 69 91 138 
301 435 291 93 114 138 
291 67 193 122 99 72 
80 482 210 66 99 124 
150 757 253 103 117 138 
249 268 233 117 62 8 
322 567 245 107 117 145 
299 452 300 139 143 153 
258 147 243 126 69 5 
213 837 302 133 105 83 
120 679 161 108 124 146 
273 111 239 96 78 58 
171 666 160 80 129 167 
189 810 255 151 137 132 
238 940 250 94 69 46 
212 152 341 120 54 8 
398 746 248 186 128 87 
313 372 217 89 111 146 
311 211 248 42 66 94 
331 498 258 150 152 162 
412 732 253 173 29 51 
319 63 192 171 154 143 
358 705 235 146 152 165 
182 516 167 154 159 175 
283 269 150 127 129 135 
320 823 259 228 162 134 
260 852 263 152 111 82 
188 10 301 110 96 83 
288 698 303 100 87 78 
167 228 315 123 109 104 
250 266 305 106 25 60 
143 741 155 140 153 177 
124 708 155 118 129 158 
308 615 233 87 97 110 
173 307 239 127 122 121 
254 301 299 123 130 141 
261 15 245 126 114 108 
201 192 264 101 86 106 
215 952 348 86 70 57 
276 133 250 83 74 70 
216 157 342 117 52 7 
215 841 293 129 101 77 
318 61 196 170 154 145 
152 326 245 119 103 85 
294 97 209 129 104 75 
185 954 278 87 70 55 
138 562 233 137 135 143 
253 301 337 159 160 167 
290 668 294 109 95 133 
144 583 163 107 137 174 
287 661 127 135 150 176 
312 628 279 61 61 64 
179 10 304 113 101 92 
182 795 167 178 79 93 
265 152 241 120 54 12 
222 731 155 135 154 187 
234 579 308 80 107 148 
280 527 183 83 106 129 
268 552 320 164 175 192 
304 548 199 78 101 124 
187 885 281 138 105 76 
270 939 293 68 55 48 
304 159 233 64 95 120 
366 783 244 214 170 118 
272 810 274 187 130 108 
229 606 139 120 109 104 
207 340 218 127 125 126 
178 592 153 113 125 144 
406 712 298 138 153 174 
174 904 299 146 111 84 
167 231 273 96 125 152 
296 71 192 136 102 60 
178 10 310 117 107 101 
284 235 158 96 43 17 
138 339 263 158 137 117 
211 337 348 144 119 85 
230 846 311 137 110 81 
158 213 289 76 108 135 
230 561 306 90 111 154 
198 982 325 114 76 52 
121 358 243 130 107 87 
315 362 178 109 125 143 
281 270 173 75 102 125 
320 561 233 122 142 164 
175 519 169 129 135 149 
216 1004 289 100 78 52 
117 637 197 147 109 89 
247 544 168 74 89 104 
240 498 159 106 127 177 
316 703 285 75 76 81 
218 936 352 97 70 57 
316 489 205 169 169 179 
277 747 301 152 109 71 
183 10 307 112 101 95 
205 632 147 168 163 173 
120 492 193 88 112 138 
162 461 305 140 143 154 
291 96 225 122 99 73 
326 465 242 29 86 131 
177 258 274 101 95 91 
339 632 277 74 83 93 
173 927 287 87 71 58 
212 282 348 85 107 127 
223 740 157 169 170 189 
181 11 311 114 104 99 
236 784 169 220 175 114 
302 711 168 126 129 140 
207 843 291 128 101 76 
309 658 311 129 160 191 
291 64 197 118 99 78 
286 727 147 178 199 222 
407 667 238 106 125 147 
255 647 319 138 126 119 
110 475 260 95 121 146 
160 686 212 62 106 139 
230 443 315 59 80 116 
171 424 314 120 129 144 
272 709 137 198 192 203 
340 650 200 124 139 158 
204 192 355 69 50 48 
247 871 314 158 115 90 
248 297 264 142 141 147 
420 728 279 189 204 226 
312 667 143 160 160 167 
178 11 313 116 106 101 
161 161 299 116 47 73 
154 645 235 72 96 137 
163 728 293 102 147 182 
324 461 274 79 109 134 
445 673 299 134 149 168 
145 830 221 144 130 122 
384 758 245 114 124 139 
172 665 284 118 120 127 
235 557 157 92 107 123 
111 651 190 164 115 95 
198 975 325 136 111 88 
153 465 296 88 113 147 
288 50 230 114 90 71 
196 300 245 78 102 124 
209 848 317 123 60 63 
231 358 193 118 90 71 
171 105 326 128 71 41 
143 710 156 90 115 157 
193 117 298 129 59 10 
139 831 209 151 54 98 
255 787 287 201 148 122 
123 441 262 158 158 165 
279 103 203 106 84 57 
292 552 184 91 106 122 
177 358 220 102 94 90 
97 560 208 164 121 101 
247 285 262 102 117 135 
192 407 197 83 100 117 
249 896 324 147 108 83 
291 118 231 108 89 70 
229 477 308 83 95 126 
184 377 323 88 108 131 
306 566 304 173 176 190 
178 894 293 142 104 78 
219 279 344 72 106 133 
177 516 169 80 104 147 
228 969 332 88 67 54 
185 963 292 112 89 74 
319 222 237 98 73 69 
277 77 235 123 102 83 
275 795 179 177 155 137 
237 677 141 179 177 188 
241 590 317 132 156 191 
180 11 316 116 106 101 
228 305 338 123 121 125 
277 297 261 81 85 95 
265 172 209 103 58 28 
228 999 315 107 79 50 
330 500 252 163 162 169 
141 371 284 132 116 101 
199 837 186 90 91 103 
166 773 160 186 180 198 
225 992 327 130 97 72 
230 386 172 74 98 122 
217 861 220 216 160 128 
254 448 330 67 90 142 
318 589 291 134 130 134 
351 721 234 77 68 111 
258 629 312 94 79 109 
133 817 191 121 48 124 
184 10 305 110 99 90 
185 10 304 110 98 89 
289 187 251 90 43 38 
185 668 304 94 71 85 
204 852 207 189 171 162 
224 797 278 194 149 131 
86 414 240 105 122 142 
230 727 153 145 161 193 
196 997 293 145 119 100 
318 346 242 119 120 137 
215 631 145 164 164 173 
279 108 204 108 86 58 
186 10 307 113 102 95 
328 529 271 161 162 171 
278 824 265 199 130 109 
292 39 214 114 100 88 
251 877 293 158 115 85 
227 323 217 103 99 98 
295 332 171 145 144 149 
292 584 303 185 184 193 
182 884 290 138 104 76 
314 373 225 83 108 142 
232 497 309 72 86 128 
161 129 305 99 97 101 
267 788 286 203 145 120 
299 621 204 89 90 93 
252 775 293 206 154 124 
128 795 191 111 135 159 
294 680 293 70 39 95 
281 259 168 64 93 116 
159 688 222 32 50 79 
314 353 226 153 96 116 
341 652 201 131 146 167 
102 400 257 52 84 145 
379 775 253 133 117 109 
251 639 129 116 138 165 
234 341 338 95 96 107 
309 620 301 91 83 77 
115 392 266 89 71 102 
326 533 246 100 112 148 
296 420 175 76 113 158 
183 574 153 150 156 167 
316 600 280 135 130 131 
171 560 273 103 138 168 
190 10 304 115 103 94 
237 932 237 88 66 47 
184 895 278 142 107 76 
148 828 186 168 14 58 
257 904 318 93 72 54 
147 365 288 119 77 61 
256 224 203 112 28 55 
154 704 272 130 138 150 
111 713 159 86 113 143 
167 708 296 109 136 163 
188 10 308 115 104 97 
319 440 230 141 147 159 
251 507 165 180 183 196 
317 379 183 87 119 148 
232 485 157 191 185 187 
149 725 252 141 152 169 
267 849 258 174 126 99 
334 662 199 162 184 210 
232 208 315 76 90 104 
263 106 214 129 100 69 
201 202 345 59 39 43 
193 784 274 179 154 131 
299 129 224 121 110 100 
276 626 129 52 87 118 
190 11 311 121 109 103 
394 685 239 83 117 185 
261 426 150 139 149 167 
176 214 274 103 92 98 
304 420 180 163 166 183 
270 783 288 205 147 121 
75 504 217 124 103 96 
277 511 308 158 160 169 
154 474 185 121 127 137 
107 560 171 60 83 102 
236 722 150 195 186 188 
358 708 279 130 46 54 
189 592 150 172 167 170 
287 329 163 145 145 151 
347 674 284 97 134 165 
284 394 288 110 121 136 
157 143 294 127 86 65 
167 832 226 153 125 94 
203 280 342 147 148 155 
289 118 201 105 87 65 
268 369 294 141 140 145 
439 680 301 122 134 192 
263 906 313 100 72 50 
277 51 206 108 92 75 
184 11 319 121 110 103 
219 162 362 104 88 69 
160 637 224 98 97 121 
180 704 305 178 83 86 
176 289 259 97 97 100 
187 11 316 121 110 103 
155 608 190 74 96 120 
214 294 348 143 145 153 
186 11 319 123 111 104 
232 161 262 138 69 6 
436 710 280 167 174 212 
238 223 309 130 40 67 
276 739 306 124 138 154 
197 117 260 109 98 88 
189 11 313 121 110 103 
138 752 213 135 145 160 
299 271 152 142 151 167 
209 953 260 136 106 76 
263 960 305 150 120 88 
213 146 266 99 63 40 
190 11 313 122 110 104 
191 11 312 122 110 104 
216 644 317 97 76 122 
190 956 271 165 128 87 
316 404 202 104 125 149 
188 667 307 84 58 72 
212 440 321 105 111 158 
316 468 288 143 145 154 
131 766 186 113 123 149 
150 335 233 149 132 114 
121 419 214 93 115 139 
251 391 140 97 128 162 
314 374 225 84 110 141 
278 590 147 82 104 124 
293 619 297 47 59 70 
315 608 259 100 110 125 
324 661 299 129 157 185 
267 255 210 101 84 87 
221 177 322 140 63 5 
159 750 157 85 99 120 
154 325 241 121 110 100 
196 181 266 128 83 79 
304 134 203 127 69 22 
229 552 305 105 122 153 
115 462 261 81 111 143 
210 497 307 115 135 168 
216 384 190 67 90 110 
417 690 248 139 152 173 
260 308 207 92 95 100 
236 275 351 112 73 93 
306 611 285 70 105 135 
217 521 305 118 128 154 
258 405 345 191 80 11 
127 793 186 129 149 172 
316 246 204 140 76 28 
72 496 191 93 86 81 
190 171 262 100 87 102 
234 862 323 146 112 79 
267 174 239 99 30 34 
410 665 311 98 131 184 
261 341 285 71 106 136 
182 425 324 125 136 156 
381 645 287 90 81 73 
337 667 298 139 166 194 
326 520 283 103 118 150 
223 556 154 114 118 126 
179 260 330 111 126 143 
242 637 308 76 62 72 
256 566 318 65 87 132 
310 161 203 141 104 83 
190 945 347 87 71 59 
271 94 239 103 84 62 
241 642 314 81 60 48 
272 436 310 64 92 133 
289 269 144 155 156 162 
277 759 158 205 147 76 
216 172 295 140 63 3 
74 491 201 94 86 80 
207 162 343 105 83 63 
185 570 153 146 148 155 
218 316 230 84 101 123 
183 27 319 147 120 128 
213 164 301 111 99 90 
382 670 322 135 158 184 
268 332 153 102 65 72 
331 665 288 88 134 171 
256 63 237 81 67 52 
97 407 255 57 98 149 
124 494 191 131 138 149 
151 756 157 182 181 192 
173 913 331 166 129 105 
262 324 321 75 110 138 
163 153 304 129 68 74 
48 505 213 152 109 96 
336 708 279 118 120 135 
225 189 311 57 64 82 
182 31 314 133 106 92 
175 846 210 221 177 125 
150 566 205 72 97 134 
134 544 241 125 137 155 
262 468 339 67 104 181 
386 638 277 84 107 130 
158 701 230 18 49 104 
206 274 254 101 112 125 
306 823 258 219 162 129 
274 34 213 81 64 41 
179 834 229 165 144 127 
68 460 217 117 120 126 
191 241 269 69 96 122 
164 138 311 109 93 108 
176 343 312 132 116 101 
325 689 206 195 192 200 
184 961 288 98 78 66 
290 220 166 77 46 51 
166 328 232 147 127 106 
171 437 315 73 103 135 
194 554 155 106 114 126 
311 652 157 140 142 150 
247 930 247 108 79 61 
188 843 224 114 117 123 
242 248 259 132 28 37 
205 872 335 152 114 95 
317 817 268 202 141 108 
285 171 251 74 46 51 
175 524 168 68 86 109 
167 651 210 41 60 114 
370 673 306 128 161 196 
300 268 154 116 137 160 
192 866 317 139 110 84 
298 685 291 127 53 71 
263 340 169 99 91 86 
391 638 276 97 113 132 
185 30 314 164 142 136 
259 910 321 99 74 55 
310 667 286 75 136 179 
96 405 229 89 99 110 
323 453 207 97 121 146 
229 443 148 103 129 190 
321 462 202 129 141 158 
110 703 159 98 127 171 
317 230 214 99 81 91 
188 222 270 118 71 79 
192 337 332 116 104 94 
169 712 163 100 119 147 
187 30 314 172 151 145 
285 240 154 112 62 56 
255 646 318 95 89 85 
185 28 316 177 153 152 
291 259 257 71 95 124 
275 692 132 136 164 201 
203 316 343 105 124 146 
182 465 174 131 134 143 
148 425 205 68 96 121 
160 658 229 83 99 132 
213 154 340 122 57 1 
187 28 316 170 147 145 
269 853 225 223 169 133 
313 408 181 91 119 154 
254 530 171 98 112 131 
113 727 167 113 135 162 
309 642 311 115 84 75 
264 887 259 134 99 74 
366 651 318 127 138 154 
189 27 318 153 136 135 
261 347 339 96 119 143 
240 338 336 62 53 60 
400 659 311 134 139 150 
295 324 172 127 126 129 
306 636 185 60 89 115 
307 184 248 127 62 61 
345 629 268 46 71 92 
207 228 257 127 74 63 
179 952 287 83 71 65 
235 402 323 126 132 145 
107 449 252 95 118 149 
191 291 336 109 127 148 
188 29 315 176 150 149 
169 195 274 57 82 104 
176 907 337 157 122 97 
181 662 296 96 108 122 
161 164 300 108 45 67 
270 268 208 103 100 101 
80 454 235 91 118 158 
263 212 242 43 41 63 
207 447 161 65 95 119 
215 793 172 175 5 35 
317 647 318 41 45 83 
197 523 164 120 130 145 
293 549 187 85 99 114 
191 29 313 166 141 141 
115 749 160 89 113 167 
80 507 217 124 98 93 
220 322 223 78 98 121 
160 241 293 138 134 135 
326 500 223 118 135 160 
226 524 163 176 172 176 
149 785 163 135 174 215 
314 284 249 143 142 148 
292 166 253 86 55 55 
395 637 260 88 106 124 
245 252 322 65 82 100 
284 578 158 103 88 73 
203 845 235 189 138 112 
157 612 199 48 92 122 
321 455 275 143 148 159 
56 512 193 109 80 66 
112 627 166 120 90 62 
214 210 362 127 115 113 
386 709 289 148 86 90 
279 782 174 162 129 96 
182 417 324 76 101 137 
175 910 336 164 127 102 
277 407 159 95 124 155 
279 387 286 137 139 146 
290 806 198 166 136 105 
347 671 299 154 187 221 
332 745 226 68 74 92 
109 383 235 109 75 76 
244 855 213 215 156 120 
330 491 242 87 116 150 
225 895 347 158 128 100 
308 262 188 131 115 99 
202 142 303 89 81 76 
219 728 297 50 53 70 
171 296 282 150 129 106 
226 204 350 122 112 102 
309 505 303 101 118 150 
210 642 300 46 60 73 
380 692 288 170 85 91 
172 713 302 107 139 170 
294 493 315 165 163 169 
313 721 290 84 83 87 
173 264 272 107 109 113 
290 319 167 157 153 155 
257 357 154 92 61 49 
352 713 234 135 145 160 
242 541 323 106 134 170 
245 617 308 110 94 100 
223 537 303 77 101 130 
147 772 230 61 55 91 
376 739 286 117 110 112 
182 221 271 126 48 49 
288 285 143 100 117 138 
140 609 162 87 87 97 
200 295 248 74 93 112 
233 213 321 92 90 100 
302 813 264 191 138 105 
157 728 288 173 48 60 
316 223 217 103 72 68 
273 289 202 84 92 103 
321 740 288 189 150 103 
260 557 174 140 135 134 
173 909 303 135 106 79 
203 429 328 165 166 178 
294 836 248 214 156 124 
233 213 340 95 102 113 
153 813 174 176 13 38 
168 447 189 95 109 125 
208 327 228 78 90 105 
223 843 292 119 92 67 
301 639 311 142 100 85 
152 431 289 129 132 143 
300 737 178 138 75 80 
178 809 170 144 43 89 
60 501 216 137 122 132 
230 809 180 163 138 118 
216 155 350 146 76 25 
233 538 310 113 127 151 
164 645 202 45 72 122 
338 723 228 146 89 87 
145 367 286 147 50 85 
270 613 134 96 110 127 
264 151 214 133 92 68 
197 339 337 140 125 115 
205 146 344 114 68 11 
267 882 259 136 96 69 
300 808 206 131 103 77 
319 58 216 162 146 136 
258 13 226 118 103 92 
383 737 241 140 119 95 
230 451 317 70 90 145 
192 116 283 85 76 68 
180 547 160 99 110 124 
163 312 245 142 124 107 
164 47 262 126 109 90 
96 561 208 164 121 100 
167 430 198 116 124 137 
282 157 251 108 41 40 
115 524 180 65 94 118 
281 62 196 113 94 74 
161 208 301 105 61 64 
243 782 290 208 155 129 
277 332 147 179 140 94 
249 564 154 130 127 126 
225 370 190 103 107 115 
296 151 247 53 75 95 
273 520 318 113 127 166 
300 144 231 135 64 10 
274 116 207 109 88 63 
259 923 333 95 79 64 
187 847 197 228 182 128 
326 640 184 129 129 133 
177 702 161 131 132 140 
270 150 241 99 44 14 
64 476 213 91 107 124 
315 351 188 134 141 154 
202 741 157 174 170 180 
402 655 287 104 87 70 
175 161 329 115 67 89 
161 230 304 68 103 132 
181 906 278 93 71 48 
291 181 252 105 53 58 
302 207 251 43 40 46 
242 794 173 121 153 181 
250 968 293 103 79 61 
279 288 183 117 116 120 
201 272 253 102 110 121 
261 519 203 96 105 116 
374 717 241 130 137 148 
270 746 151 207 9 31 
197 864 277 129 100 69 
351 804 254 205 142 110 
272 383 150 76 117 151 
118 505 233 62 123 163 
308 152 205 123 69 80 
317 266 246 154 149 151 
169 682 296 143 160 181 
188 375 327 59 93 124 
169 335 229 150 128 104 
236 536 168 85 100 116 
54 482 215 111 109 110 
221 995 325 133 103 73 
284 252 152 77 113 142 
266 376 331 187 158 127 
333 803 227 82 133 172 
168 836 186 116 141 165 
277 608 139 96 108 122 
185 189 339 94 86 101 
179 159 268 62 67 92 
278 491 178 97 120 147 
248 383 332 172 142 108 
261 813 185 209 178 152 
168 103 326 102 79 57 
236 850 310 143 110 78 
221 497 306 102 116 147 
314 381 223 39 92 125 
162 44 267 122 107 92 
127 738 180 135 146 164 
138 343 267 137 122 108 
304 435 182 129 145 174 
197 18 331 160 116 101 
170 551 161 98 109 124 
219 442 151 96 112 130 
239 534 318 88 108 146 
354 643 218 124 138 156 
160 44 271 122 111 103 
120 646 159 83 118 157 
151 408 280 146 148 157 
285 352 270 157 127 96 
167 438 197 111 117 125 
160 46 269 126 113 103 
318 248 213 96 118 140 
261 338 281 75 105 131 
292 328 264 142 109 68 
250 955 327 95 80 68 
160 46 271 123 111 103 
143 438 281 100 113 134 
418 650 264 114 120 128 
161 47 270 124 111 102 
237 604 137 90 120 146 
375 671 228 187 181 204 
231 452 149 115 135 185 
284 416 166 93 127 157 
126 361 238 109 56 6 
233 468 320 99 116 167 
219 326 220 78 83 89 
296 68 214 141 113 92 
156 338 287 143 125 107 
188 504 165 152 155 168 
327 695 280 146 82 71 
124 715 173 96 105 140 
309 570 203 164 164 170 
291 105 216 115 95 74 
157 643 201 26 51 107 
210 1003 288 120 97 79 
206 282 345 138 141 149 
192 723 298 157 63 72 
149 535 268 178 170 170 
282 738 151 195 49 71 
187 330 327 157 99 69 
158 832 185 196 148 107 
326 631 315 132 108 84 
191 393 331 66 95 142 
338 743 228 98 94 95 
325 765 288 73 85 100 
290 742 299 177 164 157 
310 398 269 70 102 136 
162 722 295 71 121 158 
232 510 303 99 115 147 
203 23 289 122 110 102 
205 269 344 73 113 144 
118 758 163 142 151 181 
172 422 315 106 119 142 
344 633 293 92 86 83 
144 383 219 50 86 117 
253 367 159 99 103 111 
171 706 300 83 119 151 
188 789 165 117 105 106 
155 596 193 58 94 125 
313 58 198 166 151 142 
190 720 157 130 149 177 
389 662 317 132 143 159 
360 736 283 116 103 94 
248 366 166 100 110 121 
170 35 271 108 94 79 
159 130 298 71 94 114 
246 899 331 148 111 86 
168 37 270 117 101 85 
335 806 230 112 105 103 
227 627 301 138 129 128 
268 319 181 100 87 76 
270 405 302 128 103 102 
209 277 346 117 135 156 
95 450 211 118 135 166 
142 798 175 192 202 220 
283 349 270 142 126 112 
329 490 243 83 111 143 
268 928 273 66 53 44 
168 624 264 60 60 65 
152 599 244 68 95 119 
219 731 297 163 147 138 
309 223 189 132 106 100 
314 492 202 163 163 170 
327 715 283 123 120 125 
183 945 273 93 76 65 
159 133 301 93 91 93 
131 343 258 161 143 126 
272 526 321 116 133 169 
279 646 314 61 56 56 
182 526 298 131 156 186 
94 492 243 113 121 141 
103 427 246 113 133 160 
390 661 317 147 153 164 
168 43 266 115 99 83 
274 368 290 143 142 148 
227 561 305 100 114 136 
105 610 173 122 92 60 
147 670 204 97 107 130 
264 120 215 117 91 58 
281 828 210 196 141 107 
253 977 312 109 85 64 
235 845 202 206 179 156 
102 489 254 152 164 182 
247 563 322 175 185 203 
251 873 299 162 122 91 
166 269 298 156 135 114 
197 122 274 83 78 74 
204 554 305 124 142 168 
280 63 233 118 98 79 
202 187 362 59 77 97 
154 416 286 90 110 133 
171 41 270 127 116 107 
211 144 265 99 73 59 
272 330 268 120 124 132 
214 880 249 176 130 100 
296 404 283 70 107 137 
218 248 343 60 39 44 
269 800 180 203 174 148 
168 45 264 115 99 83 
319 253 219 74 100 124 
265 198 187 80 62 40 
222 173 357 144 110 56 
169 44 266 116 104 93 
90 433 245 83 108 169 
150 336 232 156 135 114 
172 934 295 79 64 56 
272 488 323 105 130 164 
171 937 313 105 85 70 
303 615 214 89 94 102 
287 489 182 147 157 174 
349 724 234 97 74 100 
188 641 285 67 109 141 
163 256 295 106 115 128 
120 369 237 119 107 97 
270 366 142 163 163 170 
219 557 152 96 104 115 
170 47 265 129 116 106 
170 46 266 128 116 106 
295 134 237 122 82 33 
316 360 186 118 133 152 
126 792 185 117 144 171 
232 847 310 137 110 80 
158 692 207 122 133 148 
172 101 323 103 93 83 
171 783 259 113 107 106 
315 283 247 130 134 144 
163 148 278 120 63 66 
328 477 241 102 121 141 
329 518 251 109 122 154 
234 1000 279 173 139 102 
311 310 199 159 157 162 
125 759 171 111 130 155 
257 511 168 120 141 166 
230 998 318 120 91 64 
304 808 268 186 134 101 
180 894 336 140 115 91 
120 686 183 129 141 161 
285 645 314 54 45 43 
289 539 315 165 169 185 
175 466 315 119 118 157 
103 415 255 100 125 166 
119 626 199 144 108 88 
297 528 311 133 145 171 
194 231 268 83 106 125 
340 639 244 54 96 128 
237 336 338 79 69 66 
272 448 332 122 136 158 
259 355 145 100 84 70 
131 550 187 12 69 103 
317 262 245 143 140 143 
199 129 289 89 77 67 
154 577 254 61 73 105 
324 502 220 99 121 157 
201 27 287 117 103 93 
327 567 284 115 130 150 
225 195 303 46 55 62 
151 765 157 131 148 187 
176 190 274 119 82 65 
317 826 252 227 168 134 
180 219 272 129 27 51 
307 146 201 112 115 119 
264 343 144 108 71 53 
212 719 155 128 146 175 
328 673 200 77 96 121 
177 504 303 122 137 170 
251 422 336 141 36 61 
154 521 175 91 108 126 
205 889 345 81 66 50 
246 253 314 54 88 113 
218 169 318 92 77 59 
161 32 277 116 101 86 
162 629 161 176 175 182 
175 941 326 100 78 63 
121 545 171 148 150 159 
161 32 278 115 100 85 
194 418 330 107 124 160 
128 378 276 161 148 142 
161 33 279 119 106 94 
278 149 251 101 48 19 
278 526 313 133 141 157 
154 580 196 39 52 88 
305 504 307 179 178 185 
258 60 238 86 71 57 
172 704 162 66 91 117 
160 134 267 115 108 122 
266 596 310 96 115 146 
306 630 205 84 94 106 
263 330 178 91 84 81 
100 408 257 152 168 187 
260 312 321 85 117 145 
291 61 222 140 112 92 
219 685 150 157 97 91 
350 797 275 202 141 110 
161 39 273 138 125 117 
299 530 194 47 86 121 
319 739 289 115 94 77 
170 438 314 58 87 138 
249 385 335 181 148 110 
211 290 249 111 109 111 
268 755 299 200 148 115 
213 623 145 157 158 169 
234 775 165 73 58 128 
163 36 273 121 106 90 
179 882 311 168 129 104 
162 36 274 124 109 95 
264 14 205 157 138 124 
143 329 253 98 84 70 
288 34 231 105 85 66 
94 495 226 87 123 169 
131 705 155 70 110 151 
250 413 330 140 123 109 
91 427 247 69 102 164 
151 706 262 108 118 133 
62 527 213 203 144 137 
309 638 313 131 92 84 
307 292 251 147 144 147 
213 577 305 104 122 164 
225 188 348 112 125 135 
183 736 162 115 132 157 
160 36 279 133 123 116 
