ply
format ascii 1.0
comment Created by CloudCompare v2.11.1 (Anoia)
comment Created 2/28/22 9:43 PM
obj_info Generated by CloudCompare!
element vertex 2011
property float x
property float y
property float z
property uchar red
property uchar green
property uchar blue
end_header
93 604 246 181 128 109 
251 267 209 134 128 126 
281 397 326 156 64 12 
289 382 303 147 126 105 
261 521 326 119 141 177 
252 967 324 139 109 79 
234 657 136 99 116 136 
275 188 305 110 43 58 
277 155 328 147 75 10 
298 418 287 66 96 128 
162 658 223 113 120 145 
143 475 219 58 91 119 
224 560 174 73 94 115 
230 860 230 228 166 129 
139 802 205 155 139 133 
226 847 219 184 133 92 
217 543 316 126 139 157 
403 675 212 68 101 128 
246 186 300 95 36 34 
86 341 272 166 145 126 
253 309 186 75 85 97 
175 892 341 79 65 61 
92 438 283 167 167 176 
334 635 231 86 109 132 
107 222 263 84 63 49 
334 693 213 114 127 164 
109 219 262 84 50 37 
301 464 202 92 121 153 
321 783 276 153 110 79 
187 417 213 76 100 124 
367 795 257 194 175 162 
173 425 218 80 97 119 
278 418 332 141 124 112 
281 613 304 80 104 138 
329 647 232 61 86 108 
281 274 179 150 159 174 
188 474 321 116 129 159 
234 281 221 118 111 109 
200 730 332 137 117 115 
158 652 215 75 95 130 
219 487 290 63 78 100 
104 284 270 113 131 152 
128 693 177 116 116 129 
173 689 298 138 141 151 
213 850 310 117 91 67 
269 689 315 117 102 96 
111 223 257 98 69 46 
94 500 230 99 108 123 
64 576 276 203 145 136 
107 574 235 33 51 68 
307 682 320 163 49 51 
81 279 250 87 102 120 
315 572 270 197 185 180 
109 220 261 80 54 38 
252 221 275 98 32 51 
274 204 182 123 86 114 
351 760 269 148 135 129 
194 709 328 98 115 134 
219 705 337 173 37 54 
209 425 303 88 103 131 
289 381 190 71 102 130 
300 527 295 160 165 177 
35 562 268 177 125 117 
178 850 253 115 97 90 
251 239 298 65 44 52 
366 795 233 193 168 146 
144 651 160 92 124 152 
201 394 316 99 112 138 
59 360 254 126 15 45 
116 462 221 139 154 179 
98 394 292 150 130 110 
245 179 258 94 85 83 
270 295 291 94 114 133 
356 643 294 105 127 150 
122 591 265 141 142 158 
90 374 280 152 130 109 
233 429 184 86 110 148 
229 990 347 125 99 75 
120 567 284 118 130 162 
261 937 331 108 94 82 
105 223 266 53 61 83 
203 610 318 87 133 174 
214 922 374 173 129 102 
276 420 173 139 148 163 
250 616 155 83 110 136 
107 221 264 79 71 61 
266 257 293 42 74 98 
151 447 318 112 122 141 
224 786 306 194 171 153 
347 717 261 146 113 65 
214 685 318 111 122 137 
172 675 297 146 147 159 
175 897 302 143 110 82 
242 518 176 179 172 173 
438 700 251 93 120 186 
280 302 218 166 165 171 
285 278 219 105 97 94 
265 245 313 120 27 67 
305 464 217 110 130 152 
321 817 219 190 172 156 
315 563 264 89 106 126 
264 877 301 138 110 91 
216 251 290 61 58 55 
117 258 220 103 91 98 
233 644 139 83 103 122 
109 216 266 54 56 60 
109 216 267 32 49 68 
357 780 205 68 57 82 
199 776 183 101 90 125 
388 726 261 121 47 54 
250 472 299 129 129 135 
273 232 322 31 50 73 
120 573 265 87 94 152 
357 653 206 20 63 105 
258 284 280 89 71 60 
152 280 242 137 141 152 
349 701 217 176 167 171 
213 183 281 48 42 56 
178 969 340 132 106 78 
143 687 165 90 138 174 
333 716 215 128 125 129 
392 648 220 111 133 156 
210 121 269 103 85 71 
282 411 173 102 118 142 
111 216 264 86 48 39 
220 387 282 35 51 69 
139 392 224 73 94 116 
273 295 317 152 154 163 
345 720 217 130 126 127 
237 660 136 112 129 148 
260 286 310 105 100 105 
167 833 211 223 176 109 
258 919 335 135 96 68 
237 511 176 123 126 133 
222 1007 328 104 74 52 
174 355 226 118 127 143 
111 218 268 61 63 97 
141 476 312 66 95 137 
210 1007 329 60 38 28 
119 529 311 84 115 144 
373 737 215 128 132 141 
163 542 318 143 149 160 
201 673 324 124 107 115 
113 597 181 114 126 142 
70 489 258 136 149 173 
310 841 257 229 167 139 
191 72 290 112 89 66 
224 551 176 99 116 138 
371 653 291 163 183 215 
293 397 285 115 122 135 
123 738 188 153 163 200 
202 176 288 103 48 41 
261 283 310 91 65 71 
295 603 230 130 126 126 
91 597 194 149 158 175 
109 476 225 115 133 178 
262 30 232 110 83 58 
277 513 330 102 117 147 
125 273 275 161 159 165 
135 316 247 176 168 167 
151 644 158 174 168 170 
130 468 294 103 114 131 
66 532 309 79 91 104 
102 708 196 113 135 161 
360 747 263 116 94 85 
138 179 266 117 74 62 
132 197 273 103 84 100 
130 466 221 96 118 167 
353 725 260 81 39 51 
350 648 295 75 131 176 
131 526 311 86 112 147 
351 635 248 80 82 88 
275 787 298 198 144 116 
253 446 333 74 106 159 
138 433 221 70 102 131 
209 372 311 74 107 137 
50 391 263 147 132 119 
286 560 314 50 80 143 
283 827 212 131 115 106 
269 741 323 197 160 122 
153 637 241 49 84 115 
158 365 299 77 94 130 
265 637 310 108 71 79 
263 903 315 96 76 59 
242 920 353 75 58 44 
135 684 223 86 98 128 
315 540 255 129 140 155 
171 338 225 110 98 87 
174 81 257 127 103 78 
109 323 275 163 142 123 
308 437 249 102 122 144 
161 675 245 90 105 132 
217 304 220 90 104 120 
380 718 259 49 50 110 
90 448 234 151 155 166 
184 768 184 167 153 168 
277 81 231 114 95 76 
154 757 295 56 49 104 
273 152 242 140 60 4 
128 829 228 145 9 42 
261 666 153 75 110 140 
274 685 192 121 120 123 
288 190 231 46 59 93 
62 474 259 94 117 143 
235 390 290 61 77 109 
51 485 303 97 132 165 
290 687 202 63 106 140 
132 259 232 50 77 121 
145 144 282 88 74 60 
406 665 216 130 144 164 
153 660 268 104 113 154 
316 751 181 87 93 105 
49 577 270 208 140 132 
117 634 172 152 154 164 
275 324 279 75 110 139 
226 713 327 202 100 28 
256 38 234 101 80 56 
146 387 290 75 103 131 
203 347 223 131 93 46 
218 943 371 99 72 56 
262 195 249 69 39 52 
304 782 182 138 165 195 
277 698 178 116 118 124 
116 639 172 165 163 168 
257 922 300 82 64 55 
162 695 163 75 150 206 
265 52 237 102 83 62 
368 643 284 132 138 151 
171 706 320 115 132 151 
420 725 255 108 145 191 
191 496 319 105 123 153 
291 401 184 107 128 152 
279 453 333 119 141 174 
255 787 180 185 149 132 
199 743 166 141 164 196 
275 266 204 176 169 170 
293 526 204 89 115 145 
143 239 288 94 81 95 
262 441 324 45 73 126 
180 593 312 182 179 184 
269 15 215 135 122 111 
136 208 275 124 84 74 
347 736 266 144 118 100 
183 940 275 80 62 49 
138 176 268 103 78 67 
168 466 326 122 129 157 
252 789 182 171 149 138 
253 593 318 68 103 137 
97 539 278 119 129 162 
127 381 223 139 138 142 
115 201 269 66 47 29 
372 785 222 139 111 104 
276 347 318 141 90 61 
261 233 307 55 91 118 
144 844 240 246 200 141 
199 851 270 175 129 104 
320 635 259 59 54 63 
131 445 221 124 139 162 
228 359 296 51 55 73 
277 272 303 114 41 72 
167 924 285 128 101 76 
369 654 212 72 100 124 
278 531 193 186 184 190 
184 185 299 143 86 73 
289 528 199 167 172 185 
115 203 271 53 43 51 
164 726 321 127 143 166 
253 649 328 140 89 59 
86 552 230 119 135 152 
85 415 245 75 89 114 
148 640 253 151 147 151 
274 450 329 119 133 152 
165 536 184 95 104 115 
326 760 285 125 114 110 
271 42 192 136 121 109 
263 824 206 126 143 162 
199 672 140 182 179 185 
279 542 328 111 137 173 
295 387 324 194 157 115 
352 808 235 194 178 169 
64 327 258 152 133 114 
263 212 313 135 72 63 
239 754 316 193 175 164 
163 164 294 99 88 99 
215 936 372 125 94 69 
200 865 350 123 95 73 
216 637 139 61 93 121 
330 708 275 167 128 107 
327 638 291 46 36 39 
184 646 308 164 162 166 
106 543 318 171 178 202 
248 974 331 127 98 71 
187 333 223 150 31 52 
264 479 312 53 76 123 
268 16 241 127 114 106 
290 401 292 109 121 137 
156 495 205 55 84 110 
153 405 307 73 93 127 
277 430 334 130 145 171 
350 659 201 92 116 139 
83 543 272 56 98 150 
216 836 212 170 151 136 
167 487 204 115 117 123 
284 418 327 109 78 61 
117 200 266 67 60 57 
289 413 179 112 131 158 
292 604 224 102 106 114 
117 201 267 68 61 55 
235 369 319 96 108 133 
223 147 275 103 56 25 
272 760 313 206 185 169 
213 456 289 36 57 78 
213 528 314 111 116 139 
257 94 241 99 81 62 
268 799 190 189 165 148 
49 469 274 102 118 142 
75 444 247 70 97 127 
287 254 315 124 78 68 
229 315 311 77 115 145 
174 559 328 188 186 192 
166 656 303 94 113 154 
119 201 264 67 50 52 
274 232 304 86 75 83 
211 398 307 76 91 132 
359 638 242 81 88 97 
201 14 333 161 128 104 
444 690 251 103 132 193 
119 202 264 68 52 57 
243 358 172 130 139 152 
143 585 299 97 141 177 
222 867 236 232 166 128 
142 220 281 105 25 56 
199 34 300 123 96 69 
256 133 205 105 85 61 
271 148 202 113 89 57 
116 201 271 63 43 50 
38 544 269 107 92 80 
167 623 309 53 61 79 
257 502 331 58 90 161 
143 432 221 80 107 133 
185 616 148 86 118 146 
210 799 192 76 45 98 
84 363 278 144 39 72 
254 643 147 146 147 154 
295 408 286 82 105 129 
179 279 310 88 100 121 
247 250 296 61 29 37 
179 648 304 54 58 68 
290 708 185 104 110 118 
127 818 220 128 79 112 
190 101 280 84 69 53 
169 927 284 112 90 75 
241 958 351 89 72 62 
151 746 257 126 135 149 
116 206 265 53 48 47 
195 778 185 183 183 196 
117 206 264 70 47 60 
316 833 265 208 145 114 
171 451 213 99 110 124 
235 836 285 165 114 90 
343 752 201 55 50 81 
167 462 212 109 115 125 
289 354 306 118 134 152 
154 685 162 84 146 194 
215 868 233 223 139 85 
173 129 256 87 71 52 
164 350 304 112 60 57 
277 323 186 144 111 75 
55 552 256 111 100 90 
219 391 290 35 49 69 
110 690 200 92 119 162 
200 860 233 204 161 124 
306 712 305 112 98 102 
180 43 308 131 100 72 
283 291 261 79 117 148 
118 207 270 27 60 96 
204 188 287 86 58 82 
299 480 299 149 158 175 
152 832 218 97 102 116 
48 469 293 78 109 142 
256 122 203 113 88 59 
94 577 201 93 110 127 
216 422 189 108 127 149 
285 467 330 120 146 178 
368 791 227 51 40 50 
99 263 265 142 140 144 
306 639 300 58 53 50 
89 523 233 155 157 166 
244 563 311 111 118 130 
319 618 292 143 120 99 
122 192 262 111 58 50 
106 651 187 105 122 145 
122 193 262 103 53 44 
219 934 256 96 73 52 
185 583 314 75 130 171 
131 540 200 89 102 117 
172 451 326 166 167 176 
228 581 318 120 143 169 
190 79 283 95 77 56 
401 756 231 144 163 197 
279 185 247 98 38 34 
137 626 217 60 59 62 
196 864 292 100 75 47 
275 268 265 128 124 126 
315 781 184 138 151 168 
235 1003 312 156 117 89 
214 333 222 86 96 107 
376 654 240 70 71 74 
183 978 310 88 62 45 
283 152 327 145 119 88 
247 890 305 150 111 84 
53 536 307 31 65 121 
280 457 331 100 120 155 
225 790 305 190 152 128 
244 740 318 147 124 105 
397 739 260 149 97 97 
150 776 190 177 187 205 
324 688 283 147 45 54 
225 891 356 155 125 99 
120 199 263 84 41 48 
112 596 183 91 113 134 
319 724 294 140 113 104 
253 632 313 135 97 92 
373 763 211 159 134 102 
346 734 212 116 118 125 
421 677 229 65 75 88 
248 149 302 144 58 13 
176 653 304 80 119 152 
246 545 315 99 118 153 
422 720 222 78 122 182 
123 198 260 106 58 9 
334 680 268 92 120 148 
204 567 320 133 143 159 
268 414 174 104 122 148 
187 945 374 88 74 62 
192 894 366 133 109 84 
299 226 193 66 91 124 
130 437 287 119 125 136 
283 181 242 97 35 36 
435 679 246 53 62 74 
122 593 178 103 117 133 
434 680 234 54 73 92 
258 219 253 60 33 43 
183 560 327 168 165 170 
153 752 267 123 134 149 
166 349 306 123 106 86 
124 192 260 106 63 51 
296 653 317 85 88 94 
115 571 240 38 48 80 
194 901 372 157 125 100 
183 578 313 77 126 168 
226 506 294 49 68 89 
95 540 275 88 109 152 
395 766 239 214 72 84 
179 272 241 106 15 31 
124 196 259 131 58 3 
235 352 178 120 121 127 
108 652 185 151 154 166 
186 541 177 107 112 121 
134 467 221 73 113 154 
125 197 259 120 50 9 
187 974 340 110 81 60 
199 466 195 117 122 132 
335 808 272 184 136 104 
304 585 228 152 151 156 
386 704 216 91 109 163 
261 854 270 176 130 103 
140 633 162 162 159 163 
290 494 327 56 91 158 
297 555 297 136 151 178 
291 828 268 196 144 113 
292 655 319 66 55 49 
226 591 164 126 123 124 
186 161 295 90 55 72 
242 149 302 157 59 0 
154 374 296 94 109 130 
109 312 273 124 37 65 
188 968 291 188 150 109 
353 656 288 147 166 211 
73 420 252 109 109 125 
250 443 302 101 111 131 
272 355 167 108 84 51 
108 546 283 115 132 178 
120 193 267 77 35 33 
238 518 301 100 108 121 
234 931 255 100 78 55 
123 302 234 141 139 143 
276 633 309 154 117 102 
204 561 166 112 117 124 
132 757 189 168 167 186 
276 384 171 58 102 141 
146 373 224 196 92 46 
128 801 211 177 194 213 
120 194 267 74 35 35 
234 890 254 239 172 131 
147 414 299 64 90 125 
226 504 180 101 116 136 
171 838 264 176 143 133 
310 664 317 78 69 67 
51 400 276 150 73 10 
158 591 305 98 99 105 
113 297 271 135 142 154 
207 169 284 93 32 43 
245 150 264 68 63 60 
228 595 161 113 111 112 
68 459 299 150 165 184 
122 576 256 71 91 147 
222 202 287 64 45 64 
145 640 160 172 169 176 
135 600 283 112 119 154 
273 696 316 76 74 85 
266 776 173 203 54 92 
117 655 174 177 166 169 
411 744 230 221 237 254 
257 907 299 111 78 59 
171 219 305 123 26 67 
268 774 307 197 142 112 
210 253 291 91 89 94 
218 151 275 86 72 59 
301 613 249 50 55 61 
358 637 251 72 77 85 
259 547 188 127 148 176 
164 420 320 102 118 139 
233 777 310 89 88 93 
148 412 225 92 111 133 
168 273 307 83 115 142 
277 480 332 88 112 166 
278 151 327 141 84 12 
122 201 260 90 50 36 
122 201 261 90 53 48 
131 745 244 72 93 126 
326 792 195 171 150 135 
134 527 312 79 103 136 
286 768 300 195 143 114 
71 338 245 156 153 158 
227 444 293 83 106 134 
215 764 171 205 32 56 
332 683 204 201 200 215 
307 467 231 123 134 151 
279 53 217 119 100 81 
163 449 324 110 126 148 
169 958 336 88 73 65 
121 207 256 107 42 12 
204 506 315 157 156 162 
249 597 318 94 129 180 
197 752 171 177 187 206 
262 218 189 167 44 70 
276 372 294 82 86 92 
281 334 204 110 83 99 
122 205 257 97 35 43 
311 833 228 217 157 122 
182 397 321 119 131 154 
255 489 311 88 104 139 
260 667 162 77 112 143 
296 808 279 197 143 110 
280 579 320 51 108 162 
120 615 232 99 75 69 
232 338 205 111 109 109 
218 327 302 85 78 74 
278 704 159 87 105 124 
64 555 247 111 110 129 
231 900 356 155 120 89 
145 59 259 100 89 82 
54 544 270 81 83 88 
75 547 250 52 87 119 
149 646 256 120 120 144 
120 206 260 95 46 37 
295 495 195 129 148 173 
164 294 244 98 105 115 
142 732 241 78 92 114 
199 666 140 146 157 177 
271 286 296 130 132 139 
296 439 297 67 99 135 
313 574 243 180 171 168 
207 931 377 169 129 107 
186 481 322 149 152 161 
113 487 290 103 121 145 
389 761 220 148 101 100 
66 441 258 83 107 144 
258 221 286 97 42 53 
263 16 245 121 110 105 
257 582 317 81 122 164 
205 655 137 124 136 157 
276 222 308 78 97 116 
177 20 326 121 111 106 
250 876 254 224 174 141 
168 852 240 228 192 161 
90 607 215 87 100 149 
422 725 225 79 106 178 
291 429 180 102 117 136 
383 651 250 95 85 77 
243 340 173 131 128 131 
140 477 219 54 85 113 
181 853 250 116 138 161 
211 487 304 71 96 132 
152 771 296 140 38 51 
51 381 267 133 129 130 
304 737 304 180 150 118 
282 566 204 105 119 135 
371 664 278 61 40 128 
176 637 149 87 127 161 
224 623 317 167 161 165 
224 821 203 185 154 123 
220 378 277 39 54 68 
116 604 177 67 96 121 
112 733 204 67 85 129 
157 128 264 96 81 67 
272 246 262 105 53 63 
312 614 277 108 95 84 
379 781 231 169 143 116 
323 653 301 118 156 193 
229 667 134 122 137 158 
222 669 332 109 70 84 
260 659 154 80 113 141 
249 909 327 128 86 65 
122 204 270 58 88 115 
272 279 299 129 129 134 
116 568 244 23 52 107 
239 372 175 115 133 157 
200 315 314 152 148 149 
150 626 217 76 95 125 
105 731 202 75 100 151 
309 693 208 93 104 126 
306 442 226 93 120 150 
275 699 152 100 114 131 
147 428 305 76 97 127 
225 857 333 136 110 82 
154 710 233 65 90 129 
213 842 285 162 114 89 
274 149 324 139 74 5 
54 416 261 147 128 112 
403 655 225 134 139 149 
145 641 288 148 161 183 
82 427 243 65 89 113 
40 494 298 148 155 168 
64 501 265 173 177 189 
159 704 166 140 44 56 
124 204 271 51 84 112 
234 139 277 127 52 4 
153 733 295 140 155 174 
176 22 279 92 80 67 
143 323 291 145 125 104 
209 925 376 182 136 111 
151 569 175 120 123 131 
272 155 196 112 86 51 
170 11 308 124 112 105 
230 771 170 137 24 47 
125 300 234 148 135 127 
66 375 277 171 145 119 
209 556 322 155 160 173 
102 319 238 98 92 103 
264 685 171 65 72 80 
153 719 256 94 108 127 
130 752 246 72 99 133 
250 568 185 118 114 111 
98 493 291 90 113 149 
342 758 197 90 44 40 
302 652 253 55 75 94 
133 749 186 162 164 194 
261 345 166 119 121 126 
118 194 272 99 62 61 
243 878 321 162 121 90 
168 921 358 176 134 114 
302 566 280 125 135 152 
98 638 218 159 110 87 
34 513 297 167 173 186 
141 633 272 112 122 171 
279 717 151 161 167 181 
164 949 317 91 75 64 
125 259 275 85 114 138 
289 847 233 245 183 146 
122 807 251 143 26 45 
280 261 327 142 70 101 
294 720 172 97 112 129 
298 582 221 187 175 169 
154 693 261 37 53 81 
273 450 176 148 156 174 
267 647 206 78 83 91 
258 190 311 77 28 49 
289 348 255 157 135 114 
177 558 328 168 167 174 
153 470 322 130 138 155 
79 556 229 92 107 123 
28 562 290 189 132 121 
68 310 257 135 137 144 
225 946 262 91 70 48 
288 216 234 91 40 69 
136 801 269 132 111 89 
287 156 189 144 100 70 
279 248 259 117 34 64 
172 710 165 204 196 206 
137 504 207 88 104 122 
131 644 224 117 89 77 
333 657 291 82 117 147 
383 737 262 144 101 56 
335 716 270 116 116 122 
207 783 184 177 20 30 
120 195 273 107 37 70 
351 681 204 115 137 206 
305 202 178 128 89 80 
238 983 323 91 60 50 
123 193 273 124 48 71 
206 920 268 81 58 43 
126 330 246 99 99 119 
83 507 295 149 156 169 
214 851 222 197 169 143 
157 132 292 156 68 9 
103 582 242 72 61 65 
194 52 300 115 91 63 
80 550 238 76 107 133 
213 414 299 42 63 100 
123 535 207 109 123 146 
151 803 282 143 128 125 
223 927 370 140 107 84 
285 375 178 87 108 131 
148 761 265 111 120 132 
377 643 259 97 84 72 
175 666 152 181 178 187 
146 469 317 111 120 143 
179 322 235 88 96 104 
186 680 311 53 75 123 
242 529 306 82 97 127 
202 958 279 96 70 49 
204 928 258 93 74 60 
192 234 304 150 68 2 
123 197 272 111 38 68 
181 806 290 147 117 94 
167 795 193 181 79 104 
172 943 357 100 80 67 
129 404 223 59 97 125 
274 173 245 39 51 68 
137 718 181 102 138 176 
190 100 290 103 85 65 
182 697 156 192 187 195 
256 440 315 69 92 134 
178 834 270 99 113 130 
124 194 273 122 41 71 
281 266 175 137 141 150 
284 348 206 102 115 136 
81 410 288 139 73 17 
295 385 315 189 161 132 
311 737 184 118 120 126 
127 551 302 73 87 150 
157 632 299 140 150 184 
120 502 297 118 133 151 
126 194 273 123 49 76 
150 738 248 98 111 132 
96 398 293 139 125 118 
127 195 273 123 54 79 
342 796 204 191 186 187 
159 205 296 95 89 101 
124 197 272 118 45 74 
300 384 222 80 108 134 
208 675 318 98 106 118 
262 283 269 69 81 94 
288 586 295 127 146 169 
252 440 305 97 109 131 
94 325 242 82 118 147 
245 142 302 120 107 95 
138 757 252 114 126 142 
69 440 294 117 106 96 
169 231 305 144 143 149 
109 743 194 72 113 196 
183 940 274 82 65 52 
228 421 185 58 97 137 
248 228 261 67 42 44 
286 243 186 110 55 59 
289 167 317 172 86 10 
153 190 288 103 100 112 
200 866 244 218 159 128 
364 733 261 87 62 70 
181 812 201 48 72 111 
128 828 259 87 78 99 
143 805 205 175 185 197 
299 632 301 140 102 89 
386 749 261 130 71 79 
281 216 251 127 38 35 
108 533 319 129 139 153 
282 198 179 122 91 107 
357 768 203 142 110 67 
440 689 227 38 62 146 
243 670 331 203 149 81 
226 806 298 188 138 120 
171 527 318 113 131 158 
175 957 293 136 105 79 
270 61 196 139 109 70 
414 672 270 164 173 188 
115 750 193 98 111 184 
242 357 319 144 144 150 
115 210 262 69 55 44 
169 706 308 142 151 165 
168 370 228 105 124 144 
294 846 248 232 177 144 
286 287 223 156 152 154 
180 455 208 88 103 119 
115 215 258 88 56 35 
284 210 191 117 87 102 
301 387 234 80 105 130 
164 662 298 111 127 168 
74 566 228 137 137 142 
127 564 188 84 102 120 
247 768 167 198 60 51 
190 830 280 164 130 106 
65 367 250 215 172 124 
135 801 266 153 102 83 
247 406 315 29 50 109 
403 748 256 175 66 78 
91 598 196 176 177 186 
105 308 271 135 37 69 
278 584 320 52 96 167 
302 446 205 54 94 144 
156 686 277 90 99 144 
115 213 260 78 62 51 
250 320 171 84 101 118 
287 340 260 160 155 158 
270 274 297 117 111 110 
82 454 241 75 102 134 
387 771 229 161 54 80 
133 485 218 117 123 134 
114 214 261 58 47 38 
173 523 187 109 114 123 
197 330 224 136 16 33 
296 613 234 90 91 94 
227 762 313 196 177 163 
179 452 325 148 155 169 
53 430 285 139 122 105 
337 735 272 92 80 74 
190 786 302 167 147 132 
168 403 318 83 105 137 
279 324 273 87 109 130 
133 172 275 117 79 85 
270 705 318 84 64 51 
118 210 258 106 52 21 
217 809 197 169 149 139 
309 550 243 107 127 150 
366 688 260 82 106 132 
136 769 256 105 110 118 
138 649 162 78 124 162 
55 533 306 43 71 107 
94 621 230 177 122 98 
240 156 300 153 62 38 
298 166 203 78 61 74 
152 757 184 68 87 150 
145 776 277 123 44 49 
116 209 263 63 51 46 
230 940 365 114 86 68 
262 564 320 74 106 152 
307 474 278 75 106 143 
164 51 259 113 98 82 
364 786 211 167 147 128 
210 838 283 180 127 105 
324 764 287 73 93 112 
316 769 288 117 78 62 
284 408 302 94 84 74 
390 763 222 176 125 87 
157 21 294 134 121 113 
242 868 296 159 119 87 
61 565 250 192 130 119 
81 285 249 84 97 110 
154 151 287 143 108 97 
164 919 311 82 69 58 
260 777 173 102 94 103 
167 405 223 74 100 125 
187 594 153 127 124 125 
187 707 156 170 176 194 
116 641 173 183 179 183 
119 744 209 99 109 132 
225 284 301 116 119 128 
83 471 241 107 118 138 
274 337 176 123 90 56 
84 470 243 65 92 122 
283 380 173 96 115 139 
214 891 361 121 99 77 
114 809 231 183 64 99 
288 329 252 150 147 150 
312 581 261 129 140 156 
263 674 154 98 88 80 
118 213 256 105 69 26 
205 12 321 125 90 70 
106 625 180 75 135 180 
192 914 282 114 82 58 
298 488 196 100 120 164 
274 525 330 53 71 126 
283 446 176 76 115 155 
273 334 287 57 81 103 
280 461 332 95 118 157 
164 724 171 190 182 193 
141 517 200 95 109 125 
184 605 313 168 165 171 
214 690 332 108 122 140 
387 658 213 97 111 128 
147 782 285 180 122 129 
288 387 185 98 133 164 
112 210 267 64 43 15 
199 186 292 110 65 73 
152 274 294 78 114 144 
147 405 296 63 86 123 
234 493 180 160 156 157 
324 805 207 181 152 119 
127 267 235 130 56 83 
241 587 172 138 136 139 
252 397 326 90 106 139 
286 585 212 119 132 150 
115 208 265 56 50 44 
273 271 203 174 170 174 
167 901 327 159 120 92 
230 943 365 114 85 68 
146 386 291 75 103 131 
208 658 317 61 82 102 
58 488 293 139 151 168 
191 497 320 112 128 157 
97 363 278 154 131 108 
89 597 216 74 83 125 
288 346 258 100 116 135 
113 209 268 53 31 39 
285 787 294 196 142 112 
172 920 365 180 137 117 
135 722 183 79 103 183 
280 593 212 106 116 130 
113 210 268 37 47 55 
305 456 218 149 155 169 
35 560 268 176 122 115 
115 780 210 121 146 204 
196 276 309 91 112 132 
156 88 283 103 87 71 
132 769 194 149 149 175 
125 478 292 115 125 139 
172 670 300 153 155 165 
287 213 240 89 43 63 
89 493 289 88 117 152 
93 525 306 139 152 171 
265 653 196 73 89 106 
144 256 235 27 75 120 
80 583 218 58 124 165 
143 263 285 146 144 149 
173 690 158 157 99 113 
415 673 228 81 91 104 
104 645 190 109 129 154 
50 478 299 82 111 145 
136 615 266 155 147 153 
134 389 224 98 126 169 
60 548 255 84 110 133 
140 326 292 149 130 110 
220 270 219 78 121 155 
153 666 265 112 122 150 
157 122 264 99 82 65 
288 281 316 77 113 142 
288 406 296 114 121 137 
214 845 321 135 107 82 
266 503 327 94 111 146 
111 482 224 110 123 147 
261 280 284 101 106 114 
114 214 268 54 79 106 
305 187 196 134 98 60 
171 560 324 97 128 164 
305 561 276 123 135 151 
82 477 246 75 98 129 
296 475 314 106 126 154 
309 574 237 114 119 129 
260 201 311 132 35 64 
435 708 249 131 157 217 
221 832 287 178 124 104 
122 508 210 119 123 132 
167 214 302 113 24 56 
179 642 304 74 72 78 
239 237 302 84 40 59 
237 677 335 197 152 100 
341 726 267 128 115 103 
176 420 324 108 125 148 
314 558 259 93 107 128 
102 505 295 114 129 147 
323 734 288 177 162 153 
291 501 190 160 168 187 
226 837 213 200 173 151 
217 299 224 112 115 122 
180 380 318 78 100 130 
121 734 212 83 98 138 
284 749 315 62 93 120 
308 589 260 141 134 134 
117 213 268 36 75 102 
225 982 345 98 78 57 
229 899 358 150 119 88 
300 703 323 180 78 39 
272 770 308 200 143 114 
245 445 296 63 80 119 
369 770 265 169 153 143 
274 839 271 200 141 116 
268 791 184 190 172 161 
256 565 318 154 165 190 
215 616 146 90 107 124 
236 160 297 93 79 73 
342 816 267 199 140 110 
117 544 323 131 150 192 
120 662 222 140 104 88 
118 533 210 105 122 149 
193 933 375 146 110 94 
159 696 245 116 119 135 
63 543 266 19 80 121 
205 285 306 72 103 129 
265 853 230 254 198 167 
67 566 250 189 130 115 
211 1006 299 110 86 68 
289 428 301 73 88 109 
172 465 326 132 136 162 
254 143 287 104 99 95 
287 340 232 163 125 80 
56 544 273 76 100 123 
275 170 304 108 71 11 
40 506 286 144 147 157 
273 465 329 110 128 157 
210 751 164 173 187 207 
98 349 277 131 41 66 
186 863 306 129 101 73 
149 750 183 74 97 155 
253 895 284 132 93 73 
292 383 306 181 153 125 
170 902 314 135 99 73 
224 840 286 157 105 82 
34 552 267 137 102 96 
258 164 288 99 90 81 
301 701 323 182 81 28 
430 675 222 74 108 146 
224 283 296 103 109 119 
113 216 261 69 49 33 
290 514 301 154 157 169 
300 595 282 135 133 138 
289 264 224 84 115 145 
285 252 214 86 129 164 
227 445 186 79 108 137 
305 811 206 178 159 146 
113 218 260 85 63 37 
303 622 256 90 88 88 
348 627 274 112 98 85 
131 724 236 92 105 134 
113 221 257 98 61 31 
154 586 305 80 74 87 
112 220 259 89 56 26 
85 506 295 118 135 154 
133 568 302 71 55 125 
357 807 240 213 201 197 
336 787 196 183 147 112 
430 679 240 50 64 77 
142 842 236 164 158 158 
188 447 204 108 115 127 
400 662 248 88 77 68 
263 925 340 118 96 78 
234 902 354 164 124 96 
119 313 235 152 155 164 
144 153 275 80 66 70 
271 256 298 68 75 95 
290 227 233 73 43 45 
336 828 261 208 145 119 
254 566 187 96 99 106 
274 288 172 138 148 167 
221 665 321 95 105 118 
373 777 214 99 101 107 
326 635 248 60 60 61 
149 351 237 111 116 124 
106 419 224 113 127 145 
120 545 315 136 151 171 
188 598 315 102 86 110 
143 536 315 90 114 146 
279 649 316 64 66 71 
174 380 225 76 97 119 
158 710 298 107 122 139 
154 717 236 65 91 124 
198 916 276 92 69 53 
287 323 310 117 107 103 
147 249 288 147 143 146 
149 442 314 117 127 142 
233 666 135 139 147 162 
326 681 201 172 176 193 
213 735 325 84 54 53 
112 221 267 119 82 85 
181 114 297 112 100 89 
113 221 267 117 77 80 
203 897 370 132 112 92 
102 291 228 181 175 179 
311 517 260 101 125 150 
272 760 162 165 183 205 
114 220 267 128 88 84 
197 437 201 88 104 124 
114 222 267 103 55 76 
190 981 341 88 61 38 
245 377 325 92 106 135 
246 319 187 76 94 111 
133 693 170 128 77 127 
198 500 186 112 118 128 
254 830 210 75 153 207 
315 768 179 118 35 50 
415 687 269 126 156 195 
257 816 290 193 130 109 
138 593 170 107 120 135 
112 706 199 96 108 145 
58 379 272 157 133 108 
264 602 317 74 104 164 
242 224 301 118 34 41 
155 555 313 132 84 106 
74 558 283 142 111 112 
182 752 177 175 170 186 
118 216 268 112 80 76 
109 672 209 165 114 93 
264 447 324 37 65 121 
105 559 206 121 130 142 
270 331 178 147 126 105 
388 755 217 109 95 124 
56 524 278 89 106 124 
307 512 230 87 111 157 
199 518 319 54 77 130 
115 561 267 136 145 166 
323 782 187 142 119 102 
175 333 310 127 141 160 
315 537 259 50 70 106 
270 628 311 89 71 79 
176 222 306 146 138 137 
215 351 306 116 119 128 
140 266 282 144 144 150 
163 244 303 94 114 136 
270 843 270 189 136 111 
287 668 217 74 68 71 
77 573 237 106 81 78 
179 737 172 193 190 208 
90 600 221 111 83 79 
173 956 349 98 79 61 
364 659 206 38 70 98 
306 728 183 117 115 119 
122 377 230 106 119 135 
318 753 181 93 95 103 
292 350 324 156 150 150 
246 923 266 81 66 50 
340 664 198 102 126 151 
149 639 292 108 128 155 
221 232 291 99 54 69 
138 598 228 49 71 121 
197 818 288 155 125 97 
265 420 316 34 54 81 
160 118 259 117 95 69 
399 731 218 131 148 170 
300 393 252 82 110 136 
260 131 237 91 75 58 
269 558 327 69 100 157 
130 487 218 124 128 135 
239 831 210 127 160 192 
191 77 291 110 88 64 
193 747 172 170 181 207 
140 618 250 83 84 140 
170 609 306 151 151 167 
121 211 269 59 86 107 
202 215 294 95 57 70 
180 337 223 148 15 42 
121 211 270 74 92 110 
73 528 252 88 112 137 
204 596 150 82 108 132 
374 682 207 78 48 111 
162 926 318 75 60 50 
294 367 219 111 119 137 
364 744 261 94 84 84 
69 495 286 91 115 146 
199 857 228 153 146 147 
298 401 205 64 96 125 
115 565 251 94 112 135 
259 638 186 67 105 135 
268 42 229 106 87 67 
310 489 257 135 142 160 
280 790 295 199 141 113 
213 818 293 186 136 119 
101 363 281 154 131 110 
286 212 320 105 90 97 
49 580 276 214 148 136 
231 945 268 92 74 57 
205 709 147 192 187 193 
90 517 301 70 108 145 
111 494 220 92 110 130 
198 863 240 219 163 133 
229 279 221 104 88 101 
209 320 308 99 110 126 
161 651 223 114 121 143 
240 331 313 71 110 141 
155 517 319 48 67 125 
300 707 202 92 98 112 
237 859 295 149 112 80 
258 119 237 73 59 43 
287 313 234 118 133 152 
319 620 269 103 92 83 
240 484 301 89 107 126 
125 211 270 91 72 80 
125 211 271 88 74 81 
299 464 299 35 62 116 
37 555 258 158 113 103 
333 733 208 115 115 119 
201 686 319 100 116 133 
214 665 322 55 85 111 
276 96 236 120 98 76 
259 750 155 166 92 125 
162 767 307 163 48 64 
258 470 323 60 81 124 
306 461 232 113 131 152 
296 157 201 141 81 16 
260 225 192 165 50 64 
113 393 285 160 148 147 
124 584 282 166 160 176 
352 811 259 203 152 117 
235 702 137 130 158 201 
292 562 216 129 136 156 
220 899 259 187 131 93 
129 261 221 43 101 138 
259 52 201 114 91 64 
156 715 239 101 115 135 
296 614 291 56 63 69 
308 432 255 126 140 158 
183 379 319 76 101 135 
126 214 271 111 86 76 
197 999 344 107 81 64 
285 705 180 106 107 112 
259 59 240 102 83 63 
207 871 241 196 137 105 
275 271 301 94 29 55 
353 640 218 21 67 100 
199 607 147 82 104 125 
152 834 263 174 156 145 
256 935 295 82 68 55 
297 751 167 136 35 46 
174 25 325 139 125 117 
132 519 308 147 147 153 
76 524 247 117 131 153 
119 294 273 104 115 130 
260 409 316 45 60 87 
133 807 266 121 52 55 
83 588 256 180 122 105 
245 618 152 85 110 137 
129 837 244 120 110 105 
60 467 301 69 99 144 
225 307 299 73 73 84 
275 801 191 189 156 122 
95 610 197 66 109 144 
121 220 269 90 63 69 
118 805 222 170 178 203 
188 881 347 155 120 99 
71 498 288 80 107 146 
192 943 275 75 59 47 
210 306 304 127 126 132 
154 621 303 50 85 127 
124 545 326 195 203 222 
134 367 230 145 107 82 
262 222 291 95 55 56 
198 19 285 150 133 120 
268 246 318 91 110 126 
290 469 180 100 128 161 
51 480 272 109 134 163 
221 331 301 86 82 82 
147 362 223 185 146 97 
103 555 214 92 116 138 
170 888 328 158 119 91 
311 687 204 181 178 194 
274 155 325 145 76 5 
180 86 265 104 84 60 
268 188 185 127 61 53 
286 660 233 64 58 63 
355 667 274 128 162 195 
303 446 286 73 97 136 
129 404 285 106 123 144 
73 555 237 131 130 135 
326 627 269 92 83 76 
154 659 277 85 101 153 
256 941 293 72 56 45 
123 265 219 133 102 98 
278 458 333 157 170 192 
201 936 260 85 70 57 
88 384 282 159 137 114 
225 1007 304 157 121 87 
256 147 237 100 63 45 
225 287 225 134 130 131 
102 697 195 68 100 142 
76 425 291 110 99 88 
235 375 319 96 106 124 
154 47 287 106 89 72 
259 73 242 104 85 64 
218 354 208 109 84 63 
178 308 309 140 137 139 
259 12 223 136 122 112 
126 223 270 109 33 60 
226 705 139 101 132 205 
339 660 289 147 160 188 
119 469 287 116 126 141 
102 227 263 80 71 62 
374 644 270 110 91 71 
110 792 228 140 161 185 
119 670 178 70 100 125 
135 641 163 105 53 49 
77 540 256 78 100 119 
107 300 238 115 137 170 
111 775 207 124 150 196 
90 552 231 70 100 131 
383 780 245 194 154 109 
184 280 311 106 124 144 
174 99 262 100 79 53 
102 229 261 96 82 68 
110 704 197 80 101 142 
273 661 207 88 89 94 
103 229 261 95 80 61 
264 570 189 96 104 115 
297 586 222 144 145 154 
192 974 351 103 74 56 
131 665 221 50 83 125 
305 411 252 79 107 138 
144 646 160 142 146 155 
308 515 232 93 117 158 
233 468 299 95 114 137 
64 528 305 83 104 125 
103 230 261 95 78 59 
122 604 174 99 112 128 
262 291 196 97 99 102 
89 418 238 75 97 118 
155 487 210 118 120 126 
258 701 138 195 189 195 
268 233 296 83 70 77 
227 968 286 168 131 91 
368 689 211 82 48 117 
209 13 326 123 85 64 
136 714 180 88 127 167 
229 801 191 142 116 114 
436 709 247 148 165 219 
103 227 266 78 60 77 
174 11 298 98 85 74 
371 651 238 61 70 80 
252 677 324 158 91 35 
284 620 215 85 103 122 
47 415 275 127 116 107 
306 501 226 172 169 173 
281 170 241 115 41 33 
259 735 147 106 169 217 
260 111 241 91 74 56 
254 595 317 81 114 152 
264 932 339 83 67 57 
154 675 160 99 160 206 
108 692 199 87 117 159 
242 140 274 94 81 75 
102 228 265 50 55 61 
104 552 257 48 81 130 
100 325 237 91 124 153 
102 229 267 110 45 66 
169 807 283 142 122 104 
179 972 332 118 94 74 
115 544 217 112 114 120 
217 966 283 151 114 76 
216 424 283 29 44 60 
145 689 222 97 104 122 
79 275 258 78 99 122 
130 608 276 161 161 181 
215 592 156 84 106 128 
279 764 307 204 153 121 
296 394 319 195 165 134 
406 726 218 96 114 149 
247 321 177 77 98 117 
150 263 292 89 113 137 
145 694 224 62 71 102 
194 962 368 94 78 65 
169 623 153 113 66 66 
162 41 305 133 104 89 
345 715 262 100 48 68 
119 577 235 46 60 125 
194 552 170 78 94 111 
289 771 296 187 139 107 
96 638 196 79 101 125 
227 1003 299 165 126 84 
99 238 258 53 72 93 
438 684 256 142 163 203 
99 239 258 41 70 93 
346 626 269 104 95 88 
221 997 348 153 120 88 
164 915 337 140 108 81 
97 237 262 74 65 52 
131 647 223 119 90 79 
349 725 263 48 56 86 
265 840 274 180 123 102 
237 304 214 69 97 122 
202 166 286 97 36 50 
291 392 305 142 78 26 
331 712 275 139 100 107 
192 1005 332 169 143 118 
275 74 198 138 115 94 
135 599 220 85 106 132 
97 238 263 89 79 65 
216 455 281 41 57 70 
222 382 184 107 117 134 
301 551 283 101 113 152 
287 312 238 136 139 148 
218 817 202 195 165 139 
413 676 233 50 65 79 
403 666 276 127 154 186 
226 640 139 94 113 132 
213 422 291 26 45 68 
249 271 265 92 97 105 
132 363 290 134 118 99 
140 393 225 82 105 130 
161 689 237 112 116 137 
406 749 252 132 41 44 
275 109 236 119 97 72 
185 853 253 190 137 97 
140 448 220 79 114 154 
108 273 224 118 51 70 
233 846 221 201 145 105 
290 359 240 165 127 82 
170 420 220 57 90 122 
112 357 288 159 137 115 
203 669 139 160 165 182 
250 290 286 61 64 69 
287 370 194 138 139 146 
103 235 258 74 81 88 
187 84 275 95 78 62 
149 363 295 132 116 100 
275 304 196 153 156 165 
191 406 322 96 115 149 
269 759 315 98 99 108 
252 260 260 92 34 54 
100 232 263 56 62 66 
143 636 261 141 138 162 
316 821 220 176 149 122 
162 680 230 128 131 147 
227 345 204 93 97 105 
75 485 252 112 126 147 
137 541 322 82 116 146 
90 616 224 158 112 82 
275 347 318 134 98 85 
256 699 321 113 115 132 
274 232 198 134 118 121 
142 382 289 76 101 130 
166 521 191 94 106 120 
293 216 181 83 96 114 
148 468 218 47 88 123 
318 736 196 116 114 116 
194 260 229 105 40 12 
246 970 337 123 101 80 
272 824 207 200 188 184 
300 722 311 168 153 143 
273 183 322 101 86 94 
272 371 326 121 127 137 
423 715 260 124 138 203 
168 340 225 97 94 92 
195 856 304 118 93 66 
32 560 275 158 110 102 
260 286 282 71 77 84 
224 438 291 74 95 122 
299 739 308 207 184 167 
170 512 322 179 179 188 
382 648 255 99 86 75 
141 550 319 183 188 202 
288 382 327 195 163 127 
255 666 172 75 112 141 
210 944 374 91 73 57 
261 78 181 129 94 44 
275 162 174 149 121 96 
151 299 248 114 134 158 
192 184 296 129 66 62 
125 619 230 84 69 64 
251 936 349 85 68 54 
104 613 180 114 129 147 
287 263 316 113 45 67 
281 830 272 195 137 112 
120 760 216 84 102 142 
230 293 222 111 111 113 
167 684 159 91 149 196 
315 640 302 70 76 87 
299 656 241 59 84 107 
285 450 329 67 95 140 
261 167 169 152 120 100 
108 268 225 92 74 57 
98 616 239 169 122 100 
244 323 194 83 95 108 
193 540 176 97 105 115 
91 404 293 140 122 107 
153 765 187 108 104 143 
387 649 265 107 90 73 
275 294 269 93 87 94 
355 804 264 104 142 174 
259 764 164 197 23 44 
122 393 284 130 101 118 
142 663 221 59 71 107 
56 561 250 173 120 110 
141 336 245 110 96 82 
144 735 182 104 123 179 
220 306 297 62 77 92 
170 786 190 147 74 73 
271 906 306 137 113 96 
121 577 265 125 133 155 
107 344 277 122 41 66 
98 239 267 111 68 94 
240 333 184 103 97 94 
197 1012 321 131 107 83 
273 212 255 67 46 50 
184 941 275 76 56 44 
298 663 232 78 103 132 
370 762 210 144 47 34 
230 367 179 104 115 130 
323 716 289 110 109 116 
171 404 222 74 99 124 
239 862 233 230 167 134 
247 808 195 175 145 113 
77 305 245 129 128 130 
399 729 261 168 71 70 
434 680 223 30 68 145 
203 362 315 104 114 144 
218 562 319 113 123 147 
103 232 267 114 67 86 
213 358 308 117 124 137 
272 329 285 69 96 119 
248 869 243 232 177 145 
252 415 311 55 71 114 
269 687 178 68 79 94 
180 34 310 140 106 82 
375 656 212 81 101 121 
106 619 178 133 142 155 
172 903 359 151 118 94 
101 236 267 134 13 67 
191 242 307 117 94 66 
196 360 222 123 78 79 
156 653 295 123 136 177 
220 895 255 212 145 104 
264 932 330 84 64 53 
101 239 266 72 96 118 
279 850 229 241 177 146 
305 445 225 117 136 158 
250 393 327 115 129 149 
262 300 170 99 116 136 
296 795 191 216 192 175 
262 459 327 79 99 140 
103 239 265 58 108 139 
225 349 204 92 94 98 
123 765 237 127 140 158 
170 898 348 130 109 89 
286 359 275 150 148 153 
102 472 224 126 146 182 
106 226 259 90 75 61 
219 302 221 104 113 124 
207 672 320 96 105 116 
301 648 309 70 85 119 
287 225 247 139 37 20 
158 31 307 137 101 92 
168 731 172 131 160 198 
194 910 375 156 124 99 
300 385 237 82 107 131 
229 736 150 97 143 212 
362 794 263 202 179 161 
196 257 229 97 44 26 
78 496 241 115 127 142 
97 299 232 184 180 186 
140 550 321 189 194 209 
155 253 297 121 131 146 
105 226 261 89 68 40 
191 439 205 76 92 109 
110 547 219 106 118 132 
335 781 278 142 118 98 
125 536 320 90 122 150 
65 511 267 83 105 129 
202 152 284 44 58 76 
156 119 267 95 80 63 
274 189 182 122 81 54 
283 304 226 107 118 133 
219 370 301 42 56 76 
185 730 332 136 105 116 
269 590 200 125 123 125 
106 224 262 85 64 39 
164 787 294 157 128 121 
106 227 260 96 79 65 
124 536 319 99 126 152 
304 170 186 54 73 91 
164 692 162 79 140 191 
163 935 326 84 69 58 
165 437 217 66 93 121 
190 151 292 57 83 103 
258 183 310 49 41 56 
280 335 189 166 122 73 
213 553 171 71 93 113 
228 896 258 225 154 116 
210 722 150 106 164 208 
125 580 247 102 107 134 
250 460 299 87 97 125 
188 915 284 146 102 70 
259 51 202 110 88 64 
255 507 322 48 73 126 
337 802 208 199 170 140 
293 367 211 82 100 119 
294 169 214 104 48 43 
376 670 203 90 103 126 
115 293 237 100 117 137 
364 786 212 172 152 134 
235 988 307 132 100 63 
277 374 170 125 137 158 
257 652 150 146 147 152 
146 372 223 203 106 32 
257 163 193 123 100 78 
267 323 300 83 102 122 
262 247 288 66 87 106 
109 288 235 171 172 189 
340 633 245 87 80 77 
206 273 221 137 118 115 
212 906 373 159 123 93 
144 166 271 101 82 71 
274 255 302 115 108 102 
289 423 306 73 73 84 
171 341 307 148 133 126 
146 462 316 32 65 119 
189 929 265 95 75 57 
447 687 234 228 231 242 
232 401 283 45 60 81 
77 289 261 151 152 159 
335 662 219 38 100 142 
284 444 176 185 187 196 
287 325 249 142 141 146 
130 651 166 71 107 150 
306 532 235 101 122 146 
201 783 185 124 43 100 
288 411 299 67 78 108 
365 658 283 50 59 146 
278 237 193 122 89 76 
219 786 306 94 80 72 
301 452 294 82 104 139 
263 456 326 77 99 143 
277 163 165 164 135 111 
123 645 169 153 153 159 
120 692 181 76 91 145 
205 551 323 158 161 171 
108 229 257 89 75 60 
109 228 256 97 76 60 
110 539 302 108 150 186 
174 41 275 66 51 40 
290 378 304 161 138 115 
279 830 213 193 136 96 
121 734 214 43 63 105 
146 486 214 92 105 121 
282 201 314 140 117 107 
345 626 267 113 103 95 
245 394 330 105 130 155 
192 244 307 119 104 90 
284 266 258 142 138 140 
340 623 279 115 98 83 
164 14 300 126 113 105 
373 698 215 37 62 138 
278 385 171 80 120 152 
207 678 138 165 171 189 
206 513 316 83 103 137 
292 201 223 106 41 33 
249 525 177 132 145 172 
104 378 292 160 72 10 
270 851 265 199 143 116 
226 855 310 125 91 64 
293 373 255 126 132 144 
307 563 277 86 102 122 
106 227 267 114 72 91 
242 395 310 45 76 116 
192 858 254 203 148 118 
127 407 222 91 118 144 
113 448 282 113 128 147 
283 667 320 146 129 119 
100 366 282 157 135 114 
128 405 284 118 132 150 
159 385 305 80 98 126 
82 586 238 152 106 81 
178 341 311 134 127 123 
210 601 319 173 158 159 
69 402 281 155 113 50 
269 225 258 68 46 67 
164 820 206 98 29 61 
90 608 220 124 92 69 
84 402 287 147 71 5 
195 139 289 105 72 67 
187 349 317 125 133 148 
350 629 268 100 91 82 
104 667 198 93 89 110 
263 113 242 100 81 61 
278 328 294 79 108 132 
303 443 284 66 97 136 
114 759 199 56 65 148 
265 229 317 71 64 89 
230 315 219 101 106 114 
155 713 273 31 55 101 
213 176 281 72 38 33 
253 311 172 96 110 125 
271 767 167 192 104 74 
242 176 295 114 24 22 
258 905 301 122 87 69 
206 764 174 171 188 206 
279 257 185 114 64 55 
65 560 248 153 110 99 
228 292 308 120 104 109 
279 213 312 125 108 111 
411 744 231 207 225 248 
200 862 289 115 85 59 
155 832 216 68 71 79 
264 303 312 128 135 147 
432 714 246 157 189 231 
262 178 245 106 35 16 
303 633 255 78 73 69 
227 262 300 49 67 84 
198 109 287 97 86 79 
183 761 180 130 155 201 
269 466 325 71 92 128 
245 616 314 101 121 147 
110 230 266 119 55 80 
210 145 280 37 57 93 
223 962 281 119 87 63 
111 678 184 93 117 145 
303 428 278 46 88 133 
245 334 173 116 109 108 
43 437 278 130 64 64 
66 553 246 79 106 135 
89 514 299 157 163 176 
282 339 217 108 108 114 
321 619 270 109 99 91 
282 751 314 171 164 164 
156 432 221 50 85 121 
172 891 337 159 123 99 
198 496 188 116 119 126 
203 132 286 113 122 134 
273 333 178 112 81 46 
273 289 297 143 142 146 
341 712 263 168 100 112 
55 529 303 39 53 67 
182 672 307 56 66 112 
265 172 164 139 124 110 
171 899 353 92 74 60 
258 836 214 213 138 106 
203 924 264 100 70 56 
335 764 191 135 86 67 
199 952 376 104 86 69 
236 209 289 52 28 34 
73 345 246 198 188 187 
264 760 161 200 27 41 
171 38 274 134 123 113 
129 804 259 138 46 60 
390 654 255 102 86 70 
294 215 181 87 92 116 
343 783 198 144 137 138 
148 510 200 99 110 124 
191 328 316 149 149 154 
301 394 247 60 103 135 
274 613 194 134 135 141 
369 749 263 154 134 122 
184 769 309 137 92 91 
67 509 265 58 84 129 
153 741 278 125 139 158 
207 337 226 111 102 96 
285 571 312 75 107 164 
219 583 322 99 134 169 
290 411 306 89 80 71 
182 918 279 180 118 86 
194 843 272 180 130 109 
232 338 203 113 110 110 
308 510 232 161 163 170 
273 319 315 133 15 55 
239 749 316 160 137 119 
79 552 232 103 118 134 
309 787 186 176 149 132 
246 927 267 92 74 58 
56 566 253 201 139 128 
371 783 217 165 140 115 
48 541 275 104 88 71 
89 540 314 80 129 165 
46 496 304 57 103 149 
120 720 214 153 153 159 
275 774 304 196 142 111 
73 462 289 100 121 159 
370 790 234 212 188 171 
245 183 299 92 43 36 
240 753 316 183 163 149 
225 927 255 91 72 60 
269 618 312 160 120 105 
402 671 276 114 132 163 
306 753 172 122 64 65 
317 743 187 110 111 115 
265 609 314 64 80 114 
278 407 330 137 101 74 
203 275 222 88 107 127 
212 15 313 139 102 84 
141 506 204 98 110 124 
234 910 263 119 86 67 
265 280 199 108 103 102 
156 690 253 44 94 131 
103 277 229 107 79 79 
104 405 286 146 27 70 
292 186 177 205 108 85 
301 678 195 120 131 147 
109 548 271 137 137 168 
61 457 263 103 117 138 
147 574 305 46 65 80 
231 387 285 41 56 75 
281 411 329 124 97 75 
222 678 329 142 111 114 
296 405 284 68 98 132 
185 197 301 86 81 93 
100 662 192 92 123 179 
158 785 295 141 152 167 
316 673 198 103 119 140 
267 653 224 87 89 95 
216 652 136 115 126 143 
249 475 179 149 156 169 
218 376 191 101 109 121 
159 103 256 132 103 76 
242 262 298 97 89 100 
197 681 322 119 133 150 
105 630 234 158 112 93 
273 442 176 185 182 188 
125 444 286 130 136 147 
148 263 289 107 123 142 
142 176 265 97 77 70 
268 242 318 106 53 73 
168 593 309 138 160 185 
100 259 241 113 88 73 
289 847 231 242 181 146 
156 756 299 160 120 119 
60 398 256 139 133 132 
279 906 319 156 132 111 
276 698 164 125 126 133 
287 886 313 156 129 112 
298 694 324 185 95 47 
305 182 194 88 95 105 
213 700 341 108 79 70 
247 289 214 98 101 105 
164 326 240 104 104 106 
150 651 272 87 114 161 
272 637 216 68 78 89 
150 498 206 103 112 123 
172 456 211 93 109 127 
244 153 258 79 70 63 
94 629 217 151 107 81 
252 731 321 164 145 129 
210 947 246 93 76 63 
81 493 238 111 122 140 
286 243 210 136 31 73 
244 874 295 160 119 89 
195 50 299 115 90 64 
292 223 214 46 60 99 
99 331 237 93 131 163 
215 681 318 105 117 132 
86 585 260 180 126 109 
155 138 268 108 79 61 
96 242 260 64 78 91 
290 258 318 133 80 90 
96 244 257 76 83 97 
228 134 274 102 90 77 
270 702 144 85 124 158 
251 806 297 201 145 124 
287 621 308 145 111 93 
229 826 206 224 202 182 
444 680 229 125 134 146 
297 664 320 95 123 148 
280 570 322 82 129 170 
101 240 256 44 86 112 
110 759 212 79 112 144 
273 669 198 95 83 87 
123 672 174 77 130 171 
198 906 279 129 96 69 
288 211 187 82 96 120 
97 240 267 85 104 120 
104 731 195 104 128 163 
302 842 236 243 181 144 
211 854 299 105 82 56 
288 377 187 55 94 125 
291 364 262 102 123 144 
141 287 282 115 127 143 
272 263 265 127 122 123 
218 654 136 103 122 144 
159 433 320 101 117 141 
214 661 136 121 143 178 
214 878 245 199 149 104 
197 224 300 127 111 93 
168 907 314 105 77 62 
297 236 190 106 59 51 
292 148 204 143 97 62 
247 781 308 200 149 120 
202 445 311 122 129 144 
269 286 189 86 135 174 
287 633 307 150 105 93 
241 276 216 144 139 138 
414 683 271 134 152 193 
124 401 223 95 133 165 
135 769 255 121 130 142 
149 278 289 123 115 118 
170 900 313 136 99 73 
148 321 244 82 113 140 
112 694 185 83 114 161 
41 470 280 136 149 170 
178 849 254 130 102 83 
83 523 304 96 127 156 
307 481 231 147 149 159 
313 558 246 92 109 127 
136 231 281 78 103 123 
98 247 266 84 86 96 
251 263 267 92 26 37 
292 810 202 128 138 152 
193 373 220 123 86 83 
267 219 190 164 44 64 
270 430 325 41 59 94 
101 241 266 71 116 149 
168 795 194 171 145 153 
283 810 284 199 142 118 
283 267 184 102 119 140 
308 438 252 96 113 138 
199 541 324 149 156 170 
174 923 367 188 143 124 
302 447 206 60 97 146 
134 393 286 73 102 138 
79 454 286 60 92 147 
220 866 235 230 162 125 
125 335 285 147 127 104 
318 755 180 59 66 85 
253 302 206 71 79 90 
264 669 319 158 92 46 
289 149 212 144 80 34 
265 660 321 173 112 40 
332 620 287 127 108 90 
199 713 338 110 90 104 
260 660 189 80 89 105 
264 345 305 90 94 103 
279 322 221 103 36 47 
320 638 250 60 86 111 
348 739 266 121 85 67 
292 514 314 162 167 180 
102 542 321 190 202 224 
221 823 204 192 155 110 
93 591 255 180 129 112 
247 787 305 207 154 125 
173 710 323 122 150 177 
120 654 224 137 100 85 
319 719 294 150 126 113 
189 854 227 142 125 120 
186 95 294 118 93 69 
125 618 170 99 114 130 
175 434 214 94 106 125 
109 431 280 143 150 163 
378 657 211 47 86 115 
309 737 299 145 120 96 
361 644 217 57 87 119 
185 977 331 101 69 48 
38 535 293 54 77 111 
79 581 223 75 141 192 
258 953 312 54 43 36 
243 372 324 132 133 142 
42 437 279 134 42 66 
123 797 248 145 155 167 
260 689 139 140 155 178 
229 596 161 121 120 122 
249 581 176 103 116 131 
248 205 268 44 33 51 
300 582 223 142 145 153 
182 911 286 144 70 43 
271 404 325 110 94 80 
296 391 317 176 145 112 
133 602 250 123 113 127 
154 79 275 116 98 81 
28 555 289 120 93 78 
174 767 184 190 190 203 
254 269 295 51 62 78 
131 278 277 137 142 154 
307 542 271 144 154 170 
97 586 254 154 113 103 
156 702 165 73 142 197 
281 185 244 92 37 34 
273 458 327 80 97 142 
236 142 260 89 73 62 
156 98 271 114 92 69 
287 145 205 145 114 91 
98 254 264 131 130 135 
144 335 244 126 116 111 
254 473 301 93 104 122 
181 532 319 120 137 169 
428 710 223 129 156 185 
359 639 283 109 88 66 
165 186 298 111 82 91 
128 175 277 89 75 58 
191 847 268 177 128 107 
230 686 134 121 143 188 
119 428 282 94 113 136 
357 753 206 79 65 74 
192 752 322 95 78 109 
343 761 197 117 55 43 
225 366 277 41 54 67 
376 785 255 161 140 122 
67 444 295 105 94 92 
220 519 304 134 138 148 
264 63 165 147 130 115 
385 774 254 136 120 108 
296 397 277 110 122 139 
141 578 301 106 152 191 
84 583 234 145 104 79 
268 442 320 45 69 93 
333 685 208 156 160 196 
221 597 322 99 122 149 
278 845 263 207 150 120 
104 415 283 125 135 156 
252 895 277 148 113 87 
115 356 291 158 140 123 
187 396 321 113 128 151 
61 409 258 150 132 116 
347 666 280 145 170 197 
168 334 235 103 108 116 
206 977 356 80 59 39 
440 680 234 68 87 109 
286 746 160 166 178 198 
311 514 248 106 123 145 
143 468 219 91 113 136 
329 664 279 127 163 197 
173 883 319 134 100 75 
213 693 338 74 75 86 
231 408 284 42 60 85 
220 749 318 114 107 104 
101 505 223 147 145 149 
196 308 313 146 142 143 
146 582 302 72 128 169 
104 243 265 75 118 151 
105 242 265 77 118 150 
