ply
format ascii 1.0
comment Created by CloudCompare v2.11.1 (Anoia)
comment Created 2/28/22 9:43 PM
obj_info Generated by CloudCompare!
element vertex 2018
property float x
property float y
property float z
property uchar red
property uchar green
property uchar blue
end_header
120 595 236 32 55 74 
239 47 226 99 81 62 
206 755 169 173 197 221 
267 686 150 131 131 136 
281 158 299 98 82 77 
133 170 281 137 123 128 
155 132 292 146 77 44 
268 49 232 102 83 64 
84 380 283 139 94 76 
117 560 205 110 119 131 
148 420 309 82 100 128 
128 300 235 166 152 141 
234 714 143 201 193 200 
290 367 323 127 52 48 
152 730 247 99 113 136 
285 539 325 74 107 170 
50 588 281 204 135 126 
197 649 142 122 140 163 
197 286 231 103 84 90 
264 33 209 117 98 81 
294 200 323 131 111 102 
98 633 228 167 114 90 
166 756 319 115 40 50 
153 763 290 133 29 43 
111 475 225 51 93 168 
142 444 221 61 95 127 
266 882 309 153 118 88 
90 421 301 145 128 112 
279 838 219 228 159 121 
262 293 185 88 143 185 
192 782 187 173 181 201 
151 643 251 59 58 89 
145 517 199 75 96 119 
255 289 196 91 96 104 
371 789 253 158 135 115 
263 562 195 203 185 173 
280 853 240 245 178 143 
284 415 184 84 112 145 
239 405 187 78 110 150 
295 456 308 77 103 131 
304 431 278 55 92 135 
378 660 211 63 94 119 
153 766 293 148 62 80 
292 502 306 97 110 151 
199 877 360 155 116 100 
147 614 304 81 106 136 
352 770 196 123 45 60 
172 526 187 98 108 121 
402 732 260 96 114 159 
207 704 339 88 117 143 
270 634 216 63 75 88 
113 264 271 76 115 147 
277 169 296 104 91 74 
285 313 236 127 134 146 
239 586 177 112 123 135 
231 372 298 80 92 121 
184 734 335 58 52 134 
125 788 205 45 45 93 
216 498 306 85 101 133 
230 629 146 128 126 128 
74 280 253 73 93 110 
244 33 234 101 81 58 
84 279 236 110 59 64 
246 946 348 95 75 64 
195 35 284 113 93 71 
120 577 275 104 116 146 
306 481 269 122 136 154 
190 885 287 148 112 83 
280 194 190 152 97 113 
118 358 249 132 122 115 
69 515 297 61 93 125 
170 11 301 113 101 91 
190 790 192 174 11 36 
229 609 156 82 104 126 
246 35 234 98 79 57 
171 852 245 218 200 189 
411 678 268 120 139 176 
275 616 310 89 82 83 
277 794 191 214 183 157 
402 712 216 64 95 136 
190 312 313 157 152 155 
286 501 330 115 139 179 
165 374 228 105 101 117 
202 1011 306 147 116 81 
240 859 234 237 174 142 
191 681 327 131 154 180 
237 571 314 103 121 148 
314 654 308 118 154 187 
320 668 291 107 152 189 
286 161 230 117 84 75 
250 371 314 77 88 115 
149 138 291 155 70 15 
155 97 281 113 90 73 
249 607 168 105 118 133 
138 523 200 111 116 125 
364 655 211 72 105 131 
215 211 272 64 37 49 
172 781 303 139 101 107 
83 406 289 158 134 109 
241 41 230 92 74 54 
255 286 193 92 102 115 
147 633 214 56 68 84 
225 559 177 78 99 120 
271 200 294 97 57 61 
241 43 229 99 81 62 
253 836 216 213 141 105 
62 347 251 138 145 159 
92 445 241 72 96 124 
193 849 319 134 107 80 
170 886 336 164 125 100 
277 789 298 196 142 114 
269 227 203 131 106 109 
188 868 356 157 120 99 
390 649 217 116 136 158 
295 653 317 88 94 103 
239 793 187 174 155 142 
273 667 199 126 126 130 
234 678 338 215 181 146 
151 827 217 103 88 93 
258 518 323 90 103 137 
213 996 352 105 83 64 
297 782 184 194 171 150 
205 453 308 100 118 143 
353 764 196 117 36 37 
285 606 219 83 93 105 
134 839 242 97 92 110 
147 783 289 138 56 55 
176 62 257 126 102 76 
260 230 279 103 27 42 
241 834 286 168 109 90 
262 540 190 91 113 168 
77 462 298 67 96 141 
232 540 181 79 109 145 
201 981 357 118 98 78 
240 522 307 89 104 135 
216 261 255 78 88 98 
243 45 231 93 76 58 
265 201 298 117 40 63 
134 570 308 86 138 177 
224 716 145 138 166 211 
242 47 231 93 76 58 
242 544 307 64 82 102 
243 47 231 93 76 57 
207 133 258 164 127 78 
143 278 238 158 106 104 
242 40 233 97 79 59 
242 41 232 94 76 56 
176 11 299 95 83 70 
227 600 323 89 109 143 
259 169 245 100 56 42 
277 200 195 138 92 107 
289 341 298 110 126 145 
154 815 279 165 145 130 
107 661 183 126 126 132 
98 611 250 170 123 104 
206 746 164 163 181 204 
270 505 331 90 106 146 
259 13 245 131 117 110 
189 260 217 131 41 51 
265 279 199 132 155 181 
280 233 318 36 46 67 
217 755 167 164 191 220 
185 858 317 131 104 75 
196 360 223 134 100 74 
276 220 257 71 48 67 
237 826 209 183 157 145 
315 841 251 233 166 133 
268 769 169 223 180 97 
163 143 293 96 82 92 
244 355 178 135 152 181 
160 412 318 156 153 156 
246 40 234 94 76 54 
193 613 148 84 113 138 
208 466 308 97 109 138 
156 74 283 125 99 80 
200 883 360 152 115 99 
333 798 273 176 131 100 
172 703 312 112 120 132 
42 580 307 184 124 117 
257 518 311 96 109 131 
300 158 309 128 110 97 
232 636 315 101 43 58 
147 781 285 121 36 40 
244 44 233 90 74 55 
244 45 232 91 74 56 
179 115 293 108 97 87 
242 741 154 172 200 227 
220 200 272 89 48 54 
273 36 207 120 101 82 
112 188 278 114 64 53 
207 609 147 99 107 118 
309 523 250 116 128 144 
133 396 224 104 125 160 
134 404 224 95 122 155 
363 786 264 183 163 146 
89 599 221 72 89 121 
205 604 321 87 137 176 
154 768 186 183 179 186 
141 813 278 128 108 106 
64 531 285 106 114 125 
147 164 284 140 95 82 
226 853 319 135 102 72 
344 803 218 230 184 130 
267 258 289 53 85 109 
318 788 275 173 126 93 
149 764 280 119 129 141 
246 47 235 95 77 58 
303 406 226 92 119 146 
296 573 281 139 144 156 
296 220 186 82 81 109 
176 323 311 152 150 157 
183 990 333 123 101 79 
167 930 359 167 128 106 
252 849 275 167 122 98 
232 305 312 75 111 141 
248 35 234 101 81 59 
295 536 295 101 108 150 
199 371 314 84 118 146 
250 32 234 101 81 60 
142 495 319 153 150 153 
112 536 321 124 134 155 
185 404 218 65 96 123 
186 883 350 146 113 93 
265 222 285 102 41 59 
307 703 207 77 93 120 
228 976 294 170 145 120 
150 521 196 124 125 129 
339 824 251 215 148 115 
62 473 274 101 114 134 
271 717 148 165 145 147 
216 636 140 70 103 131 
241 168 287 113 29 19 
101 692 189 102 129 169 
288 351 296 141 136 137 
276 760 163 191 9 36 
422 712 219 127 133 179 
66 491 304 133 151 172 
225 902 364 154 124 94 
305 468 249 159 159 166 
193 353 225 149 116 79 
179 910 289 156 70 38 
214 903 261 147 103 75 
45 429 289 140 125 112 
167 959 339 89 75 66 
295 617 236 52 50 51 
281 303 228 106 122 139 
117 588 233 14 44 70 
84 592 243 156 107 87 
189 875 356 166 122 105 
260 492 336 86 119 170 
233 272 219 152 147 150 
83 488 243 88 103 126 
188 858 253 210 154 123 
181 630 318 137 158 187 
259 867 259 225 173 140 
289 578 296 133 148 179 
273 459 186 84 105 128 
251 223 288 54 47 51 
342 820 263 204 143 113 
209 911 266 106 80 59 
163 825 211 63 60 66 
283 680 200 54 59 69 
260 411 337 78 103 150 
338 632 287 143 109 88 
212 854 227 234 176 137 
201 483 317 120 125 140 
296 392 280 88 106 135 
199 889 274 172 128 97 
253 36 234 102 81 57 
305 767 174 169 24 36 
208 766 317 158 142 130 
65 456 270 49 77 122 
311 775 283 126 95 76 
143 845 244 240 183 138 
253 39 235 102 81 58 
260 48 209 107 87 66 
367 654 213 76 101 124 
371 716 217 63 96 122 
207 452 306 91 106 134 
90 615 227 133 95 70 
300 727 310 140 125 115 
250 406 313 51 73 116 
299 421 199 54 98 138 
167 299 236 168 162 164 
191 274 308 93 84 89 
278 637 307 137 93 83 
212 403 294 28 47 72 
278 818 281 190 135 111 
158 682 158 84 139 182 
219 541 317 87 106 127 
301 531 286 127 136 153 
135 725 182 138 153 179 
241 171 287 114 22 26 
180 499 198 123 124 128 
251 40 235 101 81 57 
292 384 301 124 112 104 
263 259 278 37 58 73 
330 619 266 118 108 100 
277 350 192 111 75 82 
192 306 226 113 119 128 
192 22 281 144 127 113 
150 190 288 100 84 98 
344 691 259 135 39 60 
218 965 364 119 93 75 
231 893 354 159 121 91 
83 591 265 186 125 106 
249 45 235 99 80 59 
97 646 204 103 92 122 
173 642 151 120 55 63 
223 456 286 43 57 69 
155 536 321 105 115 129 
263 671 191 70 99 126 
51 475 283 164 163 172 
158 734 314 140 159 180 
51 471 303 45 90 139 
295 189 223 55 67 94 
283 714 158 91 103 117 
254 905 304 122 82 60 
267 176 285 126 47 7 
247 484 299 55 64 83 
148 262 291 102 118 136 
79 396 251 131 131 141 
225 158 272 30 47 79 
261 169 295 83 55 51 
136 153 279 95 73 55 
307 618 296 146 116 96 
353 629 268 106 91 77 
92 596 196 119 125 135 
73 384 285 132 28 54 
299 402 206 70 100 132 
176 366 228 131 89 90 
254 41 235 102 82 59 
234 347 181 103 111 123 
372 731 213 101 118 136 
227 473 291 69 75 84 
150 56 266 82 72 65 
149 389 297 62 85 116 
301 735 174 107 116 128 
284 330 266 154 150 152 
179 60 305 129 98 73 
168 670 300 95 109 145 
182 18 280 130 114 100 
230 870 238 232 169 135 
285 900 324 167 141 115 
169 965 328 103 85 71 
354 751 265 36 43 53 
263 438 326 70 92 134 
283 367 291 112 109 111 
244 351 326 147 149 156 
148 182 286 100 80 84 
146 683 162 109 127 154 
102 368 254 134 122 113 
172 291 308 104 125 147 
221 196 275 87 36 37 
126 807 261 149 124 100 
318 614 287 111 95 81 
198 514 326 160 166 178 
387 755 215 95 108 118 
254 45 237 102 82 59 
214 320 296 75 73 74 
371 772 262 188 173 165 
281 192 186 157 133 127 
181 307 234 108 110 114 
269 324 199 97 121 144 
352 805 234 220 180 142 
175 297 236 144 136 136 
218 648 138 122 134 154 
275 86 234 122 100 77 
188 427 212 119 125 134 
215 475 295 73 87 110 
269 721 323 165 153 145 
153 665 262 91 101 128 
259 674 166 75 104 130 
120 537 313 91 87 98 
243 282 217 55 89 115 
96 560 221 85 109 130 
70 282 264 79 106 130 
274 696 172 115 117 123 
156 511 324 125 140 162 
191 690 326 129 147 168 
173 631 152 81 118 149 
241 50 227 96 80 62 
190 940 377 95 77 66 
91 455 240 98 109 124 
218 744 323 136 122 117 
134 152 284 110 96 86 
151 277 240 148 83 96 
41 531 305 92 108 138 
304 524 275 100 114 139 
229 334 297 67 82 99 
144 543 327 204 210 226 
159 267 302 162 157 159 
65 328 248 111 120 133 
289 665 227 73 95 115 
225 683 138 149 155 183 
344 674 264 126 155 185 
189 78 296 124 97 74 
259 199 275 55 73 94 
293 189 325 74 112 142 
105 366 288 151 130 110 
221 621 145 126 119 115 
292 202 326 164 101 83 
71 312 245 136 134 137 
288 146 314 130 93 71 
174 635 310 73 63 82 
148 498 323 102 120 141 
288 750 311 132 116 105 
139 311 246 77 110 136 
67 322 247 143 140 143 
177 873 325 135 100 75 
286 801 287 202 144 118 
299 637 254 68 65 65 
243 298 214 118 114 113 
155 96 281 113 91 73 
210 980 296 94 76 57 
160 17 295 126 114 106 
241 55 225 102 85 69 
125 341 250 117 110 108 
196 939 272 71 54 42 
241 55 226 100 84 68 
215 15 322 134 95 75 
230 294 306 99 112 127 
55 529 289 87 105 128 
129 362 230 135 103 79 
241 53 228 95 79 62 
64 429 262 163 143 132 
230 762 168 214 28 26 
181 538 179 95 106 119 
106 441 285 152 155 164 
259 17 204 120 106 92 
247 421 302 100 112 133 
219 227 281 106 32 42 
183 760 177 151 181 213 
167 728 327 132 155 174 
293 780 292 187 136 105 
209 629 142 104 121 141 
228 138 265 113 45 9 
221 352 295 63 70 83 
163 290 231 183 170 161 
243 54 230 90 74 56 
180 867 322 134 101 73 
84 459 292 92 114 144 
299 317 321 179 179 185 
93 605 254 183 130 110 
390 663 226 70 80 94 
172 809 288 142 117 96 
304 592 251 141 137 139 
74 345 250 134 114 111 
251 635 312 82 78 96 
288 233 246 105 36 31 
99 624 239 175 121 100 
244 609 317 69 91 128 
249 481 298 63 80 108 
50 589 282 204 138 132 
244 50 232 92 76 58 
265 70 242 112 91 68 
169 661 310 177 179 190 
364 785 211 150 146 148 
266 416 327 75 92 130 
259 865 269 206 156 125 
287 816 278 200 145 116 
49 579 270 189 129 124 
174 411 221 46 83 113 
194 218 293 94 59 69 
169 593 162 132 130 134 
240 490 185 157 155 160 
390 704 265 139 155 180 
206 265 291 70 92 113 
351 664 199 92 119 144 
242 834 213 107 152 191 
247 51 235 95 76 56 
173 896 354 117 99 82 
105 277 224 131 97 97 
189 104 282 99 81 62 
247 51 236 95 77 56 
345 650 211 78 105 129 
78 295 240 75 99 124 
306 496 243 100 113 140 
231 756 316 187 163 142 
111 353 285 148 131 115 
294 503 299 169 172 184 
215 455 286 46 62 76 
217 289 288 51 64 79 
217 422 285 36 53 74 
111 325 236 152 164 186 
74 286 250 81 103 124 
142 534 195 150 149 154 
196 507 188 74 92 110 
205 841 218 213 188 170 
140 433 302 86 106 131 
90 612 243 180 126 104 
240 161 286 69 27 27 
164 923 293 110 74 54 
321 699 293 157 73 46 
201 121 266 99 84 71 
89 542 330 149 160 179 
365 791 260 187 157 132 
186 484 325 137 143 159 
293 745 311 159 141 129 
234 911 265 119 84 63 
280 321 229 110 115 125 
165 726 326 146 165 186 
105 218 272 41 74 107 
169 460 328 143 150 166 
269 64 198 141 116 92 
50 416 289 148 64 3 
112 807 231 183 184 190 
242 57 224 97 82 66 
242 57 225 97 81 66 
221 313 292 72 72 75 
284 197 243 48 41 62 
149 172 285 97 98 105 
281 143 229 122 110 99 
316 653 237 74 103 129 
242 59 224 97 81 66 
242 59 225 96 81 66 
295 623 239 65 78 92 
185 859 312 132 103 75 
289 275 251 153 148 149 
167 910 356 158 122 94 
210 440 297 41 63 104 
268 501 315 91 105 135 
270 328 319 93 101 113 
343 624 266 105 96 90 
272 927 328 103 83 77 
273 835 215 220 152 115 
256 608 169 89 115 138 
274 695 162 120 122 128 
396 726 260 147 112 119 
180 935 373 137 109 97 
160 802 199 163 30 36 
161 209 298 62 94 120 
155 676 256 52 88 119 
276 535 330 138 155 183 
160 341 300 148 128 122 
204 188 260 30 27 29 
115 793 239 105 130 154 
258 153 200 108 86 60 
44 542 319 141 156 176 
242 60 226 93 77 62 
248 814 295 190 128 106 
266 207 193 93 94 115 
242 61 227 90 75 59 
83 348 248 73 99 121 
225 824 207 213 182 147 
239 568 313 118 127 147 
411 667 216 158 167 182 
212 960 279 139 104 71 
93 540 317 101 157 202 
284 328 260 147 144 147 
229 192 282 66 31 28 
44 469 302 91 123 155 
299 406 327 191 80 8 
218 279 285 85 85 90 
419 731 233 133 157 195 
184 680 314 77 84 121 
271 789 186 178 155 138 
252 393 327 76 94 132 
141 625 218 76 77 82 
240 393 304 54 82 121 
263 667 322 164 92 31 
199 166 273 83 43 60 
294 383 204 70 97 125 
221 865 235 228 162 125 
275 224 196 98 94 108 
296 309 322 177 176 179 
305 583 242 115 124 137 
184 961 362 80 63 53 
271 277 185 188 185 192 
259 788 185 203 146 89 
267 286 301 122 123 128 
156 738 308 145 168 195 
113 613 178 101 115 130 
181 522 186 106 112 119 
212 540 324 138 149 168 
54 359 264 118 118 124 
242 187 293 64 23 44 
274 324 323 163 137 109 
283 473 187 160 160 168 
316 666 216 89 129 166 
93 450 238 74 94 117 
286 552 320 170 180 197 
235 275 217 124 125 132 
183 674 315 43 65 122 
262 677 161 73 85 100 
237 658 140 146 147 154 
123 542 311 52 66 102 
211 442 198 68 96 127 
223 504 296 73 88 113 
154 698 282 123 135 153 
119 553 213 93 105 118 
378 774 219 162 142 124 
149 785 294 144 124 105 
307 174 209 106 68 63 
159 786 299 180 169 163 
258 393 332 115 127 143 
156 735 308 147 168 193 
237 718 321 121 75 64 
247 694 139 180 178 187 
236 649 332 59 60 89 
60 362 276 178 152 126 
124 318 276 122 124 131 
222 720 147 136 162 212 
245 61 232 91 74 57 
142 460 316 86 106 137 
245 62 233 92 76 58 
224 886 251 239 167 122 
254 556 319 102 120 145 
91 464 236 85 103 122 
266 452 336 91 111 162 
289 354 255 165 134 104 
262 227 258 72 35 38 
239 874 304 155 113 81 
297 758 167 71 70 124 
62 587 297 182 128 116 
197 920 274 93 63 53 
188 183 293 111 48 47 
260 906 324 140 92 71 
205 656 321 65 90 114 
295 390 304 165 137 107 
159 590 167 91 104 120 
271 239 293 90 83 80 
383 757 258 79 72 107 
294 151 319 139 122 107 
403 698 267 181 201 226 
186 97 269 92 74 52 
235 337 315 100 90 111 
113 588 188 70 94 115 
280 318 280 74 111 140 
249 51 237 99 80 59 
279 215 254 70 49 66 
317 764 291 125 112 104 
251 48 237 100 81 59 
284 201 302 124 97 64 
200 422 314 72 90 130 
140 237 286 84 101 122 
153 665 219 79 95 128 
168 563 173 78 98 117 
192 654 319 93 78 95 
105 634 235 165 116 94 
49 478 305 80 116 153 
287 264 322 100 86 101 
162 369 305 79 99 120 
204 135 256 143 81 25 
122 566 301 60 76 111 
345 706 217 159 151 150 
393 749 257 159 112 71 
132 165 284 144 113 118 
92 618 220 112 92 100 
219 447 284 45 58 70 
175 355 228 150 69 91 
281 229 298 80 87 101 
97 538 308 161 181 208 
311 841 247 238 170 135 
230 854 228 213 147 111 
108 564 254 37 67 109 
305 445 277 72 100 144 
221 241 283 52 71 88 
210 447 299 49 71 113 
359 794 218 172 157 147 
48 411 272 152 113 91 
249 472 298 105 111 131 
248 545 315 87 106 144 
247 235 296 25 32 62 
243 262 212 139 135 136 
197 762 319 122 96 97 
285 703 191 80 86 95 
290 520 325 119 143 179 
120 589 278 175 163 162 
268 149 298 112 47 14 
253 49 238 101 82 60 
151 340 230 113 99 86 
304 473 288 85 111 152 
277 520 330 55 71 127 
366 764 204 149 23 35 
290 475 330 74 103 161 
309 794 196 133 123 124 
160 465 327 124 134 153 
171 951 293 102 77 64 
285 380 295 78 78 83 
260 655 195 72 93 115 
149 816 278 63 56 62 
160 594 311 80 92 113 
103 442 286 118 132 150 
166 273 237 90 47 48 
255 51 239 103 83 62 
217 334 268 59 66 75 
221 948 370 91 70 51 
104 639 183 146 155 170 
268 227 305 50 85 112 
275 61 215 120 101 83 
285 623 222 61 53 63 
165 803 198 193 13 34 
62 381 257 193 159 122 
340 668 198 96 119 143 
255 291 198 94 96 101 
262 185 277 35 66 92 
176 854 238 225 201 185 
222 323 293 82 79 81 
256 536 322 106 125 157 
90 438 242 116 130 157 
158 607 307 52 62 138 
192 604 151 102 115 130 
167 950 302 79 61 52 
123 385 288 152 139 133 
290 353 216 112 65 76 
101 354 245 74 115 149 
121 484 296 123 130 142 
296 151 207 144 78 16 
373 645 251 91 83 76 
199 694 322 100 117 136 
263 185 297 44 63 83 
188 935 275 84 64 51 
248 58 236 100 82 63 
272 63 236 109 91 74 
118 751 193 148 155 192 
292 379 200 83 108 134 
152 726 242 76 94 126 
357 741 208 118 119 123 
297 652 316 98 90 86 
256 544 322 84 100 151 
288 765 298 193 145 114 
281 236 187 124 77 76 
306 458 284 94 112 145 
214 920 262 89 67 50 
123 269 273 151 147 149 
364 680 261 120 147 175 
251 655 145 144 143 147 
205 739 161 156 85 102 
225 247 292 57 78 97 
84 309 271 108 124 141 
185 960 290 113 82 45 
251 59 238 103 83 63 
129 588 237 52 97 130 
301 386 322 196 162 124 
238 913 265 102 82 67 
401 658 259 80 71 64 
148 347 227 116 84 85 
250 271 289 65 45 34 
219 310 292 61 67 76 
289 439 330 91 103 132 
278 239 192 105 69 60 
269 483 185 80 103 129 
271 12 227 126 115 108 
268 162 288 87 79 70 
46 572 264 192 131 123 
286 317 301 79 103 124 
321 789 194 152 127 112 
260 43 206 105 85 63 
303 420 222 109 126 147 
186 1010 322 182 154 127 
141 419 299 89 105 125 
243 840 219 211 147 111 
207 606 148 94 107 122 
194 660 321 154 146 154 
192 129 280 134 62 0 
143 669 161 92 149 195 
296 692 325 172 100 48 
274 248 295 106 96 89 
210 434 198 136 141 152 
280 330 283 73 105 132 
204 993 299 158 121 82 
438 688 252 141 162 200 
215 199 262 56 53 56 
225 828 210 177 153 136 
57 470 305 38 83 134 
289 362 261 97 117 139 
297 486 314 169 170 177 
362 663 205 37 68 96 
274 750 318 124 140 157 
220 310 224 87 111 134 
338 647 219 71 93 114 
310 670 307 89 124 152 
254 55 240 104 84 63 
192 240 301 107 85 67 
255 527 311 55 72 105 
121 592 265 129 125 137 
84 347 275 174 153 133 
164 818 207 145 130 117 
94 383 289 162 140 117 
187 147 286 66 61 73 
290 366 274 115 125 140 
255 57 240 105 85 65 
192 445 208 130 131 137 
323 770 181 157 19 43 
133 483 307 97 114 135 
93 566 217 92 108 125 
186 844 219 224 186 113 
281 498 186 163 164 175 
226 840 287 149 97 77 
208 629 321 184 174 172 
200 646 141 100 123 150 
255 288 195 87 95 105 
220 501 299 105 115 134 
230 359 301 112 118 130 
340 715 214 132 128 130 
275 747 157 172 189 210 
181 346 313 158 158 166 
324 615 277 93 88 85 
261 583 192 109 118 131 
272 251 191 107 46 61 
255 63 241 106 87 67 
111 539 301 104 115 173 
198 738 332 176 52 65 
107 545 233 92 95 101 
259 455 186 168 170 179 
245 964 297 113 85 67 
263 160 283 84 77 70 
151 817 278 115 105 101 
160 668 249 60 84 120 
294 518 205 128 144 165 
185 424 323 115 126 150 
243 79 190 134 99 50 
164 475 328 173 170 175 
304 412 263 65 96 134 
218 223 277 79 51 51 
62 370 278 125 19 56 
293 541 209 139 147 166 
412 684 214 101 124 149 
169 196 300 127 88 80 
329 653 297 117 148 185 
289 606 223 117 116 118 
247 72 190 116 91 58 
110 655 181 150 150 157 
246 194 297 41 40 41 
235 748 159 172 193 219 
151 734 273 111 135 160 
363 668 203 28 62 96 
113 737 189 139 146 197 
87 253 272 64 111 144 
171 633 309 73 71 79 
345 635 286 135 106 84 
255 917 305 102 80 65 
256 508 183 144 145 153 
120 634 170 149 148 154 
349 806 231 228 203 184 
227 993 350 135 104 74 
297 446 297 82 108 142 
45 464 286 139 152 172 
237 285 310 147 148 156 
76 469 296 65 90 136 
270 364 312 137 115 93 
286 223 216 64 58 95 
111 306 232 146 82 13 
279 901 324 148 126 111 
301 448 292 73 97 135 
286 418 184 51 98 140 
267 223 259 75 36 47 
193 118 277 101 92 85 
216 540 322 126 141 161 
280 331 287 61 86 110 
245 76 190 126 94 56 
406 744 225 220 231 252 
237 134 268 93 77 70 
74 474 299 100 121 157 
195 847 321 137 107 82 
154 134 291 149 79 42 
261 603 318 90 138 185 
359 795 222 196 182 175 
36 570 314 164 125 125 
162 646 305 89 104 152 
126 320 277 123 122 126 
265 759 317 141 150 164 
225 436 192 84 107 137 
255 648 184 69 102 127 
193 200 291 88 37 44 
249 71 189 122 95 59 
288 392 326 165 118 61 
183 126 256 116 73 41 
403 678 213 79 107 136 
297 843 234 243 182 147 
136 151 287 123 111 106 
229 356 299 67 81 108 
391 750 217 179 189 206 
217 458 282 64 71 79 
251 69 190 132 98 47 
133 592 294 137 148 186 
276 568 325 166 168 177 
166 47 305 135 109 87 
251 71 189 126 96 52 
250 70 190 127 96 55 
179 807 291 167 133 100 
207 986 296 97 74 46 
59 452 300 113 103 95 
355 707 217 85 98 130 
271 280 287 140 139 143 
237 314 209 74 92 110 
253 69 189 140 101 36 
293 190 313 117 100 115 
288 189 325 106 94 103 
149 283 288 76 113 143 
211 345 304 102 90 81 
376 701 258 157 66 88 
242 205 299 35 58 105 
350 657 287 96 126 196 
214 575 164 125 123 124 
392 768 244 180 113 97 
222 850 224 221 154 121 
328 736 285 159 150 146 
209 205 260 53 44 51 
105 730 191 56 65 149 
239 873 329 154 117 84 
399 717 217 94 115 141 
160 131 291 154 76 23 
171 100 259 94 75 52 
99 655 201 111 110 132 
266 629 211 113 115 123 
143 685 222 104 110 124 
187 73 299 127 97 76 
175 957 356 81 65 59 
66 551 278 74 105 146 
126 725 184 98 128 181 
304 460 288 93 110 146 
99 220 263 75 48 38 
294 427 188 140 148 163 
106 210 262 78 53 37 
64 351 275 188 164 138 
248 571 189 94 99 107 
297 415 194 55 94 125 
258 233 277 105 42 16 
154 49 268 108 101 98 
156 358 223 133 152 181 
222 675 332 131 79 88 
255 79 182 130 93 33 
258 458 309 57 83 135 
184 185 298 126 65 54 
284 615 214 93 111 129 
251 259 289 53 41 36 
193 783 307 157 134 110 
272 613 189 128 130 137 
306 476 239 92 112 145 
291 544 209 73 100 152 
305 444 229 78 102 148 
418 729 248 198 209 228 
299 614 251 51 58 66 
261 937 334 82 69 60 
251 75 186 124 92 47 
209 588 328 170 183 205 
206 538 325 164 169 180 
124 611 174 106 117 131 
254 841 220 223 159 120 
302 534 231 128 139 155 
288 606 292 110 121 137 
306 567 274 163 162 168 
310 573 267 135 142 154 
297 610 246 61 61 65 
194 864 350 118 89 74 
279 644 239 64 59 57 
197 845 276 170 121 100 
194 287 232 82 98 117 
82 579 239 128 112 130 
247 774 174 195 22 40 
292 505 302 131 141 173 
301 811 208 174 155 145 
248 77 187 120 91 52 
189 123 283 113 74 12 
379 690 212 101 136 190 
343 697 260 157 59 79 
71 584 290 188 135 124 
249 78 185 122 90 46 
120 617 238 97 75 68 
277 80 224 120 101 83 
294 215 318 125 82 86 
291 171 227 134 34 36 
380 746 211 129 104 110 
123 532 324 67 98 124 
187 415 215 96 109 125 
109 667 215 164 112 90 
195 618 320 188 183 187 
222 878 243 233 165 128 
81 452 298 68 94 136 
409 660 218 112 127 146 
335 796 273 176 134 103 
161 925 316 77 62 51 
347 773 193 148 109 94 
262 21 204 177 164 156 
188 634 147 153 151 155 
215 303 221 76 120 154 
126 420 223 86 110 134 
223 613 149 85 108 131 
231 288 310 146 145 149 
86 299 230 170 165 166 
303 843 251 231 174 140 
155 693 256 96 113 135 
252 881 291 144 104 78 
142 167 264 138 76 22 
388 691 269 142 173 205 
224 391 277 43 59 73 
195 602 320 93 148 190 
108 749 197 63 78 161 
176 874 331 137 103 78 
292 408 190 43 86 123 
57 470 277 117 132 165 
232 837 216 188 183 188 
54 472 279 127 141 162 
226 772 175 150 20 61 
198 854 307 121 96 70 
64 372 280 129 26 61 
163 812 204 215 160 77 
251 221 287 59 44 46 
406 664 251 78 71 65 
219 405 282 29 51 70 
304 734 177 116 115 119 
167 769 184 195 192 203 
216 525 314 101 114 130 
255 481 301 82 91 116 
258 64 193 139 96 25 
155 100 271 107 86 63 
208 876 246 178 120 86 
300 838 261 218 161 128 
253 500 184 126 130 138 
262 334 302 41 41 43 
220 155 265 93 43 42 
426 703 255 122 142 194 
41 581 306 193 133 125 
114 573 249 36 43 63 
74 553 297 94 132 166 
214 137 260 118 71 39 
205 635 321 190 180 180 
82 382 247 147 152 165 
182 847 222 173 144 110 
178 490 202 127 127 131 
296 160 217 123 114 110 
275 364 322 163 133 99 
242 80 189 138 100 48 
259 360 314 132 123 119 
304 465 203 92 123 157 
154 667 258 53 54 95 
138 816 217 166 54 89 
257 690 141 132 150 178 
182 1002 317 166 141 120 
305 433 245 52 89 140 
82 448 298 64 75 137 
418 674 241 61 66 73 
133 308 248 164 161 167 
208 261 217 155 11 57 
228 281 220 114 119 128 
172 809 201 213 96 92 
255 559 320 82 109 156 
215 739 158 133 181 220 
143 815 212 192 36 57 
359 636 224 124 134 148 
236 555 183 114 129 147 
117 713 183 123 136 187 
82 438 247 82 111 140 
222 752 164 181 199 221 
47 414 274 167 79 13 
192 701 149 129 151 183 
182 301 235 92 86 83 
274 306 218 101 112 127 
333 728 279 145 127 120 
221 660 323 123 122 125 
240 86 191 140 102 84 
291 771 295 185 139 106 
241 86 191 139 100 82 
320 669 291 104 148 185 
131 271 231 159 64 33 
192 1005 336 156 126 96 
215 299 257 56 61 67 
74 267 262 124 119 118 
257 183 269 50 64 82 
316 687 299 138 56 62 
140 535 329 86 113 139 
116 694 207 107 114 153 
187 872 344 128 98 75 
276 397 318 97 83 69 
88 292 269 111 125 142 
283 345 286 77 93 112 
279 241 187 124 66 60 
279 332 215 98 89 90 
291 164 223 125 42 29 
169 309 304 92 69 80 
428 717 234 218 226 243 
104 728 200 77 93 136 
276 157 240 137 69 26 
212 471 194 106 115 128 
255 164 259 95 83 74 
255 337 311 80 110 134 
199 846 221 181 152 132 
287 507 329 170 179 195 
233 334 194 68 75 84 
365 640 253 79 76 76 
246 81 186 139 100 40 
413 726 254 138 166 195 
172 394 319 72 98 134 
256 644 186 80 108 132 
167 660 308 124 139 181 
161 292 232 178 173 176 
192 670 143 179 176 181 
151 835 266 156 136 119 
233 565 181 92 108 126 
209 972 363 69 49 36 
156 108 270 104 85 63 
282 190 185 176 142 131 
343 755 194 58 59 83 
166 477 211 64 91 116 
197 562 324 90 118 146 
289 219 210 49 45 74 
158 697 247 105 114 135 
260 433 185 150 152 173 
220 818 203 204 174 147 
245 608 317 94 108 141 
168 39 271 112 97 83 
175 891 349 122 101 85 
178 326 222 133 40 64 
109 714 200 86 102 134 
269 38 197 123 106 92 
242 882 253 194 138 99 
235 918 262 105 79 53 
139 155 287 146 75 89 
247 86 184 163 108 54 
190 825 286 132 112 96 
138 657 162 82 132 170 
138 779 267 134 52 60 
281 464 333 116 138 183 
74 462 256 93 114 154 
235 834 287 171 119 94 
196 38 286 115 93 69 
313 662 311 90 134 170 
201 324 226 145 148 158 
117 595 184 94 108 123 
173 471 210 100 109 120 
293 720 322 88 82 85 
283 240 255 123 36 44 
235 982 323 99 71 58 
331 694 277 59 70 123 
123 601 269 126 126 146 
223 809 299 187 136 120 
214 516 315 88 99 133 
81 424 299 138 104 78 
275 261 197 165 160 162 
247 561 188 130 137 152 
255 619 314 188 187 194 
243 90 190 147 102 88 
212 475 301 81 99 133 
218 351 297 61 66 76 
305 412 260 72 104 138 
244 88 185 170 113 86 
213 341 302 59 65 72 
282 329 277 112 133 155 
241 173 282 101 26 23 
59 351 275 140 1 63 
205 962 285 129 92 61 
247 253 296 86 37 58 
263 418 334 88 109 151 
171 464 328 151 158 173 
260 829 211 145 157 172 
58 400 288 172 148 124 
214 302 293 63 79 94 
254 875 281 156 116 88 
245 91 187 160 110 89 
294 147 215 141 81 34 
283 210 191 127 80 80 
160 830 273 150 122 94 
171 892 315 140 102 77 
264 263 310 75 113 144 
227 859 232 225 163 127 
218 286 222 118 119 125 
247 91 184 187 116 88 
303 591 257 141 134 134 
224 851 319 132 100 67 
167 820 280 161 124 86 
109 551 229 72 90 107 
391 766 236 217 173 148 
110 356 287 139 125 114 
166 905 348 153 118 91 
112 643 233 155 112 92 
143 644 216 68 63 70 
196 893 278 160 122 91 
289 538 319 186 191 203 
240 377 306 80 102 130 
259 687 142 152 155 166 
127 338 249 118 101 87 
247 92 186 180 118 101 
282 318 272 77 116 148 
291 830 217 200 138 102 
314 688 301 94 106 127 
265 370 180 172 170 176 
260 230 280 106 19 56 
240 410 294 46 69 117 
146 483 322 85 109 142 
208 865 351 130 98 78 
162 813 282 169 149 132 
267 244 263 76 34 51 
303 403 232 75 109 141 
112 317 273 148 125 101 
258 268 289 55 46 48 
287 211 325 148 43 81 
127 388 223 183 176 176 
271 386 310 79 72 66 
320 699 294 134 47 44 
180 553 331 151 152 160 
395 685 211 76 112 185 
119 769 230 99 114 140 
96 218 270 63 46 47 
242 421 294 51 71 122 
275 189 249 87 44 44 
151 264 237 112 41 33 
47 555 277 80 70 62 
204 642 141 84 113 139 
306 494 229 85 108 143 
138 479 314 85 107 136 
44 501 296 172 178 194 
288 229 305 69 92 113 
250 81 183 134 96 42 
245 859 235 242 179 148 
63 392 257 180 151 118 
212 701 143 144 170 209 
250 82 183 137 97 33 
304 494 218 116 135 158 
167 900 348 118 95 77 
258 418 330 73 99 145 
91 608 199 81 136 175 
143 809 209 132 127 160 
149 486 324 105 112 145 
138 815 275 144 130 129 
356 753 265 148 140 136 
151 498 324 54 67 126 
178 94 263 105 84 58 
374 717 216 67 89 114 
301 192 211 136 52 42 
327 679 282 154 48 52 
208 821 292 189 140 123 
273 389 312 65 56 49 
139 244 283 101 76 90 
274 927 328 98 76 66 
286 143 221 120 106 93 
216 1008 304 156 125 91 
129 824 226 216 164 96 
89 447 245 104 125 150 
140 635 216 55 56 63 
181 996 323 99 77 60 
252 80 182 130 94 40 
98 394 298 159 68 6 
249 932 353 108 88 67 
278 175 296 110 44 9 
253 81 182 133 95 35 
237 878 247 227 175 142 
126 427 222 52 88 121 
185 649 147 120 134 160 
133 491 309 107 116 131 
72 505 294 73 101 138 
268 176 287 124 49 14 
255 844 276 169 119 98 
130 631 229 90 71 67 
99 538 332 180 196 217 
220 595 159 100 90 85 
268 623 198 122 122 129 
257 129 239 88 75 61 
253 319 305 85 105 125 
362 640 219 99 121 142 
161 552 179 89 102 116 
266 922 334 141 114 88 
217 354 270 58 66 75 
231 308 215 78 97 119 
231 376 295 66 80 116 
219 354 204 77 87 97 
117 555 211 93 112 130 
280 186 245 94 42 36 
282 343 290 60 82 101 
199 701 325 104 120 137 
258 140 241 90 72 59 
120 313 236 123 135 151 
166 603 311 111 121 152 
100 218 262 54 42 48 
335 782 278 152 133 118 
291 218 185 100 91 116 
407 657 218 107 125 147 
169 505 198 127 125 128 
261 272 205 118 56 6 
254 87 181 173 112 54 
159 270 302 154 150 153 
279 599 213 81 98 116 
333 747 280 130 109 89 
156 150 288 122 76 76 
336 628 253 97 88 83 
274 645 234 70 65 62 
299 326 321 145 163 185 
40 530 311 178 181 191 
328 691 209 131 141 185 
308 173 205 94 70 76 
295 238 315 91 93 102 
137 622 261 105 102 147 
221 677 138 176 175 187 
44 567 320 191 200 219 
269 475 318 56 75 111 
307 638 299 56 59 63 
187 755 174 114 152 207 
219 492 296 98 108 124 
344 810 232 218 196 182 
293 816 209 177 152 135 
309 579 256 112 128 148 
147 286 286 82 99 120 
249 88 183 185 111 62 
280 325 281 82 114 143 
225 843 288 151 108 84 
194 547 173 74 91 108 
272 431 184 181 177 181 
235 175 276 59 23 37 
293 643 252 41 41 49 
90 391 291 161 139 116 
401 671 231 40 60 78 
119 507 212 99 113 130 
260 687 323 99 76 66 
186 986 343 93 67 44 
255 233 272 97 46 46 
305 444 259 148 150 160 
164 558 316 87 138 178 
117 593 184 104 114 128 
375 768 260 52 37 53 
151 201 290 100 99 103 
210 467 305 76 94 128 
294 663 233 88 106 126 
209 662 138 120 136 167 
67 581 267 199 136 117 
293 158 218 112 110 107 
294 568 289 136 152 173 
184 897 295 126 86 54 
173 509 195 104 111 121 
386 661 212 96 112 130 
185 122 288 111 88 61 
334 722 275 104 110 119 
240 815 296 189 131 110 
224 948 266 91 69 49 
189 742 331 182 115 127 
236 654 338 59 49 104 
201 756 323 167 138 120 
154 716 275 35 55 94 
249 92 184 197 121 94 
240 970 300 124 93 77 
106 709 184 137 160 202 
415 716 258 165 179 211 
202 728 156 83 164 222 
184 277 310 120 133 149 
100 326 237 135 135 141 
304 802 278 191 142 107 
132 332 292 143 123 104 
225 565 174 91 107 124 
231 812 200 198 166 138 
311 820 273 193 143 109 
70 489 296 75 107 147 
191 12 321 125 105 94 
175 689 304 82 102 142 
287 348 266 135 136 143 
277 157 299 83 58 59 
361 731 260 117 118 122 
188 38 307 126 96 71 
173 717 164 189 191 205 
251 95 186 192 127 108 
264 148 201 111 88 60 
285 369 298 100 98 100 
109 595 187 70 100 125 
223 429 290 62 79 102 
70 462 260 77 104 144 
433 681 255 98 131 188 
295 215 202 64 48 75 
127 391 288 135 118 116 
165 693 158 137 71 91 
226 268 297 90 84 90 
194 942 276 70 56 45 
186 688 150 180 178 185 
260 138 293 94 81 71 
253 92 184 197 120 95 
142 498 318 155 151 153 
253 93 185 195 127 105 
318 701 297 134 71 82 
111 320 233 160 142 133 
193 536 178 125 126 131 
71 578 261 172 114 97 
107 627 241 155 112 93 
261 619 168 160 161 169 
172 663 152 174 171 178 
266 919 328 105 86 74 
203 648 140 70 108 149 
132 583 180 97 112 129 
271 119 209 102 86 68 
276 635 227 50 58 67 
168 734 171 117 154 201 
277 372 330 178 153 128 
216 451 286 44 59 72 
232 692 138 135 160 200 
283 738 155 147 165 194 
277 29 214 134 107 91 
311 656 239 75 108 137 
179 934 372 141 109 96 
206 861 233 226 148 103 
163 928 304 84 67 58 
248 250 296 71 26 41 
310 521 244 99 118 139 
250 96 187 182 119 97 
222 360 191 92 99 109 
264 393 181 84 117 147 
315 648 306 118 134 177 
249 96 189 162 108 91 
252 419 186 74 105 144 
278 321 287 62 76 89 
286 675 199 50 63 77 
289 435 331 101 64 86 
114 361 294 123 125 133 
275 157 298 58 27 33 
220 914 260 110 77 62 
120 266 233 15 56 107 
281 557 324 151 165 186 
285 591 216 101 122 147 
51 436 296 149 136 129 
247 825 290 178 116 95 
201 208 272 88 35 24 
61 504 305 139 149 163 
192 286 231 75 117 152 
213 1002 301 161 122 89 
343 819 245 220 163 125 
285 176 236 114 37 38 
106 266 269 74 107 134 
250 99 191 159 108 92 
191 434 320 111 126 145 
239 845 285 163 116 89 
192 678 326 119 141 164 
234 390 291 64 77 119 
159 238 301 135 137 144 
195 360 315 100 113 146 
220 138 257 106 62 40 
109 554 225 105 121 137 
175 278 309 112 131 153 
227 802 302 191 139 121 
130 397 288 82 106 139 
197 259 299 132 129 131 
155 494 208 98 107 119 
317 838 242 236 165 135 
268 632 214 84 90 100 
252 98 189 171 115 95 
264 762 164 107 85 115 
193 600 320 85 138 179 
268 188 183 155 91 78 
257 518 329 74 101 155 
106 222 271 85 110 132 
159 510 198 112 117 125 
272 601 317 138 158 195 
255 96 188 174 115 97 
286 329 241 116 122 133 
348 754 270 154 138 127 
286 503 190 99 123 160 
283 297 264 80 117 149 
254 99 190 162 110 89 
261 283 291 90 93 99 
299 402 327 191 82 11 
176 304 237 110 109 112 
91 293 227 185 55 108 
74 301 244 90 61 47 
238 518 180 98 111 129 
267 297 297 96 115 135 
87 558 272 45 69 108 
254 101 191 147 96 70 
365 735 261 118 135 158 
207 419 199 36 83 123 
261 489 310 63 89 132 
351 800 222 202 173 145 
141 665 162 89 144 188 
100 356 243 84 125 161 
90 298 229 177 146 157 
169 639 308 69 121 165 
387 648 226 135 140 151 
72 511 268 47 73 114 
297 748 165 135 144 158 
261 455 186 112 134 169 
167 195 299 138 89 68 
238 959 285 103 80 59 
341 637 220 37 87 122 
192 853 326 133 107 82 
143 666 161 82 147 196 
222 251 285 58 82 105 
374 735 211 90 115 137 
251 148 262 79 74 68 
361 638 275 114 94 74 
196 448 205 110 120 133 
256 11 230 134 120 111 
263 642 214 79 81 87 
230 227 292 56 25 28 
85 551 261 80 112 141 
164 427 222 101 110 126 
63 559 309 71 113 152 
142 684 164 159 73 92 
167 212 301 60 78 102 
211 787 308 139 122 115 
170 494 326 107 116 154 
259 648 194 82 97 115 
181 478 205 84 99 115 
201 780 310 161 137 118 
211 893 367 133 110 87 
203 192 262 62 40 37 
207 931 379 165 124 103 
81 476 291 144 149 161 
89 543 251 55 75 94 
155 685 224 110 120 141 
299 384 217 77 107 136 
173 783 190 167 180 202 
264 28 219 113 89 69 
193 122 252 101 93 84 
158 702 163 159 77 82 
264 190 297 56 37 57 
49 549 322 88 116 143 
342 820 261 207 144 112 
151 398 304 72 92 123 
139 613 298 58 88 141 
122 422 286 88 108 132 
332 797 204 184 158 136 
256 296 178 107 128 154 
67 556 266 92 115 137 
120 720 217 125 134 149 
212 355 302 94 101 111 
53 488 285 161 167 179 
273 237 313 76 60 90 
255 656 185 112 111 115 
192 124 249 102 95 92 
266 276 272 83 97 119 
293 779 180 145 116 94 
286 341 267 135 133 136 
302 468 291 99 122 155 
360 693 257 128 77 82 
223 929 258 85 65 51 
331 691 276 75 112 153 
305 474 231 89 113 143 
258 823 287 181 126 102 
96 568 214 92 106 121 
306 428 256 134 141 154 
209 490 313 108 118 136 
144 180 282 77 102 125 
141 775 271 89 122 150 
182 62 305 128 99 71 
164 847 231 176 149 124 
262 427 338 79 106 154 
167 219 303 109 39 61 
60 342 256 118 124 134 
276 288 218 149 145 148 
105 751 199 117 122 155 
81 406 258 131 110 85 
250 838 280 167 112 90 
210 675 320 99 107 119 
195 837 281 186 131 112 
121 610 235 70 59 62 
146 408 227 65 95 124 
264 680 159 99 99 105 
150 132 282 94 79 63 
268 276 196 120 141 166 
235 325 305 104 70 91 
286 313 299 80 105 127 
236 213 294 62 20 33 
210 810 298 186 137 120 
87 607 240 148 100 77 
199 123 253 113 99 87 
284 255 219 89 128 160 
276 61 220 114 98 82 
271 116 209 102 84 65 
71 354 277 179 153 127 
285 505 330 186 189 200 
314 646 306 110 137 166 
158 342 224 114 99 95 
84 475 252 89 103 124 
91 313 271 148 37 74 
306 661 318 132 117 115 
202 234 279 102 96 95 
255 644 315 114 78 72 
122 822 228 102 18 40 
194 528 181 110 114 120 
223 677 329 127 104 112 
397 692 272 134 171 207 
244 538 183 112 130 164 
147 620 233 79 94 132 
131 582 180 102 116 131 
289 441 330 93 110 137 
153 603 165 92 109 127 
58 587 279 208 146 132 
147 601 168 77 101 123 
119 344 252 103 105 117 
198 126 251 116 101 88 
199 126 250 111 94 84 
92 399 296 146 66 7 
196 124 252 91 76 65 
284 360 289 124 123 127 
249 402 310 44 71 119 
196 747 328 151 134 138 
238 883 341 149 107 77 
222 671 336 111 88 86 
219 283 285 75 80 89 
271 302 298 77 106 131 
258 123 239 76 62 47 
225 676 325 119 119 131 
243 535 306 98 111 132 
291 312 306 106 120 136 
171 314 308 121 115 116 
127 487 301 75 96 120 
433 678 245 57 63 71 
304 524 230 170 172 181 
270 666 200 96 71 76 
227 253 294 66 91 113 
82 542 258 58 85 108 
173 878 329 135 102 75 
260 141 242 96 80 69 
278 192 311 89 33 39 
384 748 213 135 42 43 
261 897 316 106 81 57 
301 578 281 103 124 150 
222 694 139 68 103 178 
257 917 335 134 89 66 
115 508 302 81 108 138 
207 841 217 194 166 140 
136 468 221 84 109 146 
194 454 317 74 93 138 
131 427 222 50 88 125 
119 555 297 176 178 188 
188 63 273 107 90 71 
156 632 158 98 37 58 
298 389 213 109 126 147 
284 539 200 95 113 161 
215 853 297 103 79 52 
180 685 151 190 183 190 
276 370 324 156 125 88 
233 598 165 99 113 128 
260 574 192 101 105 110 
202 126 253 132 112 93 
199 727 338 73 58 136 
207 21 321 162 114 98 
213 465 297 72 86 115 
148 741 249 103 114 129 
98 608 187 108 120 135 
105 535 334 141 159 181 
203 126 255 133 113 91 
234 841 286 137 91 66 
187 420 214 89 106 123 
274 351 318 169 138 103 
146 436 222 65 94 128 
238 259 303 112 122 135 
239 79 196 107 86 62 
77 434 301 126 111 95 
299 748 303 174 133 133 
239 78 199 101 82 62 
359 632 232 53 86 115 
301 340 320 188 157 122 
160 922 340 104 85 68 
293 199 187 135 76 71 
165 25 317 150 137 128 
196 376 217 105 112 123 
308 180 200 106 101 112 
116 817 238 104 63 82 
197 304 309 144 141 144 
104 637 183 146 158 178 
157 577 312 126 67 91 
239 83 194 125 93 69 
261 916 329 146 108 87 
122 441 289 111 122 136 
107 791 226 134 154 179 
108 605 248 106 80 70 
85 460 291 96 118 145 
239 203 282 29 39 56 
120 793 247 119 137 154 
156 106 281 118 94 73 
368 701 217 35 66 138 
97 484 289 79 104 149 
250 184 260 85 43 54 
279 555 205 77 102 143 
124 583 246 15 35 80 
179 167 296 66 46 58 
99 570 248 49 64 79 
254 146 271 89 82 76 
125 587 182 128 129 134 
103 266 267 72 107 135 
257 620 159 108 124 142 
292 705 196 49 55 63 
340 752 194 76 74 84 
246 915 288 99 75 56 
281 621 310 159 113 101 
287 710 176 113 117 124 
268 391 180 82 120 152 
193 403 319 139 144 154 
216 929 376 152 112 87 
242 69 198 104 87 68 
342 792 273 139 128 119 
190 11 294 122 102 83 
51 534 297 145 146 154 
43 528 301 117 128 149 
145 415 303 62 83 119 
299 611 276 47 59 70 
243 70 196 111 90 65 
225 979 297 126 98 63 
67 299 257 72 74 83 
159 590 168 90 103 120 
185 521 185 99 106 117 
144 263 234 109 48 27 
282 775 301 195 142 112 
119 562 284 90 114 165 
128 391 223 146 143 145 
247 67 194 126 97 64 
218 336 218 118 116 117 
90 406 246 89 95 106 
123 662 169 89 140 180 
245 64 199 119 97 72 
266 494 334 93 120 172 
245 65 199 117 95 70 
131 736 186 54 89 180 
143 544 192 132 129 130 
298 676 199 106 118 135 
277 192 248 92 41 57 
215 698 343 106 80 83 
296 271 320 100 133 161 
197 452 205 103 113 126 
131 172 269 61 71 87 
305 428 275 53 93 135 
122 734 220 103 119 147 
160 697 161 141 79 93 
114 376 294 173 80 12 
135 459 306 97 114 136 
374 651 226 53 69 88 
247 64 197 125 98 64 
198 653 320 72 109 139 
202 875 358 157 121 99 
391 747 258 188 130 103 
304 449 222 114 132 155 
246 66 196 121 95 63 
266 369 307 65 62 63 
271 763 313 198 159 130 
77 261 268 82 112 137 
52 404 268 188 158 126 
224 851 324 137 108 76 
306 436 266 70 100 145 
386 659 236 73 75 80 
277 247 203 81 128 164 
239 371 181 129 139 161 
340 636 289 95 66 52 
159 481 212 94 106 119 
197 350 315 153 154 163 
232 519 297 85 88 95 
264 255 268 72 45 50 
278 456 332 112 130 165 
245 71 194 119 95 66 
161 733 320 131 157 181 
160 647 156 146 150 163 
254 419 185 77 108 145 
173 949 359 86 68 58 
284 141 223 128 116 106 
198 481 195 113 117 125 
187 787 303 130 112 96 
90 464 239 92 106 123 
345 635 223 28 67 107 
344 818 261 206 144 112 
245 642 315 126 88 77 
147 473 219 89 106 127 
185 451 210 113 117 125 
264 577 194 129 129 134 
164 541 324 114 125 140 
293 614 295 58 60 64 
88 588 231 149 152 167 
120 575 264 114 121 144 
290 720 324 192 173 160 
208 692 141 84 115 181 
238 909 353 139 108 84 
144 438 312 77 94 125 
369 638 228 77 104 131 
153 663 262 94 101 123 
321 830 232 211 153 118 
96 386 294 154 127 94 
262 32 221 111 91 70 
129 522 312 130 138 151 
214 951 272 110 81 55 
258 954 321 113 91 74 
182 977 329 61 41 25 
78 523 252 173 169 172 
420 714 258 125 142 203 
284 218 189 109 98 119 
263 20 205 173 160 152 
96 589 264 167 124 113 
259 396 330 101 113 144 
262 177 293 54 49 60 
200 529 323 108 131 159 
266 241 203 103 57 51 
222 379 272 49 58 69 
88 258 240 116 100 89 
293 515 203 196 190 194 
145 137 289 128 64 6 
230 487 294 69 80 99 
272 281 291 149 145 147 
216 721 149 204 194 205 
38 571 281 176 124 116 
153 425 223 67 93 122 
286 151 200 139 103 76 
206 857 345 95 67 46 
286 277 320 104 123 144 
270 245 201 110 61 80 
111 291 233 160 114 46 
207 800 194 82 89 122 
296 365 227 133 78 83 
215 935 375 128 95 72 
182 542 319 115 127 142 
301 381 322 193 156 114 
201 848 316 130 102 80 
286 581 300 117 142 173 
381 646 227 137 139 147 
164 102 290 119 98 76 
261 936 329 88 72 57 
241 71 201 101 85 69 
186 247 305 118 109 103 
99 301 241 108 126 147 
247 535 313 44 79 128 
231 996 305 167 132 92 
320 803 207 207 163 111 
201 142 273 83 49 61 
365 641 282 135 141 152 
282 145 229 134 97 49 
258 358 314 133 122 116 
298 494 295 121 128 160 
181 758 177 134 171 209 
154 275 296 83 111 138 
299 375 238 139 141 149 
212 312 296 74 73 75 
124 800 257 72 91 123 
197 534 322 135 153 176 
252 946 290 86 67 54 
140 527 318 119 127 141 
386 661 282 74 108 169 
406 665 272 106 130 162 
57 399 287 170 146 123 
241 71 205 100 83 66 
237 846 288 151 111 82 
253 507 182 120 127 140 
102 546 238 39 63 82 
190 33 309 116 82 62 
176 897 361 82 70 59 
278 737 153 182 194 215 
71 278 263 88 113 137 
134 482 309 95 111 131 
267 214 198 97 96 119 
286 203 237 76 56 90 
259 278 206 93 63 8 
177 854 235 186 173 167 
276 182 181 140 53 65 
146 719 171 173 169 183 
274 358 318 163 135 103 
216 305 292 58 73 88 
272 903 322 134 112 92 
214 895 369 126 104 82 
151 518 197 100 110 123 
215 881 249 215 145 99 
406 715 261 156 178 203 
246 456 188 140 145 158 
255 636 166 140 142 151 
67 313 272 155 157 165 
213 211 266 61 43 43 
242 75 195 110 87 62 
254 592 185 103 110 120 
285 487 187 105 120 148 
231 862 331 144 108 76 
156 318 299 130 129 134 
241 73 198 104 87 70 
199 840 280 179 128 107 
254 838 217 216 147 109 
169 387 316 85 108 132 
407 695 214 117 142 179 
181 440 213 121 127 139 
215 460 288 60 72 84 
261 189 278 86 40 26 
269 246 292 88 87 91 
171 204 302 81 90 110 
290 536 300 156 161 175 
236 232 301 87 36 38 
106 638 179 186 184 191 
241 75 198 103 85 66 
208 584 158 89 73 60 
242 72 197 107 88 66 
242 73 196 109 88 64 
290 422 304 68 78 91 
132 521 313 110 125 143 
102 689 193 100 123 155 
178 642 309 78 75 80 
107 551 232 77 93 107 
273 194 250 82 44 46 
271 663 224 87 88 92 
242 487 305 85 104 127 
196 1012 320 95 83 72 
299 424 310 135 121 112 
201 507 323 115 132 156 
270 603 195 92 99 109 
331 799 273 176 131 99 
287 324 299 84 112 135 
241 79 192 123 96 62 
170 652 152 135 144 162 
403 664 226 60 81 105 
175 628 316 148 167 190 
295 534 295 116 123 148 
306 483 242 163 160 164 
241 78 194 111 87 56 
291 608 226 103 110 121 
282 791 189 225 209 195 
177 814 287 179 158 141 
110 348 279 97 111 128 
279 309 225 126 116 109 
254 543 187 150 160 183 
233 588 171 131 128 128 
99 575 247 35 49 69 
288 551 315 60 82 136 
267 264 311 73 116 150 
290 362 256 96 116 137 
129 197 276 117 84 84 
304 458 251 114 132 153 
347 807 266 194 141 111 
76 549 317 80 120 153 
183 440 325 115 125 149 
240 77 199 102 84 65 
275 377 318 131 59 33 
195 524 182 85 96 109 
240 79 196 106 85 62 
70 560 296 92 107 131 
332 709 277 157 98 106 
243 881 317 159 118 89 
306 552 237 102 116 134 
135 612 225 78 92 107 
187 872 346 131 98 77 
139 224 283 121 53 72 
171 20 282 106 90 73 
300 414 315 177 88 10 
163 502 200 131 129 131 
176 699 314 114 129 147 
244 75 192 123 94 55 
104 364 284 150 129 107 
240 73 200 99 83 66 
303 405 260 67 105 137 
91 490 234 143 152 171 
43 506 297 135 153 181 
241 73 200 100 83 66 
241 73 201 100 83 65 
365 713 258 63 68 113 
196 922 380 182 141 120 
103 752 207 142 152 170 
385 648 265 105 89 72 
140 296 280 114 126 143 
223 648 139 94 115 138 
282 541 201 194 192 198 
269 411 318 46 61 78 
256 415 316 59 82 125 
277 734 325 143 111 76 
255 648 170 71 113 146 
272 555 328 83 115 169 
149 185 287 95 79 87 
136 642 222 87 70 66 
142 565 312 48 59 69 
124 602 278 152 153 173 
406 700 215 120 130 176 
152 333 304 127 140 157 
177 792 193 184 42 61 
263 176 247 111 33 17 
224 277 285 107 110 117 
98 589 263 156 116 107 
88 559 271 48 72 98 
155 269 297 143 135 133 
189 78 295 124 97 74 
168 12 295 105 92 80 
262 162 297 57 62 82 
132 611 262 138 129 166 
293 623 305 155 107 97 
93 463 232 150 147 149 
244 979 332 156 127 99 
244 483 302 77 94 113 
263 296 196 79 102 124 
223 768 314 190 174 164 
311 743 178 114 116 122 
158 662 250 61 40 94 
235 429 190 72 102 139 
184 196 298 87 75 85 
147 412 306 69 90 123 
264 227 202 133 97 103 
124 311 275 136 131 131 
336 657 291 146 163 194 
93 447 289 102 122 149 
41 482 297 98 127 163 
304 505 288 72 90 146 
182 117 258 93 76 57 
250 302 178 110 110 124 
125 208 274 100 86 106 
282 912 323 144 114 87 
206 520 323 119 133 154 
382 675 207 97 124 159 
198 964 287 134 100 72 
266 832 281 178 126 102 
245 346 323 144 143 149 
189 808 201 100 127 151 
256 737 323 185 150 110 
348 673 267 108 140 171 
162 19 314 125 117 113 
220 1001 301 191 145 104 
144 639 293 139 153 188 
128 478 221 94 119 146 
191 751 327 175 165 171 
241 960 287 129 101 74 
171 698 302 116 129 147 
173 393 319 61 91 132 
288 553 211 130 148 175 
296 392 279 82 98 129 
182 995 335 147 114 85 
129 559 310 47 69 146 
119 717 210 109 116 140 
249 66 194 129 98 58 
103 586 247 66 57 65 
215 753 166 171 193 219 
168 286 306 75 99 122 
336 639 297 64 74 98 
142 239 286 92 81 95 
303 401 257 61 108 143 
191 675 321 92 92 96 
221 184 275 87 35 50 
224 274 285 111 112 117 
237 778 177 211 138 110 
246 534 313 52 84 134 
251 67 193 129 98 59 
250 66 194 129 98 56 
263 310 299 58 88 112 
133 632 224 83 68 64 
75 580 227 166 166 173 
152 323 301 109 119 134 
126 560 196 63 89 112 
177 872 329 136 102 75 
305 470 241 117 130 147 
