ply
format ascii 1.0
comment Created by CloudCompare v2.11.1 (Anoia)
comment Created 2/28/22 9:43 PM
obj_info Generated by CloudCompare!
element vertex 2022
property float x
property float y
property float z
property uchar red
property uchar green
property uchar blue
end_header
311 717 303 145 112 89 
271 132 243 92 77 61 
337 731 202 103 105 111 
273 608 201 98 105 115 
292 275 319 79 118 148 
267 874 312 147 112 85 
229 797 306 196 143 123 
238 539 308 57 68 82 
189 875 289 151 112 86 
156 30 302 117 95 77 
202 329 298 141 105 54 
234 911 274 94 68 56 
183 859 253 213 157 128 
258 636 312 82 69 83 
276 453 343 96 119 174 
112 410 232 71 93 115 
295 541 288 106 128 166 
104 395 309 147 72 7 
275 306 299 54 72 88 
124 704 174 166 168 178 
147 765 288 96 113 139 
102 780 224 128 134 172 
270 274 220 111 39 56 
269 784 303 198 144 114 
301 725 174 118 117 121 
232 441 299 81 108 140 
297 495 297 106 115 157 
319 831 266 213 149 121 
227 162 263 33 48 77 
46 581 314 91 77 64 
270 228 275 94 52 46 
417 676 232 67 76 86 
251 645 154 130 131 138 
290 367 295 85 90 99 
179 846 227 161 121 87 
230 184 205 136 107 78 
143 643 265 71 84 130 
155 381 309 67 91 117 
107 802 235 163 174 193 
378 746 205 165 108 115 
70 251 247 100 55 62 
169 345 230 205 169 128 
167 278 232 111 114 121 
287 144 233 126 88 41 
232 570 181 121 123 129 
74 542 298 58 80 132 
70 252 242 86 82 82 
285 282 315 101 109 119 
70 253 242 80 75 74 
178 233 298 116 88 92 
197 219 218 105 41 17 
294 675 325 160 135 110 
379 645 274 85 92 102 
142 642 294 128 139 178 
288 798 286 199 145 115 
120 604 282 119 124 159 
304 393 251 60 99 136 
370 672 218 88 116 156 
179 415 222 57 89 120 
262 341 313 103 85 116 
280 684 190 109 108 111 
69 253 245 96 64 63 
212 380 264 32 53 70 
298 455 295 136 143 161 
66 278 284 109 86 119 
304 383 253 143 147 158 
49 470 315 132 94 62 
115 543 315 144 153 169 
169 686 160 182 169 172 
209 199 220 62 71 87 
159 394 316 59 88 122 
153 127 259 92 77 61 
108 805 238 171 181 194 
291 329 327 112 107 108 
248 272 322 81 107 132 
104 725 205 130 139 156 
201 873 361 156 120 98 
250 870 270 198 153 123 
52 532 330 131 150 172 
205 635 147 72 104 133 
113 769 201 167 176 210 
245 176 276 108 21 23 
245 969 324 156 125 95 
92 402 257 147 141 143 
96 413 313 141 67 14 
323 778 186 90 67 106 
139 843 262 201 189 182 
326 813 226 197 184 177 
239 471 198 129 127 129 
132 735 185 120 132 186 
199 271 285 90 89 96 
138 832 272 162 141 130 
140 320 229 115 113 114 
128 158 272 144 83 61 
89 204 263 92 89 96 
275 209 285 63 35 65 
144 742 179 183 186 207 
192 855 309 118 93 67 
309 261 301 117 47 70 
317 674 304 96 131 160 
233 611 323 118 131 149 
260 91 244 112 93 73 
246 798 304 194 140 114 
230 288 227 107 110 115 
281 621 309 173 119 109 
205 729 340 165 55 70 
103 256 233 106 23 15 
180 991 311 150 115 79 
197 884 271 182 136 106 
86 392 271 115 122 152 
347 783 201 146 141 141 
336 780 192 84 80 117 
159 680 231 117 122 145 
55 540 333 166 175 191 
255 653 327 177 133 84 
172 933 371 124 95 81 
308 821 273 196 142 110 
113 517 224 70 96 122 
128 804 274 130 75 77 
192 12 322 124 104 91 
70 499 300 75 94 127 
100 575 267 77 91 110 
283 692 182 113 113 116 
101 422 311 137 117 108 
228 384 203 82 114 144 
70 610 315 174 116 104 
87 649 194 69 93 133 
293 316 293 77 103 128 
229 376 295 70 87 124 
206 633 147 119 132 149 
231 929 368 107 81 67 
198 707 331 79 105 130 
142 655 166 153 149 150 
132 584 181 95 102 112 
211 513 192 115 120 129 
194 181 257 58 33 43 
209 661 331 75 107 135 
300 305 319 91 110 129 
227 956 280 116 89 62 
235 893 352 159 118 88 
77 526 286 89 114 145 
263 703 323 88 79 79 
247 170 295 91 43 44 
77 598 276 170 116 91 
168 17 287 98 86 73 
105 640 244 165 116 98 
180 322 308 134 142 157 
232 848 229 228 167 130 
68 255 254 126 64 66 
224 203 267 85 42 52 
231 142 260 117 51 8 
249 169 295 87 44 50 
69 255 255 125 61 67 
270 330 317 74 99 121 
261 286 312 121 105 92 
299 317 321 134 50 58 
277 596 309 120 143 181 
119 812 226 181 35 52 
86 355 247 127 151 186 
367 710 217 64 76 105 
304 664 318 104 102 110 
258 937 336 87 72 62 
88 394 263 152 154 166 
273 386 318 47 63 90 
234 768 176 168 47 82 
95 435 320 134 63 75 
58 450 285 177 145 119 
138 767 271 106 128 151 
102 762 216 71 100 153 
377 732 208 84 94 108 
170 878 328 132 98 75 
219 424 281 48 62 74 
114 552 239 101 100 103 
99 565 246 77 98 117 
310 688 210 113 115 121 
260 725 326 131 111 95 
148 316 225 115 118 125 
237 171 269 43 32 46 
187 101 277 96 76 54 
422 712 230 81 104 179 
167 812 290 196 163 136 
208 583 332 162 175 201 
87 611 272 182 120 104 
102 188 282 135 113 110 
241 877 300 159 117 88 
156 705 168 194 186 191 
287 361 319 123 101 77 
315 318 309 84 103 122 
72 242 244 90 85 85 
141 163 270 85 101 119 
185 683 327 71 82 100 
242 424 203 157 156 164 
263 453 313 62 89 131 
278 681 193 108 107 110 
278 243 289 107 86 74 
248 892 314 152 116 88 
219 853 302 101 78 48 
303 186 308 73 54 60 
172 333 229 181 179 186 
133 148 280 124 89 64 
290 828 268 196 143 111 
271 117 231 108 90 71 
82 594 258 95 72 83 
147 318 293 80 89 104 
312 730 299 136 128 124 
133 622 288 131 143 170 
113 283 224 113 57 29 
72 241 250 97 60 74 
296 357 228 159 124 86 
220 914 375 156 122 94 
301 651 237 77 99 124 
57 312 282 79 114 144 
127 566 197 65 83 101 
84 368 262 95 118 146 
304 511 247 168 166 172 
113 262 224 110 44 75 
368 643 284 65 99 137 
159 828 279 136 114 97 
287 751 310 165 153 150 
232 196 202 90 113 135 
302 798 278 192 141 107 
104 590 261 55 69 89 
73 240 252 97 53 63 
108 249 272 141 64 82 
72 240 254 101 48 61 
247 225 288 65 29 46 
135 816 220 181 29 39 
158 548 325 197 190 189 
77 335 249 103 106 113 
227 447 204 86 110 136 
79 549 324 52 83 108 
149 697 281 41 74 119 
73 242 252 99 48 64 
139 180 264 72 104 131 
287 325 309 72 88 103 
88 562 274 64 82 100 
231 396 293 72 88 126 
124 754 249 102 120 142 
250 299 316 87 107 127 
256 260 296 112 81 73 
256 13 207 113 99 85 
187 864 300 111 79 54 
78 493 287 104 132 164 
369 783 253 172 152 136 
189 176 268 52 45 63 
47 588 291 134 89 78 
253 503 193 90 112 138 
191 265 293 83 107 129 
141 695 224 113 116 128 
242 166 270 59 28 20 
144 836 270 152 132 118 
133 541 326 126 148 173 
83 226 238 85 71 64 
75 368 254 82 124 157 
131 486 213 138 135 138 
216 637 144 67 100 130 
96 643 224 153 106 82 
204 413 298 53 74 119 
411 669 229 75 91 109 
239 680 335 147 121 101 
167 418 325 130 136 149 
276 415 345 105 131 167 
303 514 222 120 134 152 
301 685 209 114 116 122 
195 775 186 196 19 32 
252 814 295 193 130 107 
207 434 295 52 73 114 
275 418 334 77 96 137 
272 492 201 183 179 182 
72 423 275 133 123 132 
226 989 308 133 103 68 
252 142 277 106 69 33 
148 746 289 119 125 140 
289 224 237 147 39 25 
256 248 299 92 39 52 
280 612 211 107 112 120 
282 590 218 130 133 144 
237 781 183 81 37 105 
227 880 249 241 183 149 
294 383 292 106 94 84 
82 230 238 103 79 75 
141 540 199 102 116 135 
99 424 315 133 115 100 
243 415 203 120 135 153 
274 680 189 119 119 122 
211 17 330 124 87 66 
79 451 280 71 90 133 
362 766 201 180 38 50 
186 238 281 125 119 118 
298 539 276 86 101 147 
226 912 265 111 77 54 
153 299 296 98 99 112 
134 173 280 117 94 83 
198 1010 311 122 94 67 
249 564 315 76 97 133 
165 374 231 137 137 145 
348 695 218 94 109 136 
85 227 237 81 63 55 
263 105 243 108 89 68 
144 258 292 112 113 124 
199 379 217 114 117 126 
438 684 244 198 204 217 
182 749 334 173 87 84 
263 675 179 67 83 102 
271 409 319 48 67 112 
128 601 260 54 64 94 
160 521 196 99 106 115 
86 226 236 79 66 57 
143 741 178 136 154 187 
103 431 308 106 119 136 
47 450 298 190 83 9 
79 298 279 129 112 106 
264 536 312 85 101 125 
280 254 302 76 78 89 
84 230 235 82 74 67 
115 821 261 136 40 66 
183 136 263 124 65 7 
170 430 328 101 123 151 
84 367 265 114 118 131 
47 449 305 173 72 8 
203 927 269 84 63 49 
262 675 182 72 93 113 
207 16 293 126 112 102 
86 228 235 77 69 67 
264 451 314 60 86 131 
208 1004 308 116 87 67 
242 138 264 104 72 36 
283 700 327 136 56 40 
57 319 248 120 40 78 
98 662 196 91 105 149 
325 783 191 141 136 147 
220 252 220 149 132 116 
255 657 174 87 70 82 
86 230 234 84 68 59 
258 924 345 117 97 80 
216 487 309 80 99 133 
170 518 328 121 131 152 
378 640 225 138 147 161 
242 895 279 125 92 70 
370 733 206 98 103 110 
183 876 299 143 108 80 
269 233 289 95 70 56 
376 756 259 90 93 102 
250 630 155 150 151 158 
285 247 235 78 113 140 
194 440 212 81 99 121 
206 573 169 124 120 119 
214 604 155 83 109 132 
121 546 345 166 187 214 
311 203 298 145 126 117 
273 902 332 131 115 102 
132 367 300 143 97 68 
165 170 295 44 44 62 
210 575 168 128 124 123 
280 642 306 60 70 82 
52 595 287 197 132 128 
292 218 309 97 84 86 
116 556 307 116 125 138 
242 546 315 106 124 155 
86 234 231 91 68 42 
86 235 230 84 63 36 
235 946 363 98 78 68 
87 234 230 86 64 34 
113 321 253 85 109 130 
303 299 304 133 137 146 
194 879 274 176 131 102 
297 175 234 117 37 33 
230 459 203 91 108 127 
255 496 303 43 61 91 
256 942 329 102 84 67 
277 563 326 100 119 154 
272 424 318 55 72 106 
285 436 204 69 98 131 
271 774 178 176 157 143 
274 399 331 63 104 143 
179 82 298 140 107 84 
275 449 321 76 91 116 
275 496 311 75 92 124 
300 679 319 144 65 63 
146 632 252 55 104 137 
175 421 222 85 104 125 
285 239 257 100 43 57 
288 206 245 73 42 50 
209 863 352 135 106 83 
337 733 274 107 77 69 
214 858 235 230 166 129 
120 675 222 79 109 151 
281 282 297 102 104 109 
221 996 354 133 100 75 
298 380 281 132 121 116 
292 543 293 102 126 162 
84 239 228 86 74 63 
255 636 181 72 106 136 
126 526 211 103 115 132 
173 580 170 123 121 123 
349 774 269 168 130 86 
226 273 277 106 109 117 
246 965 320 160 127 99 
142 495 207 55 87 113 
271 379 324 134 137 146 
86 613 204 152 152 157 
277 574 323 59 123 171 
125 485 216 97 111 129 
87 397 264 143 141 161 
139 414 226 73 95 116 
95 442 315 83 84 125 
174 58 305 122 93 69 
196 229 265 52 60 69 
169 330 226 181 177 184 
142 442 319 79 96 121 
123 624 236 68 61 62 
294 354 282 135 133 138 
65 287 237 89 94 102 
200 549 327 123 137 155 
216 300 230 108 126 146 
147 728 258 94 108 137 
62 356 296 143 17 68 
259 195 208 159 55 78 
300 839 261 217 157 126 
206 264 219 103 92 82 
372 645 284 50 91 135 
80 233 236 89 78 69 
202 547 323 129 136 149 
204 604 156 89 105 122 
260 395 204 70 102 141 
175 252 300 103 109 120 
270 802 196 186 158 130 
113 343 241 130 107 82 
294 359 283 147 146 151 
233 256 219 137 64 0 
82 232 236 105 83 69 
296 716 314 108 102 102 
270 404 342 35 76 130 
57 321 249 84 94 105 
80 236 235 102 79 55 
98 331 260 71 125 163 
206 721 157 172 67 84 
147 330 308 153 152 158 
93 633 191 102 130 158 
310 781 277 168 119 89 
283 796 194 174 154 138 
217 301 266 66 73 82 
68 312 286 153 152 159 
173 267 232 130 98 99 
265 675 151 93 88 94 
360 787 221 192 153 104 
63 280 281 94 77 90 
181 589 166 135 131 131 
210 396 269 34 53 68 
183 436 326 155 155 162 
281 220 256 91 35 35 
61 461 317 138 118 98 
108 579 205 73 89 105 
305 702 204 68 86 107 
184 102 268 111 84 54 
186 437 216 113 121 132 
271 114 226 105 88 71 
306 490 242 166 162 165 
96 566 249 75 96 116 
265 14 236 131 119 113 
84 232 234 102 78 62 
304 639 243 71 90 109 
227 383 203 73 106 137 
144 400 228 95 121 149 
122 449 304 109 123 139 
85 234 232 96 77 55 
230 462 298 89 98 113 
207 735 163 76 145 201 
65 473 319 118 109 104 
86 233 232 94 71 62 
82 353 288 149 114 91 
166 630 320 68 82 123 
150 501 203 132 132 135 
155 830 277 159 134 107 
268 651 321 95 73 49 
231 817 205 217 187 152 
199 632 149 93 118 143 
385 659 279 94 123 162 
173 31 278 125 115 107 
233 493 299 90 98 109 
103 428 245 67 86 104 
271 704 147 96 145 187 
200 714 343 121 67 79 
231 742 162 168 191 219 
89 230 231 86 75 65 
309 538 242 127 149 174 
89 231 231 86 74 64 
285 265 260 155 149 150 
263 303 315 91 115 140 
223 479 290 74 81 90 
287 232 207 129 36 70 
276 555 207 101 118 138 
208 433 209 69 100 129 
258 12 231 125 112 105 
186 1000 309 164 132 99 
132 550 320 65 65 73 
152 252 299 151 71 8 
176 54 264 120 101 80 
304 476 258 167 167 173 
225 174 250 65 56 65 
131 538 336 66 98 124 
237 631 147 125 126 131 
257 481 303 80 99 125 
93 227 227 89 81 77 
140 824 223 169 123 64 
154 121 280 106 88 68 
236 519 190 103 117 135 
278 759 309 210 163 134 
211 565 325 128 133 145 
88 630 202 41 66 102 
258 666 163 70 101 126 
275 436 333 95 117 145 
206 262 220 108 109 117 
262 330 198 139 71 91 
178 863 332 137 107 79 
291 216 229 132 39 42 
270 517 313 76 88 117 
94 227 227 87 77 72 
159 694 301 127 126 136 
161 60 295 112 95 78 
95 348 266 99 118 142 
93 224 229 113 80 60 
210 457 205 75 99 125 
67 283 239 68 96 118 
105 677 181 61 74 90 
217 935 264 91 69 53 
267 814 203 206 189 179 
93 224 231 110 81 65 
263 574 327 118 151 193 
266 90 210 104 88 72 
122 351 301 152 132 112 
85 643 197 90 107 143 
51 605 299 162 103 96 
158 20 294 131 119 111 
111 291 232 161 40 85 
272 848 262 210 153 124 
154 47 289 101 83 66 
285 410 333 73 60 47 
305 427 240 146 151 162 
348 740 269 86 67 72 
221 224 212 156 128 128 
270 22 224 169 154 145 
192 826 290 177 129 107 
285 387 321 80 67 52 
306 195 314 142 83 65 
93 229 225 83 68 48 
180 978 315 76 50 39 
146 531 329 78 96 121 
179 447 328 116 133 156 
327 778 187 106 132 156 
228 843 222 209 154 113 
180 256 297 89 102 118 
239 548 314 59 76 110 
270 573 204 143 153 168 
231 385 202 85 120 151 
217 297 277 57 71 85 
288 565 295 112 131 164 
92 230 227 86 70 52 
297 426 297 72 91 114 
245 743 162 170 194 221 
259 938 349 99 82 68 
299 586 230 162 159 164 
167 907 364 157 120 95 
289 148 212 135 68 15 
325 652 296 100 130 162 
121 334 239 133 103 53 
244 150 268 113 49 14 
263 810 201 106 128 146 
120 305 276 95 111 128 
271 147 202 168 80 39 
299 725 170 121 122 128 
308 215 316 127 53 77 
220 783 185 185 149 117 
308 744 299 94 103 123 
194 321 307 159 128 93 
173 684 159 192 185 191 
263 178 267 87 86 86 
371 743 202 131 134 142 
301 299 318 114 127 144 
257 633 190 62 87 108 
205 401 293 51 72 105 
132 470 219 97 112 128 
109 565 276 83 100 120 
284 302 249 103 77 77 
95 564 264 45 86 119 
277 601 298 135 143 158 
72 594 332 119 96 90 
286 277 257 114 126 142 
226 890 258 239 170 129 
414 672 219 95 122 168 
324 612 278 100 91 84 
154 523 196 87 102 118 
157 345 226 214 151 86 
177 444 328 147 153 166 
97 471 241 118 129 144 
148 134 281 99 89 80 
301 392 218 102 123 146 
277 154 206 144 93 47 
199 304 294 84 97 115 
171 593 166 129 126 127 
88 229 233 87 78 77 
232 880 252 228 177 144 
282 297 300 76 91 107 
126 586 185 99 109 121 
79 433 277 75 101 135 
124 531 324 125 133 146 
293 521 310 98 116 154 
294 561 219 141 139 144 
204 947 270 84 67 50 
89 234 227 92 64 16 
212 465 296 65 82 109 
234 659 140 147 149 158 
242 202 294 55 34 54 
70 583 277 115 86 80 
163 249 302 145 68 16 
229 858 235 230 168 132 
272 188 280 96 66 55 
346 633 284 90 71 48 
274 319 215 91 31 38 
264 302 211 90 72 72 
332 791 274 165 125 97 
284 836 222 213 152 118 
106 554 251 74 81 90 
120 618 178 130 131 136 
90 234 225 95 61 6 
199 246 275 74 75 79 
305 189 312 119 75 73 
263 15 209 119 104 91 
244 238 312 113 30 49 
98 624 257 172 122 103 
140 771 278 59 60 93 
368 777 221 73 79 115 
275 397 329 50 84 131 
164 904 320 109 78 59 
88 233 230 90 60 56 
231 511 191 120 126 136 
241 333 198 175 127 67 
195 394 312 89 104 134 
154 838 228 203 156 107 
196 452 209 92 106 122 
252 929 308 77 60 52 
247 293 323 88 118 145 
187 93 280 96 76 53 
214 1011 321 158 128 98 
299 400 327 161 64 8 
238 270 221 99 97 97 
89 236 225 94 66 7 
88 236 226 94 69 31 
332 728 282 140 125 118 
276 174 247 125 29 13 
80 513 289 101 112 131 
154 541 339 203 210 228 
155 314 223 110 118 129 
250 304 326 79 120 153 
113 363 293 140 117 88 
271 264 214 80 139 181 
166 802 202 224 187 112 
148 749 283 114 133 153 
276 541 205 72 102 159 
125 496 315 132 135 143 
192 509 319 94 112 144 
343 656 288 85 122 189 
295 596 265 136 132 133 
239 407 203 112 130 162 
74 561 288 115 122 134 
206 441 307 77 96 131 
117 599 240 43 66 87 
272 292 228 103 110 120 
201 917 274 79 59 43 
82 225 241 84 71 57 
133 362 225 147 70 92 
245 307 307 104 65 78 
216 756 321 157 120 107 
154 586 320 82 80 85 
272 801 293 196 140 113 
80 224 244 86 76 68 
86 486 277 96 107 123 
145 786 289 125 100 115 
80 229 240 97 79 68 
138 437 221 82 97 114 
172 674 310 144 148 158 
198 313 300 123 95 67 
123 610 179 65 95 121 
82 242 227 85 66 54 
265 312 205 88 65 58 
146 704 231 108 117 134 
297 380 283 132 120 113 
253 956 335 146 117 86 
287 614 224 102 111 122 
103 523 237 146 146 154 
63 511 309 112 130 189 
304 481 274 99 116 151 
164 448 329 99 119 147 
140 377 227 161 97 115 
287 315 312 74 89 108 
295 395 300 102 89 80 
98 485 307 72 93 131 
48 421 286 191 161 131 
267 151 284 95 69 49 
186 857 238 188 165 145 
101 406 313 147 75 17 
227 871 347 144 108 75 
277 278 228 184 176 177 
81 242 230 115 84 65 
286 779 181 136 102 69 
224 450 204 90 112 137 
171 726 169 156 171 198 
288 424 339 108 110 146 
259 714 326 145 115 80 
54 581 334 74 84 97 
110 249 272 142 59 86 
385 737 259 176 99 112 
82 242 228 88 68 55 
84 609 256 157 106 85 
225 370 290 79 90 114 
81 245 226 91 57 50 
306 732 170 124 120 121 
271 357 310 121 59 84 
80 494 326 63 95 143 
267 307 211 118 57 53 
148 685 280 59 80 144 
248 962 317 90 68 57 
80 247 227 96 63 46 
81 246 226 92 52 47 
300 383 227 81 107 132 
157 518 331 100 111 134 
196 699 327 101 118 135 
343 623 240 51 71 88 
47 580 304 127 98 88 
258 486 305 126 134 146 
366 778 219 150 173 197 
290 454 205 62 96 135 
220 997 354 138 101 76 
275 601 211 74 90 105 
225 954 278 134 103 73 
82 246 225 94 51 54 
220 691 347 93 119 144 
335 623 244 98 97 101 
275 152 205 170 76 6 
81 244 228 90 68 50 
308 663 307 80 126 161 
365 757 198 161 38 41 
131 706 229 106 110 124 
260 588 203 128 123 122 
230 197 202 83 112 138 
179 689 315 141 150 162 
222 514 311 126 129 138 
314 271 310 95 131 159 
298 701 312 64 62 94 
260 257 295 55 24 36 
286 577 295 119 138 168 
191 956 289 105 77 55 
399 705 216 117 125 137 
86 598 313 166 117 110 
208 948 379 78 61 51 
151 695 265 79 86 119 
116 447 303 77 103 137 
149 508 331 134 137 147 
276 749 318 141 126 115 
81 386 274 153 135 134 
86 240 225 98 79 64 
229 461 202 91 108 131 
80 240 232 100 81 60 
225 655 336 77 78 83 
179 131 288 132 68 15 
205 435 302 68 86 125 
108 497 229 154 156 168 
147 735 275 135 143 157 
106 796 240 138 151 169 
205 754 326 153 134 119 
252 311 331 75 119 154 
82 386 275 168 155 150 
152 698 291 77 107 142 
75 582 336 66 110 144 
277 600 299 83 103 135 
109 419 232 69 95 124 
95 247 226 114 75 103 
314 187 315 64 113 147 
97 553 317 145 153 176 
114 496 313 106 117 143 
91 557 267 78 91 108 
61 583 283 109 93 78 
283 273 268 87 109 132 
208 638 325 193 186 190 
273 400 347 69 101 149 
163 950 318 142 121 103 
241 620 317 143 106 99 
307 553 255 96 118 150 
285 818 276 205 149 117 
101 398 247 134 132 136 
99 727 194 42 72 139 
233 861 299 157 120 89 
298 174 223 98 39 45 
213 713 345 152 60 67 
179 863 319 136 104 77 
112 363 237 121 65 73 
163 466 332 147 151 165 
181 324 309 108 126 146 
239 959 292 139 104 73 
187 167 268 90 40 51 
168 849 259 172 162 160 
72 269 232 76 93 112 
160 702 305 114 123 135 
297 589 269 126 123 126 
362 782 219 164 143 125 
124 495 314 110 119 137 
308 753 296 166 153 145 
124 736 187 64 97 193 
198 718 158 126 119 155 
307 418 308 126 112 98 
134 685 223 86 101 128 
196 579 326 96 104 136 
125 583 187 95 106 120 
196 472 324 88 104 144 
248 158 286 93 61 59 
258 772 177 168 33 52 
328 805 216 218 195 177 
134 633 169 141 143 152 
94 250 229 121 64 96 
230 363 203 99 118 144 
266 373 336 134 140 154 
273 853 238 243 179 146 
269 384 335 83 96 127 
289 341 222 127 81 89 
206 800 197 214 179 140 
398 683 270 118 139 182 
218 193 213 94 83 96 
236 662 140 173 170 175 
274 263 220 70 121 159 
190 827 289 178 129 108 
284 283 266 144 140 141 
271 520 334 103 130 169 
239 285 212 76 91 105 
92 397 296 149 124 100 
199 32 292 128 108 87 
312 317 307 86 104 123 
200 198 247 59 37 41 
284 310 245 114 129 147 
288 337 238 149 110 67 
355 630 242 97 114 133 
269 241 268 55 36 41 
202 1002 345 99 69 50 
283 267 267 124 128 139 
334 694 279 141 58 60 
304 726 182 103 102 105 
58 495 303 123 142 181 
76 281 231 105 48 79 
231 242 286 58 88 113 
156 165 290 33 73 105 
100 747 202 98 101 139 
165 715 169 191 186 198 
319 709 297 46 39 71 
184 423 323 118 127 144 
174 883 308 154 116 88 
200 246 272 48 48 57 
262 520 327 81 103 142 
246 293 293 92 93 100 
245 909 298 99 72 56 
270 31 217 123 100 78 
242 298 197 122 135 153 
321 758 174 140 35 40 
91 254 232 160 43 51 
240 556 190 116 125 141 
153 138 288 125 90 57 
240 330 199 162 111 38 
201 226 248 62 43 53 
139 518 328 75 96 129 
113 297 241 155 148 147 
123 834 247 147 123 109 
287 355 315 122 105 87 
296 825 219 187 137 114 
54 418 280 194 160 120 
269 273 219 113 22 61 
243 923 355 95 78 62 
95 197 260 66 85 103 
271 158 283 98 45 18 
182 561 327 92 153 198 
268 215 262 56 32 39 
122 475 313 52 75 116 
94 250 232 113 63 91 
316 633 290 35 49 63 
200 760 325 99 99 118 
331 737 194 113 113 117 
118 575 288 48 45 95 
266 641 228 54 55 58 
149 424 225 97 109 126 
191 861 244 215 160 131 
242 254 316 144 143 149 
173 217 299 123 34 42 
96 330 255 82 131 171 
239 752 167 151 127 146 
222 1002 306 169 128 86 
158 631 321 112 130 166 
92 261 238 123 19 39 
289 704 327 155 66 41 
287 153 285 125 84 61 
259 672 175 69 83 98 
111 509 315 131 143 160 
273 156 273 86 78 71 
251 378 306 51 85 120 
73 467 290 78 85 127 
198 793 308 91 94 104 
174 11 305 110 99 92 
62 591 343 65 91 156 
92 254 233 165 46 48 
211 375 286 53 59 69 
228 728 326 180 137 111 
389 698 270 146 172 200 
138 174 280 85 76 76 
93 253 236 159 60 44 
141 643 286 140 135 170 
331 662 286 114 145 175 
216 507 321 99 115 148 
138 475 215 70 92 112 
115 760 223 100 113 137 
153 123 265 91 77 62 
276 372 329 101 110 122 
372 666 275 78 114 178 
154 702 253 63 78 122 
73 231 258 49 47 66 
300 842 255 229 173 142 
274 398 329 58 93 136 
147 355 301 110 98 95 
371 728 261 136 88 75 
197 14 333 136 98 82 
108 804 246 97 83 91 
151 650 163 171 169 175 
228 278 282 106 102 109 
231 630 147 138 134 135 
214 859 236 230 166 125 
100 423 316 135 116 100 
204 497 320 152 158 175 
102 215 207 166 134 112 
179 242 297 120 119 123 
336 687 268 65 93 134 
290 344 258 122 131 145 
162 744 323 179 59 68 
201 756 175 171 188 211 
164 744 327 169 57 75 
68 439 279 180 152 127 
151 720 300 111 127 146 
94 274 274 130 113 111 
191 180 261 89 41 49 
275 558 327 87 115 177 
225 409 289 69 88 115 
227 755 319 156 132 109 
197 205 226 36 58 75 
88 332 237 159 132 107 
227 513 191 97 114 133 
251 462 198 99 113 130 
295 197 213 109 51 27 
149 347 224 213 155 81 
236 955 362 81 63 52 
87 590 301 138 103 99 
217 596 330 150 167 194 
358 637 280 94 99 107 
344 751 272 176 165 161 
155 149 290 110 90 83 
148 675 278 117 123 143 
153 391 230 83 103 131 
98 219 202 161 113 87 
263 137 248 92 80 70 
154 573 177 112 118 127 
428 695 249 75 111 184 
351 698 218 69 83 117 
280 590 217 102 115 132 
238 423 203 88 107 144 
96 243 277 113 91 102 
310 372 322 199 165 125 
205 215 215 109 50 21 
97 218 206 147 102 81 
97 219 206 130 101 85 
244 833 216 197 142 100 
220 523 322 118 128 150 
175 881 306 155 116 88 
283 136 227 103 95 88 
242 613 318 117 136 159 
146 158 266 95 85 73 
218 633 322 159 150 147 
164 815 209 109 136 162 
221 284 277 69 75 84 
201 511 192 94 109 125 
137 669 168 84 135 175 
245 213 278 55 25 33 
171 674 309 161 159 164 
50 457 296 162 132 104 
238 894 345 153 109 81 
274 845 264 208 147 121 
188 198 270 73 44 48 
131 582 183 123 123 126 
289 543 311 66 96 154 
166 412 226 91 107 125 
113 409 231 70 92 113 
90 409 302 155 132 110 
233 142 261 116 50 7 
254 617 166 99 110 123 
278 228 289 128 55 67 
262 557 199 142 144 153 
315 211 303 110 101 108 
110 646 178 141 141 146 
59 581 328 48 77 99 
170 364 231 105 111 121 
293 507 304 176 178 188 
231 564 322 99 125 151 
140 618 248 74 98 130 
286 300 256 81 120 152 
98 223 202 188 102 1 
55 602 334 161 121 126 
283 538 327 73 106 177 
256 289 326 144 145 152 
124 243 273 132 96 92 
244 263 319 76 107 135 
108 387 240 139 67 88 
264 646 226 70 69 73 
263 533 317 71 88 113 
264 142 289 91 83 79 
159 688 241 112 114 136 
193 31 282 101 87 74 
221 548 184 83 99 117 
119 700 178 116 119 136 
153 724 316 130 146 165 
218 231 215 180 127 121 
296 757 302 117 109 106 
318 679 211 162 157 160 
121 371 305 112 131 150 
239 965 347 89 74 61 
279 393 312 49 67 96 
96 561 264 48 73 92 
142 830 228 73 71 103 
208 334 288 80 77 83 
107 505 312 123 134 150 
155 335 305 155 155 163 
151 656 260 55 56 116 
362 666 274 152 178 206 
272 463 336 97 117 142 
314 323 308 93 110 130 
358 751 265 89 95 110 
54 345 290 150 150 158 
221 551 182 85 103 122 
264 366 336 105 118 147 
307 442 267 68 98 145 
187 865 347 161 119 103 
81 289 245 42 67 121 
102 219 207 185 107 0 
372 636 232 126 136 152 
260 250 293 49 35 41 
103 219 206 168 122 61 
315 156 312 145 77 5 
253 921 319 120 88 71 
282 589 297 81 109 157 
255 430 203 132 136 146 
201 413 306 85 94 130 
302 476 314 131 146 168 
101 220 205 173 115 34 
70 245 269 116 40 54 
180 810 205 94 81 73 
280 558 324 172 174 184 
207 499 195 54 83 108 
296 187 216 54 59 85 
211 612 152 87 99 114 
221 857 338 140 113 85 
99 390 299 146 129 113 
338 801 269 187 139 107 
202 824 294 182 132 113 
197 21 328 164 121 104 
115 788 212 182 201 223 
93 538 320 90 109 128 
178 36 280 79 67 54 
65 275 253 88 93 101 
153 421 225 81 100 120 
178 791 306 142 120 106 
208 22 315 136 108 90 
246 886 281 112 72 51 
151 52 276 92 65 46 
136 831 233 112 121 133 
74 581 248 88 94 102 
189 685 153 186 183 192 
289 151 235 143 70 4 
260 574 323 88 113 149 
126 676 171 184 179 183 
256 535 194 116 133 158 
104 217 206 175 129 104 
81 362 290 181 159 138 
248 460 199 78 99 126 
105 217 207 167 138 120 
190 403 318 119 124 142 
145 763 281 129 59 60 
343 792 208 123 115 117 
50 373 277 143 147 157 
102 214 209 165 135 115 
212 359 276 60 66 75 
102 215 209 156 120 102 
106 623 248 127 93 79 
103 214 209 167 138 118 
274 476 325 56 76 121 
267 347 339 162 162 169 
237 420 295 67 83 119 
178 270 305 134 132 133 
110 809 251 45 41 53 
285 203 300 115 34 62 
134 242 279 96 58 74 
173 484 331 135 140 156 
152 450 219 98 111 130 
109 615 186 105 115 127 
227 286 284 71 95 116 
77 428 307 142 117 87 
204 617 152 110 117 127 
309 275 301 74 106 134 
300 558 268 92 113 138 
302 375 257 145 146 154 
292 784 185 199 150 80 
150 834 225 149 144 147 
228 241 274 85 89 101 
174 929 375 169 131 112 
270 34 216 123 102 81 
223 398 204 100 123 148 
198 851 228 96 117 141 
198 557 339 133 151 172 
224 681 346 107 118 133 
99 275 228 55 46 86 
145 637 304 108 114 168 
153 122 269 91 77 63 
187 531 186 134 131 132 
279 304 235 127 134 145 
121 728 186 134 151 206 
120 283 273 142 140 145 
362 791 255 209 177 147 
234 474 198 123 125 132 
120 750 238 78 98 138 
192 579 167 112 105 102 
195 890 278 176 132 102 
264 675 164 70 94 118 
267 829 212 153 143 137 
184 956 371 110 90 71 
94 635 226 137 96 73 
217 893 371 127 105 82 
77 283 235 68 59 89 
186 604 160 95 111 128 
150 709 282 31 51 108 
155 73 283 123 99 80 
271 921 328 159 115 91 
89 499 253 90 106 148 
253 642 186 71 103 130 
273 462 312 23 52 111 
382 683 218 43 86 132 
96 573 228 98 113 128 
195 209 261 88 29 22 
110 546 348 97 122 147 
357 636 246 82 87 94 
83 633 205 73 92 111 
96 222 215 101 91 81 
125 582 187 97 107 120 
115 764 199 163 177 207 
180 906 377 151 120 96 
258 462 198 80 101 124 
302 502 219 157 158 168 
128 611 286 188 176 183 
315 285 313 82 122 156 
248 494 306 60 83 118 
189 877 290 150 111 84 
134 651 227 94 72 67 
254 744 324 198 176 160 
300 380 228 73 102 128 
101 216 210 151 111 92 
249 441 202 110 120 135 
297 285 303 130 130 135 
236 872 313 154 116 85 
101 670 183 86 102 122 
246 211 305 91 41 65 
105 489 232 99 120 153 
63 554 341 69 110 154 
259 544 325 86 107 148 
176 408 323 103 120 143 
100 217 212 112 102 93 
277 423 343 88 108 163 
269 470 338 83 106 138 
219 312 225 87 107 126 
100 218 212 110 100 91 
294 713 174 95 106 119 
187 55 304 123 92 66 
100 218 215 116 99 80 
156 700 302 99 111 128 
267 614 188 138 139 145 
213 691 147 46 88 166 
266 356 321 145 118 84 
152 56 278 116 92 72 
372 767 259 106 86 89 
117 282 233 141 55 82 
70 271 283 121 25 67 
139 628 299 151 155 177 
334 775 277 130 127 133 
71 254 283 42 69 104 
76 305 280 153 151 157 
278 663 205 98 100 105 
178 307 311 157 154 157 
69 554 312 137 138 145 
163 157 294 40 63 102 
173 900 368 150 118 95 
293 350 250 161 135 107 
164 903 349 156 120 93 
294 709 322 140 125 126 
268 470 309 77 96 129 
116 469 224 63 99 138 
73 421 275 123 124 140 
199 249 275 66 70 77 
275 408 328 94 116 142 
101 223 210 195 78 0 
380 668 218 45 88 129 
257 362 314 129 131 138 
151 552 186 86 100 115 
334 633 291 40 43 61 
132 404 226 89 122 178 
127 186 277 99 88 103 
127 653 171 71 105 138 
83 326 281 123 137 155 
309 537 248 116 129 154 
365 645 236 46 64 80 
150 624 320 90 115 166 
272 209 281 45 42 55 
109 373 297 149 129 109 
61 321 290 150 152 160 
102 223 211 194 80 0 
205 373 298 67 87 120 
258 258 204 135 122 122 
232 796 193 184 151 113 
205 850 294 135 99 76 
336 722 208 124 116 113 
148 810 210 193 30 31 
164 949 348 113 91 81 
98 204 281 111 102 117 
103 221 215 198 90 0 
159 656 218 112 125 145 
102 222 213 197 86 0 
287 183 286 99 92 91 
265 595 206 119 115 116 
219 433 205 112 125 143 
335 823 259 206 142 113 
228 895 361 148 116 85 
204 341 224 121 120 123 
54 536 331 162 171 187 
269 43 219 110 91 71 
252 918 318 122 86 69 
82 415 301 138 116 93 
181 779 315 53 47 56 
296 360 227 148 110 64 
307 487 240 154 156 165 
109 643 179 146 146 152 
143 823 222 158 53 61 
94 578 219 82 96 110 
96 221 216 99 88 79 
223 804 303 186 135 118 
171 435 220 103 112 125 
90 619 197 115 109 104 
158 320 221 151 149 154 
128 260 275 137 129 127 
72 278 218 148 78 84 
77 429 286 144 84 82 
207 285 277 57 65 76 
203 625 150 88 109 131 
185 993 308 154 123 93 
262 303 207 104 89 80 
169 273 303 119 124 136 
272 102 228 118 98 78 
238 285 292 50 76 98 
304 555 234 101 113 136 
290 569 288 114 137 168 
332 658 211 109 124 141 
133 446 309 93 110 128 
98 220 218 93 74 57 
267 59 209 126 104 82 
262 459 310 52 78 129 
169 279 230 113 116 123 
198 217 220 82 46 29 
242 957 293 136 101 79 
208 790 309 94 76 67 
277 662 205 114 114 118 
131 555 210 79 86 96 
232 373 300 83 99 129 
269 187 277 96 71 68 
304 511 248 127 138 157 
284 334 245 109 121 136 
168 272 303 116 121 133 
256 246 212 109 97 84 
98 221 220 113 80 58 
291 346 265 149 147 152 
259 531 308 74 85 117 
69 568 303 98 116 136 
227 968 292 123 90 65 
299 199 310 114 39 42 
85 626 219 117 121 150 
233 1001 323 172 138 103 
287 303 265 81 117 147 
415 675 259 130 152 179 
266 660 204 92 70 72 
130 609 176 133 132 135 
167 222 301 135 41 45 
252 314 197 144 115 83 
223 934 374 138 107 89 
180 635 155 171 164 165 
69 502 328 81 115 149 
248 293 318 74 100 123 
307 830 228 207 148 112 
213 609 153 82 100 119 
346 751 270 176 166 161 
312 234 316 69 98 123 
119 205 275 84 91 108 
134 527 205 123 124 130 
102 217 216 166 85 52 
313 213 315 155 59 83 
184 887 359 119 96 79 
162 617 321 66 68 119 
197 913 280 79 59 45 
277 347 311 84 81 83 
167 381 230 128 128 133 
224 736 325 99 93 94 
245 276 205 73 94 113 
75 479 289 84 102 143 
55 337 255 160 156 160 
299 376 299 96 96 100 
256 902 324 164 115 92 
306 250 317 84 63 84 
322 660 212 106 125 146 
94 386 291 117 17 56 
223 232 265 80 45 52 
238 935 360 123 106 91 
100 219 220 128 88 60 
299 688 207 84 99 117 
241 460 200 74 98 125 
247 827 211 173 179 192 
91 382 262 198 152 103 
116 189 259 142 83 54 
232 887 257 211 146 106 
151 824 218 83 56 107 
283 330 308 88 94 104 
97 558 337 86 153 201 
254 548 312 52 76 106 
138 296 282 75 106 132 
259 543 196 117 134 157 
392 652 267 62 63 66 
83 605 305 180 126 119 
59 307 246 115 66 68 
217 295 229 116 133 154 
171 829 215 108 79 74 
379 649 248 93 82 71 
305 729 176 118 115 115 
330 807 271 185 136 105 
296 397 292 128 88 91 
103 223 216 201 82 0 
241 896 337 154 112 83 
206 607 327 83 133 172 
178 975 325 77 47 37 
265 540 307 58 72 114 
255 953 320 99 79 65 
258 12 217 121 108 98 
331 716 210 119 113 111 
334 735 277 102 91 88 
217 809 201 211 195 176 
215 263 254 62 65 71 
143 767 280 140 69 63 
219 664 142 141 158 185 
100 465 307 92 113 134 
234 773 178 230 193 118 
190 1013 330 118 98 78 
422 712 246 122 143 212 
111 381 308 147 109 91 
256 775 178 191 91 87 
161 22 286 114 101 88 
272 452 336 66 93 136 
71 427 276 161 117 95 
247 532 313 49 81 125 
287 335 238 146 106 65 
387 754 219 191 15 57 
278 683 188 112 110 112 
305 434 252 66 96 146 
112 390 235 128 136 150 
224 516 307 115 119 133 
52 547 327 179 181 192 
190 851 330 130 106 81 
314 631 240 69 89 110 
71 244 264 121 47 63 
105 214 213 162 125 105 
196 252 281 108 109 114 
234 257 220 145 64 0 
56 316 260 80 116 145 
181 734 169 194 189 201 
162 291 303 100 117 135 
289 614 302 125 104 86 
124 618 236 49 60 71 
215 740 328 160 141 132 
56 410 304 138 84 68 
136 658 167 83 128 164 
160 395 230 62 95 128 
111 421 307 118 133 153 
329 800 208 209 186 164 
107 212 214 178 134 102 
313 815 219 213 202 198 
158 536 347 151 163 180 
162 913 350 148 115 88 
123 599 295 133 129 162 
180 640 319 166 161 165 
217 474 292 93 102 113 
92 678 188 99 121 170 
202 956 379 98 79 62 
57 582 291 111 103 97 
244 867 246 239 183 150 
209 608 327 88 136 173 
187 224 277 89 50 66 
94 558 299 124 143 172 
243 895 284 151 112 86 
175 923 281 168 129 87 
99 315 234 154 107 81 
171 952 359 101 81 64 
349 645 291 40 66 119 
306 562 243 97 121 146 
110 211 213 177 131 104 
130 628 230 55 58 65 
220 349 287 66 74 88 
303 405 222 98 124 149 
188 488 325 114 126 150 
112 735 212 115 123 136 
176 572 172 88 102 117 
283 268 231 164 157 155 
283 305 241 114 130 150 
188 670 151 180 175 182 
220 927 377 134 97 73 
103 588 256 61 78 102 
154 333 306 165 163 170 
148 778 292 154 106 75 
173 651 156 125 145 173 
239 630 149 102 102 107 
313 266 315 158 156 155 
326 767 283 153 137 132 
89 565 342 87 121 156 
157 480 333 116 131 155 
168 47 305 130 104 80 
287 400 331 85 70 53 
225 802 197 19 22 52 
237 955 287 99 75 54 
86 248 278 76 96 120 
153 695 231 51 58 106 
49 602 301 175 113 109 
90 568 249 71 97 120 
270 825 281 184 132 109 
139 422 308 33 65 101 
209 1011 312 128 104 79 
223 511 191 125 130 141 
90 561 331 131 152 181 
213 224 244 59 45 55 
84 371 266 130 139 154 
210 640 325 160 144 149 
393 700 268 160 178 201 
109 212 215 175 121 92 
109 215 213 192 87 0 
193 248 286 122 120 123 
95 463 246 122 128 140 
285 171 298 50 63 78 
172 496 201 118 119 124 
88 484 312 111 125 142 
212 459 298 43 64 107 
63 314 288 138 147 161 
106 506 313 121 133 150 
165 705 167 184 180 191 
153 644 221 87 102 122 
301 627 254 69 67 68 
260 103 207 134 105 76 
128 685 221 67 81 107 
53 349 272 146 148 156 
302 227 295 93 89 94 
174 193 296 55 50 67 
271 441 204 119 126 139 
111 214 215 187 102 27 
105 215 216 173 101 65 
253 908 333 114 80 57 
104 215 219 166 94 62 
53 346 262 140 140 145 
71 535 304 154 154 159 
234 931 271 107 83 60 
140 281 284 134 131 133 
57 579 312 82 71 60 
260 663 196 69 96 121 
105 508 234 112 129 152 
154 670 258 80 103 133 
136 410 304 68 90 118 
212 516 320 113 132 158 
277 384 332 121 107 90 
245 231 295 42 28 27 
292 884 320 123 112 106 
62 529 316 94 125 176 
143 139 285 104 93 83 
109 684 181 60 66 91 
388 667 279 109 132 174 
125 593 300 208 200 201 
121 704 177 128 128 146 
180 969 303 135 99 74 
416 722 240 167 156 202 
244 269 302 72 77 84 
108 809 243 165 30 79 
136 735 178 136 165 201 
202 572 169 129 124 122 
244 758 169 90 84 122 
105 214 222 164 90 52 
131 160 270 164 66 6 
265 611 313 98 85 104 
269 731 155 191 188 203 
253 642 184 73 104 130 
71 587 245 148 150 159 
53 341 278 153 152 158 
290 685 200 71 96 118 
291 698 190 44 51 61 
185 289 301 88 75 84 
255 617 167 114 123 135 
280 158 280 93 84 74 
268 233 273 87 42 44 
428 695 250 72 109 184 
212 313 263 70 72 76 
78 335 284 147 115 94 
133 688 170 118 62 88 
76 221 265 80 71 69 
185 692 332 149 170 194 
186 94 278 93 75 55 
232 245 218 151 4 55 
105 777 215 92 111 162 
278 626 219 63 87 107 
187 492 200 114 117 124 
349 672 270 137 169 201 
346 630 277 120 98 74 
381 754 212 94 82 94 
237 765 174 198 24 45 
277 548 207 88 111 150 
93 326 235 199 147 118 
285 599 223 83 99 116 
271 239 290 101 70 54 
283 485 206 96 129 167 
297 453 303 66 91 129 
190 734 166 192 166 163 
269 465 310 70 94 132 
89 257 277 109 77 79 
240 841 284 161 111 88 
255 141 288 99 91 86 
284 274 316 63 94 122 
247 238 291 73 43 54 
259 926 328 110 82 71 
174 241 301 123 127 135 
187 742 171 151 170 209 
288 795 193 198 169 144 
74 526 334 101 125 161 
295 359 224 132 82 76 
268 230 288 79 60 57 
269 479 197 90 115 149 
184 568 324 110 148 183 
282 586 297 113 144 177 
219 764 174 114 86 95 
113 733 211 120 127 141 
105 492 231 108 126 148 
82 447 275 99 125 152 
141 544 325 178 177 186 
206 337 290 64 63 63 
177 713 333 119 144 170 
207 841 221 194 168 145 
109 215 220 204 76 0 
110 212 220 173 105 74 
186 729 166 119 117 151 
184 729 340 135 43 51 
256 314 198 97 111 127 
105 601 252 64 56 61 
308 146 301 149 94 58 
123 272 235 162 36 22 
283 847 234 244 183 147 
110 215 221 203 81 0 
255 464 301 79 95 117 
318 611 280 103 93 86 
171 153 293 58 59 82 
80 548 324 55 85 110 
292 605 277 46 55 64 
280 353 204 75 100 132 
253 808 200 206 181 157 
269 591 210 105 110 120 
305 449 255 90 113 152 
111 215 223 203 81 0 
78 377 294 176 153 129 
162 505 333 105 122 147 
132 837 269 46 38 55 
70 577 270 123 129 140 
130 648 170 90 70 80 
155 715 314 102 122 144 
235 267 294 113 115 122 
95 621 192 78 105 129 
254 502 194 93 112 139 
215 219 247 69 55 58 
252 364 201 138 139 147 
230 437 296 120 134 152 
188 965 296 116 85 62 
183 29 318 181 153 156 
117 808 226 152 43 58 
122 366 306 166 78 16 
194 237 275 74 66 67 
254 642 192 71 98 121 
159 943 334 75 60 52 
225 590 328 98 117 143 
231 682 342 177 156 143 
383 769 239 158 132 147 
369 759 202 93 59 116 
108 680 180 85 89 98 
349 737 202 128 120 117 
64 574 296 73 79 86 
247 308 299 94 99 108 
309 788 191 188 156 120 
158 930 338 88 71 60 
157 268 303 114 100 88 
86 395 295 103 30 42 
117 793 215 175 197 222 
56 402 302 132 28 53 
90 439 265 115 133 160 
267 510 321 50 72 113 
209 774 317 116 91 84 
104 218 214 181 89 30 
302 781 283 180 125 94 
215 855 232 225 160 125 
255 499 304 41 63 96 
275 294 296 58 70 82 
287 189 287 65 57 79 
213 515 191 72 95 116 
247 268 311 116 110 110 
335 623 282 118 97 77 
74 573 267 105 109 116 
274 289 228 139 138 143 
390 750 255 179 94 92 
194 495 198 65 89 114 
161 837 223 182 164 157 
108 216 210 181 131 55 
187 85 278 86 70 52 
336 664 276 93 126 156 
270 604 315 110 125 172 
191 878 285 157 115 88 
163 804 203 199 10 36 
139 261 232 62 44 56 
301 372 250 149 149 154 
110 631 182 133 135 143 
170 585 169 135 131 132 
262 348 322 152 116 66 
304 510 248 120 134 154 
191 617 155 137 129 127 
151 569 178 93 105 119 
120 605 246 26 60 88 
233 804 303 190 135 114 
281 568 321 47 106 166 
156 685 229 95 107 143 
253 937 312 71 56 48 
181 595 164 94 57 43 
91 387 291 116 26 55 
177 105 263 95 75 51 
278 472 316 83 97 127 
202 541 182 82 99 117 
215 295 229 119 136 157 
205 705 338 97 121 145 
217 261 258 65 64 66 
207 603 156 86 108 128 
80 510 275 103 115 135 
107 217 216 181 87 0 
239 187 200 138 92 96 
184 596 324 194 187 189 
82 357 288 179 157 136 
138 587 313 173 175 189 
222 905 268 132 84 64 
364 641 285 65 99 127 
86 355 263 121 136 173 
218 348 208 107 114 125 
287 757 307 199 177 160 
72 298 236 89 83 104 
94 335 242 135 136 144 
140 666 218 49 66 98 
246 375 304 42 75 118 
193 1006 308 123 93 64 
288 405 207 64 99 132 
105 221 217 201 78 0 
63 271 273 69 99 125 
296 284 302 125 126 133 
329 693 289 134 36 40 
100 582 254 36 55 84 
260 737 326 136 111 87 
59 462 289 168 145 120 
176 65 256 109 90 71 
143 807 210 178 29 40 
294 193 289 73 48 56 
227 472 200 117 123 133 
298 510 292 134 145 165 
156 581 321 142 138 142 
228 984 311 126 93 61 
159 280 303 121 127 140 
110 292 229 145 80 103 
196 856 286 149 101 76 
244 129 254 79 72 67 
342 813 260 205 144 110 
286 298 262 86 121 151 
196 729 343 69 52 138 
201 210 251 52 46 47 
272 854 245 249 184 147 
177 502 328 153 160 173 
283 279 267 112 120 133 
298 203 223 108 63 68 
116 338 241 119 113 112 
183 135 268 129 62 3 
238 682 140 111 145 194 
105 579 255 43 67 103 
275 521 333 102 118 160 
278 833 271 198 139 111 
191 314 228 77 127 166 
260 288 208 113 128 145 
131 238 278 74 83 101 
237 186 273 67 29 44 
320 622 241 88 103 119 
141 400 228 72 111 148 
229 281 227 128 131 141 
189 941 278 75 59 44 
297 614 298 138 111 91 
82 403 298 103 42 37 
284 768 175 212 55 38 
286 560 295 133 147 171 
102 488 306 120 132 150 
149 640 219 89 92 122 
156 381 230 127 130 139 
283 661 214 66 74 86 
213 19 318 154 102 88 
149 782 294 153 108 84 
89 538 321 85 104 124 
141 280 235 69 128 170 
229 850 230 224 161 123 
145 667 165 92 139 177 
91 467 267 76 92 111 
267 814 289 191 132 109 
246 372 305 71 91 122 
105 270 226 106 35 74 
155 484 332 114 123 149 
328 677 290 148 112 127 
79 366 251 106 132 161 
313 730 299 162 152 147 
77 527 290 65 96 130 
158 918 337 92 74 60 
271 356 202 121 144 173 
161 927 298 117 91 74 
173 324 225 160 163 176 
106 185 283 148 103 92 
202 565 338 151 170 196 
56 313 279 82 122 153 
212 847 334 139 111 86 
152 709 239 116 123 142 
108 222 223 174 111 87 
276 666 322 146 127 111 
81 320 243 143 77 53 
72 604 323 140 85 84 
164 53 301 121 99 80 
101 341 260 94 112 132 
211 443 290 60 75 95 
242 739 161 180 197 222 
393 722 213 105 114 131 
184 280 222 107 114 126 
61 311 237 125 56 82 
143 644 294 96 120 171 
92 345 283 126 40 62 
132 813 280 149 141 139 
273 478 308 52 83 121 
61 505 327 54 95 143 
261 299 208 115 112 113 
262 657 203 67 75 88 
78 261 210 138 119 126 
287 716 156 120 131 147 
121 686 219 94 108 133 
252 568 316 62 82 106 
321 715 206 117 111 110 
278 190 217 134 46 15 
351 631 249 64 79 94 
150 561 322 79 129 166 
340 749 273 150 137 127 
234 649 335 47 42 63 
142 654 166 164 161 164 
208 762 322 172 147 124 
264 665 199 74 104 131 
154 409 317 64 91 123 
370 773 258 181 156 139 
118 206 223 167 131 107 
382 652 238 61 69 78 
406 738 237 190 199 217 
193 861 291 148 106 79 
183 891 366 92 76 59 
209 291 268 52 65 78 
191 33 282 98 84 70 
207 830 215 226 191 139 
119 827 265 150 127 140 
178 109 264 95 75 49 
67 601 334 201 139 128 
278 253 296 90 39 58 
298 526 280 96 113 148 
223 416 286 39 57 83 
332 762 180 153 28 43 
224 204 267 79 46 59 
267 322 324 75 113 144 
194 884 279 167 125 96 
311 289 304 92 47 57 
173 886 346 154 121 102 
253 924 347 109 92 75 
303 345 298 139 137 140 
112 211 211 185 139 113 
276 794 191 228 207 180 
211 765 177 197 37 66 
270 20 234 146 129 120 
219 848 323 132 101 71 
165 895 328 149 108 83 
108 354 285 100 101 106 
204 261 272 59 61 67 
254 762 171 205 14 28 
157 726 173 190 191 206 
99 274 229 62 45 80 
345 628 277 119 98 76 
257 13 206 119 105 91 
118 552 312 63 85 124 
309 816 217 181 168 163 
362 634 224 129 138 152 
47 592 316 151 103 97 
150 522 330 147 154 168 
239 850 285 166 123 94 
114 211 215 173 115 89 
238 311 297 118 117 121 
149 352 225 197 133 66 
314 819 273 193 143 112 
116 585 293 163 153 158 
140 664 167 81 130 170 
150 641 218 86 93 119 
239 787 309 201 147 124 
210 892 371 126 104 80 
328 788 196 202 160 117 
149 774 190 194 197 207 
299 714 187 53 60 67 
83 603 244 134 142 171 
209 425 277 45 61 77 
135 694 222 91 95 117 
87 369 289 153 133 113 
119 171 267 136 111 85 
288 557 215 109 124 143 
179 11 307 106 96 90 
280 207 298 109 57 55 
271 242 203 89 117 145 
254 637 313 127 98 88 
393 657 229 64 82 104 
259 466 197 130 132 139 
192 194 236 71 63 59 
168 898 360 97 78 66 
236 515 301 73 83 98 
122 544 341 121 131 197 
251 602 184 109 123 139 
275 598 213 83 98 113 
273 451 331 76 100 129 
272 676 319 134 99 53 
114 209 219 173 117 89 
288 268 297 86 80 85 
220 220 258 75 42 44 
153 96 266 122 101 78 
213 496 321 90 112 154 
180 573 172 120 119 122 
138 631 295 130 139 178 
307 371 303 173 148 123 
68 263 245 92 74 72 
103 663 183 99 91 101 
332 622 243 93 95 101 
159 604 319 61 61 111 
330 672 286 149 108 133 
229 314 294 123 120 124 
150 545 326 198 189 197 
308 767 290 132 99 79 
294 515 319 122 137 163 
267 305 215 110 98 98 
201 12 315 130 106 92 
115 208 222 175 114 89 
237 371 202 95 111 134 
184 857 240 184 154 124 
202 573 169 128 122 120 
180 628 324 155 168 187 
270 156 269 88 82 76 
190 394 219 92 106 125 
424 712 235 127 151 209 
91 285 275 85 129 163 
243 229 301 86 32 32 
87 622 223 139 139 158 
113 213 216 193 107 22 
306 493 243 158 157 163 
132 170 269 163 119 106 
98 542 246 112 128 148 
267 629 210 104 113 126 
113 213 219 186 85 0 
161 295 304 102 118 135 
129 498 211 82 103 128 
302 486 285 81 98 152 
149 558 185 92 104 118 
49 377 282 115 129 146 
251 626 160 148 148 156 
50 497 321 119 141 166 
116 360 293 147 126 104 
280 298 299 70 86 101 
347 783 270 112 113 121 
233 195 274 60 30 29 
114 255 271 108 69 83 
120 561 221 67 85 102 
74 569 287 54 76 96 
166 440 219 122 123 129 
138 251 284 131 119 115 
305 492 248 151 153 162 
233 953 366 82 67 56 
264 851 231 255 205 178 
222 940 268 100 76 59 
167 187 297 99 49 40 
122 820 230 165 48 87 
300 801 200 188 149 126 
74 259 231 88 81 78 
112 214 221 192 86 0 
110 174 269 148 66 26 
276 277 282 109 92 82 
302 541 257 106 126 148 
103 563 244 64 93 119 
269 517 199 101 114 134 
274 648 237 51 55 61 
270 178 273 89 79 75 
181 545 181 70 90 109 
265 836 218 227 161 124 
299 177 227 88 41 45 
279 584 311 86 119 149 
275 251 292 89 15 46 
264 631 211 105 108 116 
254 950 315 68 55 46 
203 432 307 112 121 138 
290 176 243 96 40 36 
235 341 301 106 115 129 
406 670 218 172 171 178 
269 911 324 96 81 76 
207 728 160 85 159 216 
176 45 274 98 85 72 
138 824 278 131 110 95 
58 483 322 118 83 100 
74 537 299 53 74 125 
104 602 263 87 69 64 
115 787 212 178 197 220 
261 547 326 100 125 168 
159 936 326 89 76 67 
104 277 227 89 52 75 
287 759 304 201 157 129 
72 603 325 190 130 121 
429 688 223 83 119 182 
426 696 251 173 184 207 
297 526 286 146 156 173 
118 210 218 178 112 83 
160 392 316 71 97 126 
214 533 321 157 159 167 
283 312 246 114 131 151 
118 536 222 144 147 160 
145 265 293 109 115 125 
261 817 289 188 129 106 
387 653 220 103 128 163 
257 345 334 107 125 147 
198 615 154 115 124 136 
278 134 224 102 93 85 
95 563 266 46 77 103 
194 424 317 69 93 130 
102 647 183 168 164 167 
179 544 182 81 95 110 
212 624 326 181 170 167 
107 669 219 165 112 91 
159 676 250 117 119 137 
83 381 271 144 140 145 
122 524 215 61 91 125 
187 387 315 103 120 141 
297 152 290 100 76 66 
154 123 278 105 86 68 
324 646 302 106 136 200 
118 209 222 181 86 3 
110 305 245 188 183 189 
308 408 316 185 82 9 
187 410 320 123 135 150 
284 300 245 147 144 147 
189 352 228 96 111 128 
427 698 248 127 142 193 
278 454 341 86 112 169 
323 712 209 115 112 113 
299 658 320 75 77 86 
116 212 219 205 84 0 
171 727 170 159 177 206 
340 663 281 152 175 201 
208 282 258 54 62 71 
229 274 223 134 133 140 
265 42 203 132 110 88 
215 691 343 87 84 85 
109 562 281 65 82 125 
235 395 202 63 95 130 
307 557 256 139 146 159 
169 367 310 77 94 118 
111 443 305 146 148 157 
121 159 277 126 76 45 
263 120 244 88 73 56 
186 675 152 183 177 182 
296 591 278 143 138 139 
131 286 278 104 118 134 
155 82 282 104 87 71 
286 256 243 85 105 125 
102 203 238 105 79 59 
262 163 289 132 80 65 
144 722 239 65 83 122 
145 475 213 78 97 116 
216 213 246 65 47 47 
147 295 289 86 88 101 
188 865 358 121 97 76 
234 519 300 55 67 80 
227 383 289 61 75 112 
322 657 298 120 149 178 
270 432 205 73 100 125 
292 428 208 77 107 136 
413 714 218 117 141 190 
101 591 274 59 60 72 
55 522 315 97 128 185 
185 662 152 136 148 167 
317 767 288 102 106 113 
226 609 326 105 137 181 
228 417 293 95 114 140 
135 607 173 94 113 133 
245 168 285 112 34 17 
100 206 238 126 102 84 
