ply
format ascii 1.0
comment Created by CloudCompare v2.11.1 (Anoia)
comment Created 2/28/22 9:43 PM
obj_info Generated by CloudCompare!
element vertex 2019
property float x
property float y
property float z
property uchar red
property uchar green
property uchar blue
end_header
264 406 320 74 92 123 
309 829 256 234 162 132 
307 825 266 216 151 123 
199 994 355 105 78 54 
279 503 232 103 122 171 
187 484 323 103 113 134 
281 134 275 99 68 46 
304 346 355 159 165 179 
180 426 314 59 77 119 
255 280 301 64 93 117 
102 386 273 141 81 110 
151 310 308 88 102 118 
214 626 326 148 144 148 
197 579 192 128 123 122 
198 856 360 137 104 84 
274 833 231 234 174 138 
187 728 178 188 206 226 
150 292 227 134 129 127 
57 237 271 109 96 86 
193 855 360 130 102 78 
164 534 366 134 155 179 
319 352 340 124 123 131 
403 706 223 164 180 207 
229 158 236 145 108 86 
282 402 244 54 87 114 
262 70 228 112 95 79 
146 827 282 160 138 118 
272 523 228 98 127 165 
95 727 223 140 138 144 
108 639 334 65 84 120 
87 563 314 61 90 144 
254 789 206 158 131 103 
204 972 368 87 68 50 
198 216 266 78 52 68 
183 439 312 51 78 120 
287 333 332 108 60 78 
355 763 222 51 30 74 
157 156 295 113 95 94 
166 137 256 110 77 31 
257 818 214 158 143 132 
122 658 344 182 189 202 
160 741 336 179 148 117 
157 575 199 77 90 105 
67 450 322 183 154 123 
233 144 228 164 140 119 
309 792 275 179 135 102 
294 392 352 94 117 156 
174 911 385 187 143 124 
309 819 234 190 133 99 
232 146 230 166 141 111 
261 843 260 217 159 129 
282 692 165 126 137 154 
244 432 310 86 101 133 
81 408 277 119 83 22 
255 264 299 102 83 83 
239 449 315 143 155 174 
187 477 316 107 118 133 
260 449 231 110 116 127 
88 326 294 64 93 117 
170 379 315 79 97 119 
99 298 292 81 79 91 
248 597 214 93 100 110 
278 886 341 135 116 100 
101 363 315 98 100 115 
158 218 298 84 36 50 
153 717 338 143 162 185 
297 826 233 223 161 127 
187 28 281 125 109 98 
52 222 282 132 113 96 
167 28 314 145 106 89 
279 545 327 86 107 160 
156 225 300 90 32 38 
137 426 335 57 75 97 
214 484 305 132 134 142 
204 708 348 171 72 66 
99 364 312 88 108 129 
161 597 337 106 125 151 
194 960 376 103 80 64 
205 972 304 103 81 57 
321 413 309 189 78 8 
363 630 281 126 139 157 
168 927 378 132 102 85 
152 917 349 94 75 63 
169 960 309 163 129 93 
257 263 246 176 168 170 
147 734 178 162 178 213 
224 936 373 122 97 80 
226 702 162 75 157 214 
266 314 250 87 133 169 
220 850 323 140 104 73 
227 117 263 115 102 91 
281 443 339 43 72 112 
140 470 229 89 102 117 
105 347 318 73 105 131 
362 649 293 62 82 118 
248 827 218 221 156 113 
239 147 229 135 110 83 
247 428 236 48 79 108 
295 646 317 89 114 137 
101 256 263 99 67 72 
109 649 222 57 71 86 
251 202 283 58 90 115 
77 631 311 77 110 139 
177 916 291 84 63 47 
119 301 321 135 59 13 
121 407 348 178 155 134 
287 145 306 112 94 80 
175 231 273 108 32 60 
288 737 179 172 199 223 
239 913 299 75 58 47 
172 221 290 74 24 25 
103 556 281 128 128 133 
220 867 252 223 169 137 
363 203 300 139 46 53 
315 758 197 160 129 89 
88 751 187 178 179 210 
133 412 330 61 88 114 
197 805 304 183 133 117 
101 783 262 109 124 140 
226 958 363 85 68 54 
380 674 220 60 92 124 
357 626 269 99 84 69 
87 561 338 150 164 182 
269 378 251 129 127 130 
104 219 261 53 87 115 
112 829 269 98 110 123 
144 82 258 116 94 72 
233 151 235 171 72 0 
113 184 280 149 72 7 
62 654 234 59 52 77 
198 457 305 64 88 123 
75 618 285 117 123 134 
298 490 311 110 126 175 
308 210 261 135 63 67 
118 629 256 70 83 100 
67 373 314 150 150 158 
284 665 182 61 78 93 
185 938 282 88 70 55 
130 332 239 65 90 111 
66 421 285 148 61 82 
92 660 172 76 95 115 
176 426 325 142 138 141 
48 278 228 138 72 19 
167 460 220 76 101 129 
210 129 260 169 87 3 
221 475 305 79 95 122 
188 53 288 109 88 65 
69 647 270 99 77 84 
117 362 257 90 99 111 
364 173 267 97 96 115 
208 845 314 103 78 47 
204 515 197 145 146 155 
286 637 238 77 89 105 
280 231 245 107 47 59 
168 164 280 107 27 37 
291 279 244 126 90 45 
311 615 235 55 85 111 
171 915 382 191 147 127 
102 605 237 77 106 131 
161 399 232 77 99 120 
89 472 332 135 34 68 
234 776 202 209 156 101 
273 125 259 102 83 61 
51 658 224 105 115 160 
252 845 271 200 144 116 
317 432 306 154 139 130 
232 152 236 171 69 0 
58 259 221 179 75 13 
235 616 322 164 122 112 
233 153 236 171 72 0 
77 432 283 94 138 175 
200 776 317 144 136 135 
287 773 288 180 126 95 
292 134 299 136 97 74 
106 671 159 78 112 141 
142 584 212 80 90 102 
162 310 229 89 129 164 
354 627 289 98 115 135 
212 869 250 237 174 139 
202 633 157 94 108 125 
232 159 235 136 111 102 
285 500 335 183 191 207 
136 398 326 52 88 119 
78 370 303 93 70 76 
248 20 259 114 72 61 
120 699 209 104 114 128 
333 162 288 119 66 12 
292 499 314 156 171 192 
65 299 278 51 72 95 
93 599 302 107 130 165 
101 735 234 85 98 126 
80 707 212 100 116 145 
257 580 327 99 131 185 
299 439 251 87 113 145 
380 711 206 102 112 128 
237 790 208 163 139 117 
116 733 174 182 177 201 
136 778 197 218 30 17 
90 335 263 131 137 150 
98 760 245 105 115 139 
305 305 339 83 97 115 
282 680 168 81 89 101 
95 444 266 76 95 115 
237 153 234 158 59 0 
340 797 252 191 168 154 
136 714 229 116 123 137 
86 603 280 71 102 141 
312 350 257 152 148 150 
185 67 284 90 73 53 
257 712 166 196 191 206 
238 860 260 234 179 144 
262 319 254 138 151 178 
158 567 209 74 84 95 
358 625 235 96 116 138 
142 294 335 148 149 155 
116 745 249 81 89 108 
56 427 317 117 130 147 
96 520 279 109 117 132 
48 387 267 105 102 110 
185 840 334 134 105 82 
238 154 234 154 51 0 
60 271 224 159 88 77 
207 851 352 128 105 81 
277 459 332 64 82 116 
205 821 299 177 124 105 
312 235 318 42 77 104 
353 685 224 47 43 67 
294 769 288 154 112 88 
292 636 312 60 91 118 
241 337 293 81 102 126 
312 827 259 222 155 127 
280 206 244 110 38 30 
204 639 334 78 115 147 
184 864 365 166 122 103 
141 132 276 98 82 65 
207 403 236 58 91 120 
55 439 288 145 105 110 
85 292 273 111 26 40 
230 928 281 68 53 40 
286 723 320 162 133 102 
220 122 261 137 94 24 
240 128 229 115 92 66 
259 101 257 96 80 62 
86 780 218 85 114 187 
269 364 256 101 111 123 
280 780 204 208 182 161 
301 809 275 189 140 110 
101 635 225 61 77 97 
346 620 261 107 91 75 
192 404 296 62 90 123 
172 804 212 105 70 61 
242 128 228 127 97 57 
279 374 252 116 119 125 
217 984 312 129 97 57 
226 900 368 154 120 90 
69 678 221 154 106 82 
247 493 216 88 105 123 
217 746 326 188 158 129 
367 759 253 150 145 150 
319 631 236 65 85 108 
273 606 243 68 86 103 
171 543 377 100 129 175 
203 258 274 139 129 125 
61 307 308 55 82 106 
300 152 278 107 96 89 
62 386 271 139 151 176 
315 223 307 58 39 50 
107 597 350 174 184 200 
356 252 297 105 62 87 
238 499 211 140 147 165 
241 558 206 136 141 156 
191 730 180 185 207 227 
241 133 228 89 72 53 
296 735 179 214 86 78 
232 860 314 148 111 82 
221 136 259 126 122 122 
176 86 298 132 102 79 
197 841 299 151 109 84 
292 181 291 93 47 35 
269 897 344 160 136 114 
266 659 169 82 90 101 
138 451 340 104 105 112 
100 515 271 74 97 129 
108 645 222 57 70 84 
180 980 312 156 123 87 
138 658 249 89 102 136 
245 129 227 130 100 62 
206 239 270 93 102 114 
320 343 269 166 162 166 
259 240 294 129 125 126 
288 499 249 170 170 178 
240 448 229 49 83 110 
246 909 350 112 92 71 
349 746 278 126 119 122 
141 277 324 117 122 131 
119 493 241 87 106 127 
206 349 290 129 120 116 
273 127 250 94 80 67 
155 466 221 87 103 120 
47 309 228 55 65 90 
95 281 260 133 41 62 
291 458 246 93 117 148 
100 425 263 67 82 101 
125 569 240 80 88 99 
66 642 220 81 99 120 
111 780 269 108 59 65 
298 623 302 54 70 84 
317 291 281 121 123 129 
228 857 331 148 109 80 
194 701 344 86 115 141 
201 929 269 83 62 53 
349 205 277 158 99 82 
125 196 257 156 73 62 
109 405 245 116 115 118 
139 742 309 117 142 169 
104 376 323 121 130 144 
316 423 337 150 129 112 
170 579 337 80 110 138 
218 547 342 117 132 151 
185 123 267 151 111 81 
333 238 307 67 50 44 
129 746 256 95 108 126 
68 432 287 91 135 173 
288 593 289 108 96 87 
115 706 163 126 76 99 
282 582 233 111 121 134 
108 403 249 105 103 107 
156 227 299 106 30 31 
141 706 302 109 126 149 
219 659 155 151 144 144 
144 567 221 60 79 97 
120 286 311 116 94 72 
191 822 222 216 179 135 
304 203 308 85 19 28 
346 639 234 110 126 149 
236 283 282 75 106 132 
63 276 233 161 38 15 
202 17 305 157 132 124 
255 623 315 121 78 75 
345 251 311 88 111 131 
292 157 307 115 36 38 
242 139 225 124 102 84 
86 542 299 113 128 152 
235 820 217 112 82 60 
237 812 295 176 119 99 
256 28 219 152 136 125 
205 824 298 178 121 101 
350 265 289 92 132 166 
172 358 239 177 135 79 
226 193 261 80 85 91 
227 899 281 114 89 70 
183 894 288 144 106 79 
181 84 284 89 71 51 
263 582 216 81 105 127 
252 928 356 96 78 67 
163 689 341 130 152 176 
199 25 288 129 112 98 
357 233 290 48 55 89 
195 274 277 75 97 117 
286 765 293 173 124 95 
242 920 357 97 79 62 
97 806 242 152 96 104 
274 467 332 55 76 110 
287 553 247 110 128 153 
280 313 320 110 76 30 
115 170 274 130 116 104 
128 722 228 89 99 127 
252 600 221 58 83 104 
247 494 319 140 151 169 
143 370 329 111 128 149 
303 696 176 88 104 121 
110 803 222 206 15 42 
326 185 285 109 77 55 
201 652 154 172 168 172 
260 19 245 134 113 103 
162 330 317 116 72 80 
298 740 182 195 32 53 
340 197 281 134 99 92 
290 409 246 35 88 127 
291 814 221 105 104 108 
365 763 254 116 92 91 
57 260 273 130 60 4 
184 496 350 167 166 173 
298 665 212 114 117 124 
180 516 205 100 126 157 
286 299 248 128 147 175 
244 140 225 153 133 115 
354 742 200 111 121 151 
51 663 211 112 126 180 
80 538 314 122 110 100 
290 141 257 133 104 87 
82 659 292 181 121 105 
237 957 346 78 62 52 
49 417 278 183 179 185 
218 878 259 201 138 98 
262 710 331 123 112 110 
155 320 226 86 124 156 
246 141 225 116 103 96 
299 391 352 79 107 164 
247 141 225 131 117 104 
109 205 257 131 97 96 
120 769 271 107 124 143 
306 205 298 115 59 55 
328 404 330 190 81 7 
82 356 273 113 113 119 
185 572 189 131 126 125 
312 286 325 78 99 124 
276 270 242 94 114 135 
194 13 287 131 111 92 
256 460 226 83 98 114 
169 884 366 124 103 83 
58 271 235 106 84 66 
198 12 314 126 94 77 
127 714 168 206 199 210 
289 793 279 192 140 105 
279 434 328 41 67 113 
302 439 254 91 115 153 
251 128 227 140 107 71 
329 377 307 165 157 155 
55 296 243 140 62 3 
392 650 264 62 69 78 
80 268 268 120 38 28 
73 639 317 113 96 80 
265 360 259 101 108 118 
245 945 320 97 76 59 
342 621 274 85 71 57 
132 774 196 149 106 130 
314 290 339 133 141 155 
139 699 285 39 51 92 
247 596 212 100 103 112 
143 277 235 130 111 89 
310 753 293 141 131 126 
96 698 215 47 69 101 
182 299 239 147 164 184 
151 423 335 111 120 135 
251 133 227 131 104 75 
126 645 163 104 117 132 
287 369 255 107 114 124 
382 655 236 64 66 70 
122 444 353 164 77 11 
176 941 290 83 63 45 
251 479 315 77 87 100 
160 619 163 136 132 132 
182 78 293 115 86 66 
197 288 283 104 119 137 
153 758 323 163 162 174 
131 424 341 79 91 125 
182 963 364 134 105 78 
170 664 328 63 69 131 
143 603 342 55 61 84 
205 984 307 135 103 64 
320 752 286 156 109 80 
230 959 305 125 95 73 
283 686 167 100 114 130 
85 767 232 112 126 145 
213 399 243 75 98 119 
329 709 186 132 124 119 
98 660 295 145 104 95 
72 655 273 170 120 98 
239 491 213 82 101 121 
388 717 262 162 181 205 
326 332 330 183 155 120 
123 426 351 140 104 95 
183 356 299 143 136 135 
315 438 289 120 136 161 
305 265 343 135 135 142 
307 327 256 95 138 174 
291 504 259 155 157 166 
266 537 221 109 113 121 
344 636 297 39 65 99 
117 626 257 70 84 100 
202 949 289 121 90 63 
114 597 231 74 92 109 
146 621 329 79 95 122 
153 632 160 133 133 137 
249 136 227 97 83 70 
383 733 217 180 198 222 
278 234 298 64 91 113 
285 148 292 73 47 65 
211 872 252 243 182 148 
202 741 333 164 152 148 
249 139 226 148 130 113 
363 649 227 141 149 165 
125 419 240 75 106 133 
219 579 339 104 125 179 
167 711 168 190 111 136 
133 756 290 136 20 43 
248 936 327 94 77 62 
268 651 188 106 107 111 
150 465 225 68 93 117 
234 248 277 101 87 69 
86 670 170 79 93 110 
311 634 308 87 115 147 
254 756 190 210 141 45 
57 471 308 158 15 74 
322 401 313 196 161 123 
358 695 293 161 61 74 
231 930 366 101 75 61 
205 531 353 117 135 156 
307 326 353 170 171 178 
244 619 215 86 94 103 
111 593 247 64 82 101 
126 671 157 116 99 106 
266 470 322 54 82 124 
149 783 201 172 187 205 
242 240 246 154 0 39 
164 95 263 103 78 46 
196 254 274 112 116 125 
97 678 330 173 118 111 
97 382 273 135 125 143 
237 628 320 149 104 88 
66 634 295 144 147 157 
185 160 263 100 93 96 
139 500 222 124 129 140 
53 273 227 115 83 40 
148 602 335 66 72 88 
288 395 337 36 65 104 
105 755 186 89 128 214 
124 653 335 63 63 91 
412 696 246 173 188 219 
195 315 252 164 150 140 
83 251 262 119 48 73 
391 709 261 172 187 208 
90 790 227 146 177 208 
324 801 232 200 185 177 
254 137 227 105 91 78 
83 694 220 154 103 84 
112 543 350 127 102 98 
216 711 166 81 172 226 
50 292 228 158 100 70 
211 418 232 84 103 122 
255 138 227 125 113 102 
255 139 227 132 120 109 
106 337 319 107 62 72 
304 831 257 231 160 131 
253 140 226 118 108 98 
231 959 310 120 86 63 
296 150 299 102 85 74 
252 143 226 113 102 94 
248 522 321 55 85 125 
50 674 200 95 129 179 
205 198 259 46 66 86 
414 689 232 117 136 191 
253 917 354 90 73 63 
211 243 270 97 111 128 
255 141 226 128 115 104 
107 485 263 95 114 135 
58 327 309 104 63 54 
297 777 279 179 125 93 
165 789 204 121 31 66 
243 281 244 169 168 174 
87 666 339 175 123 118 
59 232 298 144 67 8 
120 514 235 115 124 140 
68 714 179 129 136 161 
269 524 227 73 94 142 
179 515 356 97 120 146 
171 963 354 122 96 74 
155 561 357 116 143 171 
240 857 251 242 181 147 
169 946 372 80 65 56 
319 416 289 149 133 124 
223 505 203 77 95 112 
277 294 248 158 153 156 
239 902 313 126 86 62 
185 31 283 106 86 65 
69 728 199 83 82 137 
320 385 275 171 86 16 
149 160 296 111 105 103 
143 688 263 126 120 136 
228 619 177 120 122 129 
305 460 335 100 125 179 
139 677 158 178 167 177 
53 433 303 128 145 167 
242 146 228 154 133 112 
286 836 245 245 180 143 
275 230 241 93 36 31 
97 805 232 170 119 120 
85 659 297 179 119 111 
106 351 321 71 106 135 
200 755 326 178 154 137 
350 753 209 217 187 140 
267 649 193 101 105 113 
107 621 335 71 86 129 
241 148 230 159 98 30 
186 207 263 43 54 79 
126 522 356 97 127 178 
334 247 294 138 84 69 
310 317 255 85 129 166 
251 850 265 210 154 128 
287 528 322 52 68 107 
57 250 258 108 98 92 
234 878 286 154 114 90 
193 532 196 83 103 123 
212 769 318 135 124 116 
309 443 265 92 119 156 
250 351 306 87 101 120 
201 665 334 83 91 101 
231 932 282 83 64 47 
118 706 211 79 90 122 
205 710 167 223 205 210 
243 151 230 171 63 0 
130 259 239 103 72 71 
170 227 294 76 29 32 
329 324 294 123 137 155 
61 284 225 104 42 60 
253 495 218 88 104 122 
244 146 227 131 113 96 
284 760 195 106 130 153 
354 644 298 42 64 117 
280 171 242 89 61 79 
246 145 227 124 110 97 
251 530 212 100 110 122 
109 313 312 90 106 125 
161 548 369 133 153 179 
132 651 159 106 117 131 
83 675 247 162 111 93 
68 514 318 191 83 5 
102 406 274 111 42 72 
65 630 272 70 103 132 
277 818 218 182 147 114 
244 563 208 120 131 147 
54 349 301 63 64 89 
120 744 249 77 80 104 
281 434 332 42 65 105 
90 554 295 125 129 140 
141 715 321 127 140 157 
302 326 345 114 126 143 
150 55 257 116 98 84 
160 236 302 111 31 29 
131 386 351 105 131 157 
281 575 266 124 120 122 
54 331 229 120 108 124 
254 646 336 121 90 63 
238 630 182 74 96 117 
172 443 339 92 111 134 
206 321 292 171 129 78 
309 165 315 107 25 35 
231 910 288 91 69 56 
238 318 285 136 134 138 
197 738 186 167 195 223 
63 685 180 144 143 147 
319 306 281 85 107 128 
61 638 272 39 93 135 
120 383 343 127 139 155 
161 889 356 132 107 81 
189 50 290 111 89 65 
220 912 266 112 90 73 
171 900 379 152 119 96 
170 132 287 93 84 76 
243 417 240 60 87 109 
242 153 231 165 63 0 
355 167 262 200 77 12 
179 610 164 110 104 101 
217 724 174 175 198 223 
196 407 228 94 110 128 
68 644 280 116 91 100 
135 665 215 94 110 133 
244 153 231 165 65 0 
245 152 230 168 68 0 
180 842 283 171 126 102 
59 718 190 82 108 159 
230 488 211 146 147 155 
175 825 223 196 161 120 
245 155 231 166 64 0 
246 670 336 136 61 34 
182 697 341 122 144 167 
179 99 281 102 80 55 
139 676 210 94 114 142 
348 729 282 85 97 123 
247 153 230 170 69 0 
367 169 272 114 95 94 
92 443 322 151 128 104 
323 657 307 114 143 172 
330 311 294 157 159 169 
247 154 230 167 65 0 
226 767 317 173 132 110 
253 567 331 109 139 177 
244 157 231 163 66 7 
151 825 283 165 144 131 
155 134 295 117 105 95 
57 321 255 109 74 82 
105 339 317 86 70 84 
367 161 273 158 86 32 
128 787 203 210 45 65 
236 954 310 106 81 65 
281 741 313 137 152 169 
357 672 228 71 85 101 
142 124 274 95 80 65 
328 315 293 110 124 143 
305 296 339 100 108 119 
246 158 231 158 69 26 
197 398 234 100 115 133 
183 55 278 113 95 77 
224 563 203 97 96 97 
262 112 260 92 76 60 
66 266 245 171 36 4 
240 153 232 167 66 0 
131 767 300 143 60 59 
249 260 296 133 130 132 
248 396 249 60 87 111 
148 447 341 114 122 136 
87 631 211 81 93 106 
241 155 232 169 67 0 
182 742 336 117 119 151 
365 144 278 156 88 48 
159 574 196 85 100 116 
185 793 209 163 141 129 
241 603 209 56 72 87 
242 327 260 155 131 108 
363 171 286 54 65 86 
241 640 170 86 99 115 
257 418 315 69 82 108 
287 652 219 125 129 139 
231 900 290 103 79 65 
240 159 233 132 102 89 
193 843 345 114 72 63 
162 908 305 179 103 64 
242 156 232 165 66 0 
158 31 309 136 99 91 
165 781 309 148 130 116 
286 312 249 89 61 67 
382 641 225 119 135 154 
101 619 208 121 124 131 
172 437 337 80 99 133 
125 243 296 39 45 67 
53 446 307 137 144 156 
336 682 288 94 115 136 
73 715 199 71 79 114 
109 182 269 163 131 114 
352 246 308 91 115 131 
68 670 183 129 131 137 
237 193 271 100 66 75 
177 103 275 97 73 49 
146 334 228 82 151 203 
166 674 321 74 96 146 
319 364 277 183 157 131 
65 724 182 164 171 219 
228 988 337 124 94 69 
85 458 286 128 138 155 
89 786 231 93 116 158 
141 583 216 74 89 104 
248 147 227 148 126 96 
102 369 269 166 133 109 
104 492 266 85 105 130 
261 514 221 138 151 175 
324 223 296 69 58 66 
200 531 194 52 86 124 
98 233 282 42 69 93 
91 797 247 159 165 178 
109 543 249 134 132 137 
250 146 226 126 112 98 
288 131 299 128 99 71 
96 577 281 90 108 130 
312 306 345 87 120 150 
152 758 323 161 145 140 
61 303 255 116 89 84 
204 870 252 226 165 133 
65 302 233 80 43 46 
100 575 267 89 100 116 
67 425 321 153 77 70 
277 291 247 161 157 161 
108 400 255 120 90 50 
212 272 241 92 127 158 
316 724 302 125 121 126 
232 780 204 122 104 91 
119 259 299 77 65 74 
184 996 350 142 111 79 
222 856 340 139 104 73 
247 929 324 81 65 54 
87 532 291 111 128 150 
102 819 257 183 69 70 
115 627 259 71 85 101 
185 138 259 202 99 17 
223 621 326 127 122 122 
281 448 240 114 121 132 
232 881 343 138 98 68 
132 619 185 95 111 129 
207 210 262 94 70 55 
252 144 226 114 102 94 
332 610 256 55 65 77 
100 657 239 74 59 54 
261 656 169 83 105 129 
305 819 231 188 134 98 
101 699 214 67 80 107 
319 385 271 137 130 132 
300 141 322 155 66 9 
198 355 254 170 93 114 
267 120 268 102 90 80 
71 627 235 99 111 125 
272 700 333 145 112 115 
266 186 277 104 38 48 
218 342 263 124 136 151 
166 818 292 146 144 149 
318 422 286 155 145 142 
144 461 230 95 105 118 
199 438 300 132 134 142 
105 437 333 87 109 134 
149 474 223 95 107 121 
356 638 228 154 161 175 
178 81 299 127 99 77 
196 965 302 150 106 60 
239 355 264 134 94 53 
236 322 259 124 145 175 
363 737 271 80 71 93 
296 165 250 167 96 45 
264 844 245 248 184 147 
252 150 228 175 64 0 
164 446 224 75 102 127 
74 353 304 68 105 134 
183 17 282 125 106 87 
155 733 179 174 180 214 
376 641 279 116 129 147 
179 534 372 72 100 124 
110 316 316 98 111 127 
128 457 242 118 120 125 
180 885 289 161 123 92 
237 322 259 127 149 178 
171 151 280 125 48 42 
190 383 297 56 90 120 
169 667 154 144 161 190 
102 781 261 122 134 149 
163 421 230 58 93 139 
192 42 300 108 82 58 
205 378 290 46 93 128 
319 685 209 133 128 128 
238 857 250 239 179 146 
185 369 300 77 95 123 
54 245 286 139 64 11 
261 346 262 147 131 119 
397 722 231 151 172 206 
122 419 350 168 124 77 
215 542 341 98 119 141 
275 131 247 109 93 75 
317 168 281 132 58 7 
251 153 229 170 65 0 
257 91 224 118 99 79 
327 319 330 148 9 62 
189 924 278 89 67 53 
199 158 256 109 105 106 
124 775 196 188 207 226 
73 658 266 168 116 96 
173 478 343 100 118 149 
187 616 162 123 119 119 
113 466 347 168 76 10 
212 283 282 88 101 115 
180 866 291 156 115 88 
173 889 300 131 100 75 
180 804 213 159 125 96 
304 201 288 123 77 58 
169 861 319 139 107 79 
273 778 203 100 88 83 
251 157 230 162 62 4 
72 651 286 199 144 126 
121 501 235 124 127 134 
135 826 233 147 141 141 
303 313 252 141 97 110 
191 809 217 177 151 127 
391 692 269 121 150 192 
249 934 346 71 53 43 
189 128 260 211 72 13 
236 722 171 158 112 149 
71 506 305 167 90 38 
107 516 254 118 123 137 
65 271 244 170 34 3 
77 515 306 157 100 65 
53 293 301 141 43 72 
117 376 339 146 147 154 
277 234 241 103 38 35 
216 340 262 115 101 110 
80 203 271 151 129 113 
184 1001 346 131 105 80 
362 630 263 105 89 72 
299 165 304 117 52 2 
181 883 288 163 124 93 
234 457 313 134 146 163 
185 852 242 229 163 128 
96 663 243 95 73 65 
252 157 230 163 64 3 
252 494 319 45 67 97 
55 297 245 139 66 11 
107 613 211 99 107 118 
52 348 261 101 105 117 
132 708 219 130 133 143 
143 547 221 116 122 135 
205 720 173 97 150 215 
316 696 190 109 109 112 
362 219 301 105 88 100 
271 596 233 95 105 116 
282 590 281 38 34 39 
74 664 186 130 134 141 
154 764 317 182 162 145 
231 229 272 143 121 97 
224 160 237 129 131 133 
90 308 262 132 109 113 
274 384 325 77 97 121 
232 295 282 105 124 143 
149 825 283 165 145 130 
157 567 349 153 166 186 
225 162 237 127 114 108 
134 827 235 183 168 159 
199 903 268 132 97 75 
258 896 337 146 120 96 
143 734 322 138 159 183 
180 504 355 91 110 148 
165 278 233 130 131 136 
314 285 342 106 127 150 
213 138 258 143 137 136 
288 140 278 72 61 50 
264 374 254 119 117 120 
227 162 237 116 87 65 
249 805 211 191 170 154 
199 940 276 95 72 53 
120 655 295 97 91 115 
105 737 177 150 182 222 
86 728 178 145 170 204 
256 46 230 100 84 66 
199 343 291 145 83 31 
91 798 245 169 134 152 
142 330 341 83 117 145 
321 197 286 87 70 73 
183 75 296 120 91 67 
266 717 169 180 188 216 
217 938 280 138 107 78 
188 49 305 118 89 68 
92 230 283 63 75 90 
294 652 323 94 120 145 
189 189 259 90 38 53 
56 436 287 82 145 192 
305 470 269 138 151 169 
204 849 350 83 60 46 
137 623 175 79 70 80 
274 622 301 132 87 80 
320 324 280 105 114 126 
231 160 235 123 125 128 
320 224 296 83 46 56 
134 154 287 109 98 90 
76 446 324 183 156 128 
146 277 327 94 108 124 
173 75 264 130 103 75 
122 657 276 79 82 118 
286 810 275 194 141 107 
155 304 304 95 105 118 
41 284 228 128 89 64 
267 575 220 88 105 130 
155 690 321 109 126 145 
299 149 245 141 125 111 
316 252 339 102 123 143 
300 351 346 110 110 114 
282 496 240 154 155 164 
191 312 296 132 114 97 
107 537 347 109 95 84 
323 604 267 97 89 82 
230 172 261 67 90 111 
224 705 339 178 89 48 
156 579 351 101 136 168 
109 305 311 114 117 126 
192 139 262 121 124 130 
309 203 285 120 69 67 
307 222 327 105 33 35 
137 299 336 141 143 151 
327 177 284 107 53 57 
256 16 226 130 119 113 
188 11 302 134 111 92 
132 446 341 59 77 106 
64 688 180 152 149 155 
190 771 319 125 87 72 
104 348 261 131 147 176 
169 130 263 110 83 49 
300 740 182 129 54 49 
192 598 336 80 134 175 
58 320 257 101 77 90 
355 630 228 61 100 139 
296 673 326 125 111 118 
317 205 335 110 35 77 
267 495 331 60 81 113 
66 354 252 40 75 145 
223 576 203 124 116 111 
92 290 263 82 88 101 
137 312 229 110 127 146 
187 817 219 178 152 128 
148 685 312 138 134 138 
111 656 271 83 81 99 
106 540 268 75 92 132 
410 666 219 80 120 167 
142 691 223 135 135 148 
162 17 292 110 99 89 
217 884 367 102 86 72 
301 480 263 67 95 153 
131 447 341 47 70 103 
178 822 222 199 166 133 
218 339 263 131 120 121 
91 630 206 88 98 110 
203 331 255 119 109 104 
111 389 260 129 106 82 
300 180 289 38 64 84 
110 637 231 64 77 95 
224 174 239 89 57 93 
290 243 306 56 81 103 
293 519 301 157 159 170 
209 913 385 174 129 102 
290 394 248 106 114 127 
358 233 304 53 73 102 
268 601 232 104 101 102 
266 592 224 105 107 114 
88 245 265 110 32 42 
335 613 253 69 83 96 
233 633 171 82 104 130 
308 786 212 172 149 130 
235 366 261 98 80 89 
363 629 237 111 129 150 
281 144 285 120 43 19 
220 448 301 64 85 114 
185 887 283 172 129 96 
175 1002 330 194 171 154 
106 727 232 50 74 107 
145 538 220 112 126 144 
172 45 274 84 70 56 
182 389 305 68 86 124 
238 621 198 66 68 74 
301 790 276 183 137 104 
183 243 273 89 67 67 
241 443 314 80 99 137 
299 200 297 39 32 39 
251 811 291 182 124 102 
390 703 267 149 172 200 
254 683 158 183 180 190 
200 730 341 128 110 97 
144 455 342 73 88 111 
135 611 354 73 105 151 
171 851 259 213 156 129 
131 747 181 123 146 200 
174 350 234 181 127 63 
228 175 237 55 63 103 
313 694 188 116 113 113 
143 112 277 103 84 64 
87 674 321 192 130 122 
213 293 250 189 186 195 
134 322 342 126 137 152 
258 167 232 97 42 39 
191 326 300 133 80 99 
165 554 344 85 132 172 
293 482 336 173 182 200 
84 738 213 80 98 127 
128 166 283 138 66 8 
311 452 280 99 122 164 
265 831 269 212 152 127 
275 561 311 127 150 194 
220 702 342 176 78 57 
191 637 335 115 90 115 
274 836 232 236 177 141 
67 508 315 132 141 155 
85 717 171 177 174 183 
220 866 250 225 169 137 
180 87 291 115 89 65 
233 162 235 151 119 107 
56 429 284 74 138 190 
143 724 324 127 154 182 
330 630 297 86 108 140 
230 650 160 82 112 138 
305 210 308 83 33 29 
197 533 365 112 129 149 
84 775 234 123 141 179 
285 256 242 106 110 114 
234 162 235 150 119 104 
201 524 343 93 110 130 
239 530 318 92 109 127 
321 607 259 111 103 97 
309 465 294 180 174 176 
109 376 329 131 138 150 
147 370 230 131 149 188 
345 149 276 169 118 81 
186 372 253 101 104 110 
253 331 307 97 108 123 
58 428 286 71 135 185 
48 415 286 145 149 158 
133 656 255 88 97 124 
168 673 323 136 144 161 
253 410 313 72 95 129 
232 165 236 162 43 0 
280 341 258 154 151 155 
91 190 274 139 126 115 
58 641 262 47 75 103 
138 663 157 173 169 175 
227 393 253 63 96 125 
180 843 233 182 161 154 
167 554 204 80 91 104 
208 829 224 191 186 189 
327 285 294 84 119 153 
226 914 372 123 99 77 
254 297 246 83 139 186 
247 899 320 172 102 82 
131 809 291 163 152 147 
289 514 332 184 189 201 
237 161 234 127 130 135 
208 421 294 112 121 133 
171 865 349 143 112 86 
115 486 350 149 131 110 
193 317 251 137 135 144 
290 402 350 48 79 124 
118 617 352 100 129 179 
214 186 258 105 55 67 
250 629 212 84 87 95 
309 222 320 111 40 10 
305 475 273 126 141 168 
185 818 298 178 132 108 
396 654 268 86 115 148 
264 206 236 73 54 81 
295 753 191 201 34 54 
316 632 305 72 101 130 
145 314 335 83 106 131 
251 395 248 54 81 106 
158 642 155 94 110 128 
323 812 246 217 154 122 
291 485 249 122 124 135 
236 167 235 143 39 29 
277 130 259 95 78 61 
33 297 215 143 117 100 
285 694 166 159 158 164 
238 164 235 142 30 19 
225 647 159 83 106 127 
222 156 259 125 115 110 
148 297 226 136 132 133 
102 332 256 100 110 132 
258 365 317 88 101 124 
115 759 259 104 121 140 
53 320 299 52 40 58 
281 290 248 143 153 170 
363 210 301 142 61 57 
390 731 231 189 211 239 
231 919 367 103 80 65 
260 522 321 83 97 117 
258 641 189 78 97 116 
315 391 260 142 129 124 
79 321 270 137 34 17 
94 229 262 56 58 78 
176 869 355 147 114 92 
282 482 237 130 137 153 
280 396 245 47 76 105 
308 652 313 76 108 134 
93 591 302 88 109 148 
345 196 283 132 98 100 
186 506 332 125 132 147 
211 721 339 146 116 98 
339 642 237 66 99 128 
214 348 261 130 145 163 
185 502 334 106 113 144 
156 394 234 69 94 118 
129 798 297 139 120 121 
316 599 274 113 99 87 
367 190 293 102 39 60 
136 799 212 159 7 45 
173 977 332 76 53 37 
57 470 304 187 154 119 
102 753 186 178 188 224 
377 701 278 120 134 158 
178 700 162 103 135 207 
130 521 356 103 126 168 
172 210 283 82 35 57 
197 213 264 74 48 50 
164 885 354 133 104 81 
260 211 288 36 63 83 
183 161 264 98 92 95 
327 159 259 132 102 71 
153 937 311 102 70 62 
188 901 387 159 127 101 
184 520 348 87 102 127 
154 114 292 113 92 70 
60 685 193 103 124 154 
226 854 302 162 121 92 
251 472 314 86 96 109 
305 219 333 104 36 38 
242 389 305 49 76 115 
295 403 352 107 135 177 
351 624 254 86 79 74 
78 496 333 189 160 130 
67 274 249 170 37 3 
370 638 237 121 134 152 
353 142 282 139 109 82 
271 571 313 88 122 156 
258 615 229 63 76 90 
297 345 331 89 71 89 
270 647 205 79 88 101 
109 749 250 87 98 120 
61 266 275 127 64 18 
336 326 320 187 153 114 
191 392 238 71 102 129 
60 647 217 98 100 104 
77 259 292 106 106 111 
346 753 205 176 11 65 
301 647 312 94 124 151 
180 272 279 128 127 132 
102 639 181 104 110 119 
184 486 345 104 118 147 
341 746 278 95 89 87 
131 825 235 97 101 108 
272 474 228 133 131 135 
350 156 261 141 118 99 
74 640 328 96 83 71 
188 873 264 192 145 113 
85 554 313 88 104 151 
131 565 350 95 107 136 
267 330 321 70 99 124 
236 173 236 143 39 38 
311 620 291 35 53 76 
344 667 295 105 138 169 
175 301 296 100 60 68 
374 647 239 65 66 68 
239 863 309 152 112 81 
310 224 319 96 0 42 
229 545 318 63 85 117 
271 841 243 249 187 151 
295 611 245 88 104 121 
227 976 345 119 98 78 
313 227 305 50 48 55 
186 695 160 107 126 207 
225 177 239 132 55 47 
184 462 215 81 96 115 
393 662 228 74 92 110 
268 115 260 98 79 60 
114 515 243 146 143 146 
235 151 261 126 78 64 
203 424 225 141 138 139 
76 626 302 98 110 125 
94 802 257 163 9 39 
215 335 288 110 65 18 
324 712 182 94 107 123 
195 604 337 81 128 166 
179 667 342 156 170 189 
138 835 275 173 135 87 
316 412 266 133 95 113 
247 700 160 93 139 211 
333 341 298 189 159 127 
159 321 313 93 98 108 
101 417 274 74 83 101 
233 193 265 77 84 92 
216 614 331 160 152 151 
93 660 296 135 104 108 
74 697 208 152 104 88 
151 62 290 119 100 81 
63 654 234 70 40 59 
294 501 322 114 128 149 
227 181 238 126 49 46 
251 795 207 187 146 95 
226 182 239 132 45 31 
170 691 342 137 161 188 
161 539 213 84 101 119 
312 145 323 128 86 61 
158 526 214 138 148 162 
266 816 278 205 148 122 
106 713 219 85 93 110 
224 711 337 128 120 126 
330 374 305 148 78 88 
63 265 278 100 103 110 
160 944 304 115 90 71 
155 45 299 128 104 88 
321 605 261 111 103 97 
176 281 234 121 144 170 
103 781 262 119 132 150 
131 755 283 67 79 104 
358 655 303 111 128 149 
151 656 316 128 135 160 
149 370 232 101 129 191 
221 573 203 107 104 104 
231 178 237 114 48 68 
353 625 257 99 85 72 
53 432 306 120 137 157 
103 418 327 114 108 117 
198 564 347 127 154 183 
259 843 263 214 157 127 
160 693 160 89 133 196 
128 220 292 80 37 41 
368 640 222 106 129 156 
133 826 233 57 51 72 
156 899 331 100 75 57 
277 560 309 102 128 180 
145 528 345 74 90 128 
268 220 291 90 44 61 
346 225 306 72 102 126 
59 430 320 160 90 90 
168 965 336 107 78 57 
166 866 323 145 109 81 
135 645 311 100 113 145 
300 384 353 120 133 168 
63 639 230 69 81 96 
109 635 333 85 106 143 
154 552 348 96 119 143 
222 917 266 103 85 69 
159 901 361 150 117 91 
145 74 271 118 100 83 
400 675 216 152 161 177 
278 547 326 130 142 162 
219 822 295 179 121 100 
234 176 237 131 44 49 
160 629 330 57 88 135 
225 784 312 199 147 121 
201 577 195 103 109 118 
228 179 261 60 80 99 
73 679 230 167 114 91 
98 405 276 112 98 124 
251 712 166 201 196 214 
274 376 252 120 121 125 
253 383 253 72 91 109 
87 245 286 90 90 101 
101 615 213 104 110 118 
233 181 238 116 51 73 
183 11 299 108 89 71 
167 444 224 72 99 127 
162 424 230 94 119 148 
186 283 281 99 114 132 
71 370 309 134 132 138 
260 527 323 69 87 109 
39 303 227 162 64 0 
216 908 263 122 93 71 
162 955 313 153 115 86 
80 335 297 65 95 119 
235 180 238 136 45 52 
140 692 301 102 120 151 
272 727 174 193 200 216 
235 832 285 164 114 89 
282 436 241 88 115 151 
70 649 265 107 73 74 
414 687 229 84 128 200 
116 507 352 157 139 122 
156 261 305 67 91 111 
143 646 320 100 109 141 
252 473 221 136 137 143 
266 642 224 65 59 61 
215 267 279 86 92 104 
193 607 338 81 133 170 
125 818 286 38 26 42 
236 178 236 138 38 23 
319 309 281 70 97 120 
239 901 344 104 82 62 
82 660 303 180 121 109 
88 570 338 114 139 175 
355 246 293 105 55 71 
169 511 345 82 107 131 
177 461 342 91 111 143 
205 523 196 106 122 143 
179 484 207 114 122 135 
99 386 317 112 125 142 
255 250 244 159 43 81 
284 531 319 73 95 136 
192 386 245 66 102 132 
166 655 328 60 52 102 
258 353 317 81 93 118 
180 865 293 155 113 86 
104 657 261 81 72 83 
66 301 236 71 45 51 
164 506 342 70 88 111 
53 405 306 105 72 79 
86 423 315 155 135 114 
186 470 310 95 110 131 
65 210 283 116 103 92 
275 603 245 60 72 85 
133 665 215 92 102 128 
202 530 357 113 131 152 
239 180 236 161 45 20 
75 321 299 109 29 56 
123 746 181 128 155 204 
333 732 281 128 108 97 
139 513 222 160 156 157 
138 668 157 177 173 178 
281 754 305 187 140 113 
159 98 259 101 78 49 
346 254 284 135 21 63 
311 763 199 96 117 136 
235 701 161 79 160 215 
91 706 213 74 82 116 
317 263 320 132 104 91 
70 360 254 80 59 121 
106 330 315 98 111 127 
274 712 167 139 165 203 
285 796 213 178 147 115 
230 376 294 47 83 116 
51 239 292 150 70 8 
189 558 209 119 121 126 
319 435 331 112 93 78 
196 25 320 174 141 140 
200 492 301 91 107 129 
326 343 328 180 149 114 
241 20 261 147 119 103 
167 905 303 131 82 55 
187 152 264 54 78 98 
155 612 337 64 74 95 
287 532 324 39 62 101 
294 325 251 77 113 143 
351 708 202 26 51 79 
124 614 193 85 110 133 
175 360 307 82 96 117 
244 494 318 109 130 158 
225 445 304 116 125 140 
168 285 289 126 123 125 
84 525 339 162 89 64 
326 329 290 126 128 134 
76 283 297 70 102 128 
289 380 335 33 60 99 
259 637 213 91 95 102 
140 527 346 97 109 126 
57 370 296 142 141 144 
120 165 279 102 92 82 
91 407 313 118 20 56 
53 355 308 83 117 145 
148 621 330 69 86 120 
221 509 309 127 130 140 
97 462 329 119 23 52 
227 185 241 137 33 34 
188 851 239 238 169 130 
182 858 297 153 112 84 
368 730 201 175 182 197 
353 768 227 96 102 112 
175 278 283 130 129 133 
371 689 288 141 165 192 
163 944 364 91 73 58 
147 114 259 97 80 61 
223 258 247 77 102 125 
62 260 247 87 56 48 
230 556 204 108 122 156 
250 850 264 213 159 131 
318 205 325 82 21 23 
58 469 300 204 176 150 
221 968 352 86 65 50 
241 172 268 103 74 66 
87 237 258 51 60 102 
330 392 324 201 170 140 
228 937 274 76 61 49 
315 197 284 86 84 90 
226 188 244 116 34 32 
211 426 229 100 113 128 
145 625 167 82 104 129 
268 393 323 57 81 120 
318 230 328 25 55 108 
91 449 281 28 51 82 
191 291 241 102 129 159 
372 686 220 72 92 111 
227 191 245 106 50 58 
191 453 309 62 88 124 
74 685 223 166 112 90 
79 709 210 73 95 137 
77 756 196 158 168 214 
316 272 337 133 124 120 
313 446 282 115 133 166 
246 258 292 140 135 137 
322 311 333 144 130 117 
267 650 187 98 101 106 
303 189 256 34 63 95 
164 870 337 134 96 73 
339 644 238 64 93 119 
230 914 281 76 57 47 
198 401 232 102 115 131 
54 437 314 185 163 143 
230 856 299 158 116 87 
230 187 241 129 48 50 
247 638 329 96 80 64 
149 295 324 74 107 133 
356 148 293 140 66 7 
126 644 309 90 98 134 
200 679 336 87 103 120 
321 685 212 118 115 115 
119 827 249 106 112 158 
268 201 238 115 59 52 
214 399 290 88 107 127 
306 210 292 114 40 61 
336 188 288 81 71 81 
211 441 223 122 126 133 
78 655 293 187 130 116 
71 698 174 184 181 189 
244 896 316 131 86 63 
209 972 365 127 104 82 
212 720 338 125 102 92 
111 657 294 103 89 102 
305 742 185 106 127 177 
153 365 230 145 156 190 
404 662 249 73 69 67 
262 618 238 47 51 57 
243 528 320 94 113 134 
57 320 294 115 58 54 
230 191 244 130 49 69 
70 697 176 171 172 182 
89 757 193 163 168 209 
312 377 257 151 131 113 
280 499 335 131 141 168 
232 185 241 129 56 58 
228 828 222 214 182 155 
266 809 283 199 142 116 
321 713 301 108 115 133 
41 300 224 171 59 12 
259 147 230 136 110 78 
297 367 351 121 132 147 
112 779 270 133 54 56 
253 541 326 46 70 104 
153 256 236 152 140 136 
276 149 278 50 67 93 
117 320 326 98 114 131 
331 274 322 73 98 119 
116 737 242 66 79 103 
389 700 270 150 177 207 
174 14 286 96 82 67 
150 524 217 174 166 165 
77 667 261 176 120 100 
336 708 285 98 42 52 
69 733 200 44 54 123 
243 570 327 88 108 157 
146 86 273 112 93 74 
128 643 345 87 124 161 
235 686 156 134 161 196 
289 663 202 66 85 105 
71 679 227 165 114 89 
258 898 341 141 115 91 
234 188 241 127 52 46 
315 288 261 115 122 133 
165 406 229 66 95 121 
96 296 290 76 76 91 
111 532 349 118 108 108 
287 447 346 80 108 175 
94 290 259 108 86 90 
170 956 305 152 118 83 
283 590 274 51 66 79 
130 153 278 83 72 63 
92 455 278 59 78 107 
129 391 235 165 169 185 
388 731 246 191 199 215 
337 794 238 181 115 85 
236 187 241 115 45 46 
61 658 228 112 108 127 
317 608 249 102 96 92 
233 173 264 63 70 84 
285 710 167 171 170 186 
157 732 339 40 50 113 
116 291 240 113 111 112 
237 188 241 110 52 65 
229 594 330 177 174 179 
104 555 280 122 124 132 
158 708 167 165 121 142 
287 748 307 121 131 145 
143 536 220 151 151 157 
210 792 310 186 139 120 
302 655 314 95 125 152 
324 308 288 113 122 135 
110 715 220 88 95 105 
92 665 233 111 79 68 
226 463 221 120 120 123 
240 960 333 138 107 79 
79 398 308 95 114 135 
165 874 350 152 118 92 
115 182 280 147 65 7 
239 190 240 98 47 79 
85 760 197 127 138 215 
286 600 265 91 85 81 
146 690 235 44 37 114 
82 769 214 97 135 176 
128 580 232 80 91 103 
196 854 358 143 114 88 
76 334 271 109 14 46 
245 163 231 128 119 119 
277 564 221 149 148 152 
65 341 313 102 97 115 
303 146 275 107 97 88 
381 740 256 184 121 116 
168 510 345 102 121 141 
109 655 207 37 51 65 
313 340 339 128 108 97 
86 781 231 120 124 168 
144 580 215 79 90 103 
244 685 157 190 189 198 
258 79 222 131 107 82 
199 591 336 141 98 110 
128 404 331 60 87 123 
123 531 356 109 135 170 
167 576 183 122 120 122 
178 30 283 50 35 31 
76 293 297 98 96 104 
171 365 310 96 109 127 
336 614 271 120 100 79 
159 434 340 137 139 148 
222 891 369 145 114 85 
63 643 222 69 77 90 
97 499 339 172 145 116 
79 324 295 103 41 66 
66 367 257 154 52 89 
288 531 257 85 109 138 
148 619 172 83 105 126 
375 675 288 133 156 182 
278 439 327 47 72 114 
151 925 314 91 72 59 
304 197 287 123 78 67 
189 41 285 109 88 66 
317 610 244 94 88 85 
213 403 239 37 74 106 
242 556 326 92 108 149 
107 629 340 128 136 150 
109 302 309 124 124 130 
107 430 336 167 143 118 
219 964 302 148 111 79 
260 231 293 124 121 123 
192 601 175 78 102 126 
286 549 242 112 129 149 
243 140 260 74 76 82 
176 62 306 124 97 69 
209 540 354 129 148 172 
240 383 252 131 146 173 
243 165 232 124 42 41 
257 341 262 141 137 139 
166 304 300 98 85 91 
165 703 164 204 198 209 
311 211 261 142 58 81 
242 166 234 150 48 23 
222 256 247 87 116 142 
134 681 159 149 87 99 
333 200 289 74 63 58 
177 853 345 134 108 86 
224 967 314 128 98 74 
232 965 344 101 84 69 
271 391 323 38 69 115 
327 649 304 99 128 156 
144 685 160 193 188 200 
139 429 242 44 85 128 
324 245 301 78 40 43 
189 742 336 132 122 126 
184 481 207 96 110 129 
38 285 225 129 89 58 
46 280 226 153 88 45 
245 166 233 125 35 36 
50 232 289 147 110 64 
176 524 362 134 149 169 
147 187 299 81 43 59 
134 279 321 103 112 124 
61 485 318 182 153 125 
328 233 278 81 117 146 
190 392 238 68 99 126 
182 912 289 72 55 41 
249 570 213 115 115 118 
258 265 246 178 168 166 
252 256 246 153 146 149 
241 168 235 155 36 15 
250 331 300 125 123 126 
305 609 246 79 73 72 
240 171 235 155 28 17 
263 838 231 249 186 151 
160 176 294 91 35 32 
242 168 234 154 40 17 
159 370 316 132 130 133 
335 709 284 124 74 79 
176 141 276 141 73 6 
242 170 234 153 36 21 
76 692 216 165 110 91 
152 70 289 121 99 80 
284 423 334 35 58 105 
112 475 256 66 86 108 
209 292 247 181 180 190 
192 883 376 122 100 79 
123 347 247 114 111 115 
241 172 235 154 32 13 
327 612 278 116 95 74 
186 521 203 111 120 133 
326 778 212 179 163 155 
84 515 338 173 69 6 
271 274 244 128 139 160 
302 337 340 131 100 70 
277 727 174 191 197 220 
289 148 308 76 41 49 
90 191 275 135 121 111 
242 412 308 69 89 133 
350 783 247 197 173 153 
242 174 235 152 42 14 
215 818 298 177 116 97 
173 210 282 80 37 58 
166 166 284 124 19 37 
151 491 218 99 109 123 
181 69 301 124 94 73 
234 876 287 150 112 90 
151 62 289 119 100 82 
207 656 339 68 62 60 
187 894 385 155 123 97 
286 144 301 103 71 58 
116 559 353 97 124 173 
123 360 343 104 103 115 
78 683 230 167 111 90 
314 439 284 107 122 158 
314 631 237 69 84 101 
304 192 297 70 69 79 
140 347 330 111 108 108 
164 330 227 159 153 154 
197 964 372 83 59 44 
60 279 264 133 91 88 
115 532 352 117 113 118 
199 871 365 154 114 97 
280 591 287 61 64 68 
96 662 238 94 71 64 
348 210 280 155 73 74 
165 684 340 126 147 170 
173 654 333 63 63 73 
311 431 263 89 115 148 
69 516 322 187 74 10 
124 455 249 81 100 120 
226 279 280 74 110 140 
148 509 346 59 92 147 
143 334 337 88 116 142 
125 712 219 121 124 133 
237 162 264 87 83 88 
65 636 294 158 162 174 
212 366 288 97 117 148 
165 823 288 110 92 79 
291 711 322 121 117 123 
67 301 238 69 44 56 
237 863 271 202 156 125 
310 227 322 79 61 73 
317 818 243 211 148 116 
167 189 284 32 42 70 
179 907 386 173 133 111 
228 721 172 139 183 219 
267 119 266 98 86 74 
120 626 179 96 113 131 
314 323 256 86 126 160 
306 215 324 111 29 13 
348 621 244 113 125 141 
104 639 179 106 111 120 
129 309 335 117 124 135 
153 154 296 149 69 8 
184 14 283 120 98 74 
286 525 320 113 127 147 
59 357 249 71 45 70 
279 558 226 135 136 142 
81 247 256 53 49 90 
78 332 297 67 84 103 
304 311 339 89 100 112 
121 422 349 169 125 83 
80 677 170 81 98 118 
200 732 340 134 116 112 
251 626 315 96 76 79 
156 408 332 96 113 131 
308 750 295 175 167 165 
226 391 255 69 98 128 
103 658 223 62 58 60 
268 148 274 88 63 69 
119 217 257 105 51 69 
68 744 193 102 110 182 
223 982 350 128 103 79 
334 354 304 155 74 102 
297 292 247 142 138 138 
125 416 351 156 58 19 
250 165 231 105 67 59 
220 924 263 120 91 69 
251 164 231 125 96 93 
61 662 209 60 69 104 
118 366 249 100 108 120 
168 906 380 162 127 104 
243 628 194 69 91 113 
297 651 228 91 114 142 
112 814 284 83 92 103 
94 758 236 84 99 132 
191 289 283 100 116 135 
229 977 335 98 71 50 
87 626 307 91 109 128 
168 862 323 141 106 79 
146 792 301 172 156 146 
98 638 185 99 102 108 
286 773 289 181 126 96 
89 683 232 147 100 82 
166 567 360 95 130 170 
229 414 239 43 76 105 
364 630 238 75 109 139 
311 828 254 235 161 133 
179 446 220 100 113 128 
152 642 329 133 142 182 
229 578 325 111 126 145 
184 44 282 109 90 72 
94 665 259 118 86 75 
252 164 231 125 99 94 
252 165 231 110 71 66 
285 185 286 85 40 25 
153 910 351 107 86 69 
132 702 165 201 195 208 
185 841 335 129 103 80 
369 156 293 124 103 88 
175 546 198 69 93 116 
170 519 363 76 106 135 
193 757 327 151 138 133 
211 589 337 157 173 196 
100 259 283 118 40 63 
109 552 349 130 144 172 
86 769 201 185 191 224 
278 563 291 100 121 156 
194 585 187 130 129 132 
255 167 231 95 36 34 
174 633 329 116 112 121 
178 973 313 115 90 60 
211 332 289 172 126 58 
220 955 370 83 68 56 
354 148 270 189 102 26 
317 411 272 170 157 152 
278 550 314 154 162 182 
51 232 285 109 95 85 
83 659 299 190 130 115 
200 590 335 172 164 169 
69 426 283 101 130 160 
157 807 215 104 96 127 
211 626 160 106 116 130 
170 62 305 124 96 77 
302 185 291 53 82 105 
113 636 257 78 90 109 
168 95 266 109 81 51 
242 917 311 87 70 56 
307 204 335 122 39 26 
284 799 279 194 143 109 
272 656 184 116 115 118 
233 644 341 115 67 30 
271 616 307 142 104 89 
203 463 303 132 135 145 
177 513 206 166 169 179 
231 890 355 166 121 91 
202 840 339 132 104 79 
375 697 213 85 97 109 
197 957 380 85 68 58 
266 79 238 109 91 71 
249 690 336 50 81 108 
189 778 315 79 90 111 
307 708 315 115 95 78 
160 946 353 90 72 63 
200 419 225 102 112 127 
268 823 272 195 137 110 
96 793 216 206 215 232 
230 229 271 138 114 85 
273 557 218 100 114 129 
115 831 268 171 164 166 
166 945 368 91 73 60 
245 895 318 121 79 53 
298 388 253 103 113 133 
249 175 233 140 47 39 
282 469 343 90 111 165 
217 784 312 192 141 121 
94 658 173 75 95 118 
141 732 319 135 155 179 
177 83 274 101 81 57 
186 373 299 100 113 130 
198 554 356 140 159 192 
126 827 242 161 141 122 
54 396 298 79 126 162 
155 401 330 63 89 115 
153 290 228 134 128 127 
164 686 340 133 152 174 
306 280 322 80 96 114 
52 319 229 80 82 113 
103 512 264 78 107 137 
314 434 337 95 98 143 
324 262 288 111 72 84 
118 324 248 80 141 187 
316 422 273 65 103 140 
325 723 180 117 128 162 
70 440 323 200 173 145 
285 291 313 107 109 115 
278 634 237 100 101 106 
253 175 232 129 46 39 
190 962 301 159 118 84 
114 732 173 196 185 200 
82 665 336 159 103 98 
275 620 244 66 65 67 
83 470 289 103 117 147 
191 690 158 72 101 204 
221 830 224 203 181 165 
289 538 280 104 124 148 
165 963 336 116 90 68 
338 201 276 128 91 94 
196 708 167 136 168 218 
240 802 300 192 133 111 
229 484 212 132 133 139 
298 496 326 97 123 157 
222 854 307 157 120 87 
280 581 257 148 144 147 
265 755 312 204 150 119 
278 485 231 102 117 136 
193 469 211 123 124 129 
313 386 258 160 142 124 
283 234 246 102 45 54 
238 406 305 62 85 122 
134 725 237 72 86 124 
266 402 243 71 95 117 
289 384 250 126 126 131 
331 365 302 143 124 141 
306 184 256 79 69 73 
292 511 323 67 88 136 
269 647 204 90 94 104 
296 312 251 108 139 186 
84 201 269 172 148 127 
252 439 312 71 93 128 
342 791 242 152 118 72 
172 997 323 193 170 155 
333 370 315 168 34 79 
348 757 210 216 182 136 
234 283 281 84 116 143 
174 805 213 163 130 114 
350 157 262 138 117 100 
250 318 257 163 167 181 
204 745 188 153 169 198 
72 650 204 88 111 133 
206 889 259 191 132 88 
338 798 252 128 128 135 
50 660 218 74 100 149 
65 294 264 114 81 78 
169 589 174 76 96 118 
221 705 163 73 156 219 
282 648 319 66 60 67 
215 271 281 81 115 144 
97 292 289 61 74 91 
132 347 347 84 122 153 
173 444 339 109 123 140 
73 647 299 182 132 119 
305 398 254 113 124 142 
312 284 348 154 159 170 
235 939 360 84 70 54 
279 357 330 78 93 118 
207 663 343 121 106 94 
190 839 326 129 101 78 
247 177 233 150 42 14 
218 281 244 191 188 194 
307 190 308 60 62 66 
86 630 311 42 76 100 
316 200 332 110 56 80 
174 191 272 91 43 42 
289 461 339 115 137 185 
295 490 260 154 167 191 
320 399 280 174 75 10 
46 282 228 174 87 31 
78 642 337 102 88 74 
156 900 340 138 105 79 
287 711 324 113 111 121 
128 629 173 76 67 62 
278 577 285 97 119 142 
112 395 247 97 93 93 
182 765 197 132 29 54 
127 758 271 105 120 138 
247 181 234 154 38 16 
247 181 235 153 37 17 
246 182 235 152 40 16 
372 733 265 167 87 93 
160 247 310 90 65 81 
125 494 233 92 106 123 
233 26 256 142 128 124 
285 529 311 106 126 171 
376 680 222 75 96 118 
308 241 329 76 63 72 
170 562 192 115 113 114 
179 632 331 160 155 162 
273 445 236 118 124 133 
354 263 299 71 72 77 
107 242 284 87 37 50 
157 388 325 67 97 122 
199 12 305 147 122 103 
351 210 276 167 57 69 
117 567 248 87 95 106 
168 294 293 118 116 120 
76 755 195 170 187 224 
363 764 237 70 48 105 
194 281 281 112 118 128 
290 418 245 50 92 128 
317 310 275 77 109 136 
169 138 262 126 67 6 
286 651 325 70 64 61 
215 540 335 100 122 146 
196 992 361 143 111 83 
315 346 339 131 20 61 
253 924 353 102 83 69 
237 455 315 103 127 154 
206 606 177 84 98 113 
198 505 319 98 112 129 
286 139 308 142 66 7 
254 632 313 132 81 79 
238 400 249 73 96 117 
286 566 259 119 126 137 
254 381 255 98 104 113 
144 104 275 95 78 61 
139 731 314 119 107 130 
343 253 313 81 114 140 
100 618 326 136 147 164 
85 694 220 146 97 82 
172 229 293 77 38 35 
124 772 194 205 208 222 
50 307 240 113 117 124 
140 294 229 118 120 126 
138 283 324 91 106 123 
316 359 260 108 128 148 
187 805 303 179 129 113 
361 629 229 112 131 151 
243 190 238 95 46 78 
78 760 209 49 70 160 
244 184 236 145 34 10 
244 185 236 145 35 17 
329 330 293 120 132 150 
93 376 308 114 119 130 
297 260 314 111 112 117 
333 701 201 131 127 128 
122 809 290 105 66 68 
245 186 236 147 43 16 
310 241 310 56 84 107 
97 222 261 54 78 102 
137 721 171 142 172 214 
71 641 218 71 72 75 
221 972 323 105 80 59 
133 471 234 119 121 127 
168 124 292 113 91 70 
258 843 265 207 152 124 
118 585 354 72 104 164 
290 494 253 99 110 152 
186 489 343 157 158 167 
283 206 246 110 36 44 
226 485 307 139 139 146 
163 632 158 86 107 128 
105 702 212 77 89 115 
244 190 237 105 44 68 
211 878 366 90 61 52 
71 693 208 159 108 88 
324 606 261 112 105 99 
225 531 315 141 141 146 
144 671 258 78 90 133 
300 472 317 129 141 164 
201 390 246 73 101 126 
271 314 319 96 103 113 
139 633 165 84 106 129 
