ply
format ascii 1.0
comment Created by CloudCompare v2.11.1 (Anoia)
comment Created 2/28/22 9:43 PM
obj_info Generated by CloudCompare!
element vertex 2022
property float x
property float y
property float z
property uchar red
property uchar green
property uchar blue
end_header
386 678 215 98 114 133 
73 284 297 62 90 115 
124 407 348 182 157 131 
260 495 323 110 123 139 
105 554 349 82 102 155 
164 78 252 163 120 94 
322 702 293 140 63 81 
164 79 253 161 121 94 
136 244 315 106 33 32 
387 660 217 167 168 179 
272 821 271 193 141 110 
146 282 233 83 99 116 
185 205 258 114 40 34 
361 719 284 165 101 92 
118 829 254 189 176 168 
61 363 257 35 61 99 
112 603 229 74 88 102 
215 452 301 75 90 111 
369 157 268 170 85 10 
166 78 255 152 118 89 
168 64 249 153 110 45 
226 481 211 124 127 135 
168 525 212 94 117 147 
232 696 334 71 50 52 
93 658 177 105 102 107 
86 516 337 174 75 9 
291 598 293 140 104 88 
241 576 210 135 135 140 
168 66 248 161 112 63 
212 419 228 99 113 130 
154 336 322 130 102 74 
251 913 353 116 97 79 
167 664 337 46 54 93 
90 392 272 110 121 131 
402 666 236 55 72 88 
326 763 211 90 114 137 
169 67 250 158 116 78 
135 469 353 140 122 106 
182 860 258 214 159 127 
145 378 345 139 143 153 
274 726 180 170 195 217 
173 191 280 85 36 37 
159 583 203 86 96 107 
331 226 295 72 64 68 
85 342 264 97 113 133 
135 577 225 104 106 110 
171 64 255 143 111 73 
174 383 245 65 91 113 
170 66 252 150 113 77 
86 360 303 69 101 126 
48 376 266 143 91 91 
183 852 305 109 84 56 
139 829 235 137 85 118 
130 382 349 164 165 173 
210 983 309 146 114 76 
181 833 228 162 138 113 
204 410 292 68 94 124 
277 111 256 103 86 68 
162 379 247 67 90 111 
51 370 280 129 114 119 
53 335 301 87 61 67 
265 269 305 77 106 131 
257 266 299 100 73 78 
111 288 243 109 96 79 
76 292 275 52 47 59 
299 624 308 94 111 148 
189 510 351 113 127 146 
93 293 256 135 118 112 
256 628 311 140 106 94 
73 456 284 121 139 164 
258 291 255 175 173 179 
97 305 251 161 165 177 
154 929 354 87 69 56 
252 336 302 98 107 120 
136 493 228 96 108 124 
268 453 234 137 139 145 
235 600 325 127 151 184 
125 737 241 72 82 117 
310 462 286 144 148 165 
144 633 171 82 103 126 
63 302 261 110 72 70 
216 786 312 187 136 114 
101 221 283 53 78 103 
152 233 302 84 31 41 
219 884 366 120 99 76 
299 810 226 117 115 119 
124 557 238 61 75 91 
189 906 278 94 71 54 
164 463 225 66 91 113 
140 678 230 148 146 152 
283 562 260 125 131 142 
297 290 330 96 58 48 
131 765 301 138 80 90 
62 692 174 134 135 143 
211 159 267 118 112 117 
216 555 355 140 149 187 
123 675 155 146 148 157 
321 396 268 125 94 56 
310 454 338 90 118 172 
253 732 329 156 151 153 
309 143 298 72 56 36 
123 821 235 110 74 98 
201 133 260 221 95 13 
195 31 285 122 98 71 
174 398 316 80 100 125 
343 702 195 68 85 102 
314 207 296 119 42 57 
200 528 372 105 126 149 
348 212 299 74 53 50 
179 515 365 86 113 141 
92 570 296 107 113 129 
64 474 294 183 167 157 
304 236 253 99 99 103 
197 192 257 48 61 97 
305 452 262 88 117 149 
191 516 356 92 114 136 
209 804 305 177 124 104 
85 432 320 167 146 126 
281 545 289 106 122 155 
106 405 328 130 129 134 
257 247 249 129 77 95 
93 790 213 87 82 144 
168 808 298 155 114 119 
162 81 253 159 120 92 
353 145 278 142 114 96 
168 945 369 108 88 67 
249 676 162 174 170 176 
89 266 275 111 46 30 
250 302 260 93 149 195 
239 815 216 154 157 166 
228 816 218 104 133 160 
275 462 339 48 68 106 
70 324 306 112 84 77 
329 401 328 189 105 16 
287 473 247 116 123 144 
136 706 280 61 41 91 
163 82 255 155 119 90 
277 252 241 129 55 77 
188 655 156 166 164 172 
274 513 337 77 94 159 
96 432 262 79 92 111 
121 223 291 83 38 51 
254 716 173 132 166 218 
268 643 222 77 103 126 
312 822 264 210 147 119 
381 737 236 230 43 76 
355 149 268 171 118 71 
77 321 280 130 68 70 
160 86 252 138 102 73 
143 692 238 103 112 143 
371 187 302 49 46 62 
131 508 229 123 126 133 
64 683 219 151 104 81 
327 225 336 50 59 102 
161 86 254 136 103 69 
213 339 266 102 36 52 
177 673 156 146 163 189 
67 638 228 98 86 88 
164 80 255 157 119 88 
160 88 254 130 98 66 
268 644 329 129 114 100 
282 764 295 178 129 98 
169 927 378 112 87 73 
274 481 344 116 140 180 
260 672 337 196 139 54 
202 255 279 101 113 128 
121 429 348 165 141 117 
235 248 257 156 71 92 
112 671 226 72 75 81 
222 26 223 110 94 77 
100 672 246 94 75 72 
101 569 270 75 98 126 
186 657 341 96 119 143 
270 562 220 150 152 161 
67 684 228 166 115 90 
183 737 180 175 193 216 
223 29 219 113 96 78 
286 532 328 85 108 156 
166 310 236 134 121 118 
226 612 192 76 72 71 
202 534 373 88 114 185 
134 335 236 80 112 139 
179 1004 344 128 102 75 
128 313 337 133 119 105 
323 396 340 186 82 7 
256 407 246 69 91 116 
285 496 249 181 178 184 
64 294 259 99 107 116 
200 131 262 223 88 14 
229 296 258 137 157 194 
269 66 239 101 86 71 
330 189 284 108 87 83 
225 849 297 160 117 88 
87 562 307 84 98 145 
164 585 357 131 156 206 
286 221 243 149 64 46 
328 394 307 194 165 136 
258 498 322 91 110 131 
106 215 269 62 74 98 
353 295 315 85 126 161 
222 29 220 114 96 75 
223 793 308 187 135 112 
351 196 295 67 54 53 
307 147 309 68 37 39 
277 218 293 95 25 43 
155 118 292 115 93 69 
223 438 302 104 115 130 
135 724 312 128 148 171 
259 813 283 196 139 116 
155 444 236 43 82 114 
144 518 350 101 117 148 
268 81 251 103 85 67 
304 323 255 77 118 154 
332 687 290 62 61 86 
351 254 314 75 114 144 
310 314 356 97 117 138 
233 332 268 195 141 66 
160 682 335 129 147 168 
196 818 299 177 121 104 
155 745 334 175 67 78 
102 753 181 166 180 214 
342 341 318 205 169 130 
212 664 350 184 156 126 
218 356 264 114 67 78 
285 127 255 99 80 64 
89 420 318 125 25 60 
269 809 280 205 148 118 
339 785 236 186 164 146 
179 508 362 142 148 162 
238 416 237 51 82 110 
335 741 281 30 30 43 
67 310 234 83 43 47 
140 397 352 117 143 170 
206 825 223 147 143 147 
80 662 296 170 116 102 
64 312 271 59 78 98 
164 553 355 146 160 183 
157 124 256 103 79 49 
134 609 197 91 106 122 
156 709 163 205 197 209 
364 708 288 177 72 82 
279 383 334 90 112 137 
273 828 265 211 154 123 
309 136 319 138 67 7 
293 310 251 179 173 175 
194 222 259 59 54 79 
231 739 187 168 168 189 
166 466 223 79 98 118 
168 785 198 204 151 68 
154 272 321 137 134 137 
166 742 179 129 178 217 
187 272 244 169 160 157 
82 675 324 180 121 116 
150 397 244 63 89 115 
223 4 239 79 72 67 
75 657 328 176 125 121 
352 632 229 123 140 166 
324 152 328 90 54 74 
183 172 272 130 75 69 
107 631 191 91 98 106 
282 382 256 118 121 127 
95 581 295 114 112 117 
187 373 258 105 109 116 
130 543 229 139 142 151 
327 363 281 150 60 61 
206 540 368 124 144 195 
63 298 255 107 110 118 
361 170 267 124 107 111 
224 640 336 65 65 71 
76 617 244 92 104 118 
119 446 253 120 133 156 
85 301 269 82 47 48 
300 155 240 157 139 120 
83 497 283 148 149 157 
246 951 334 153 123 90 
220 8 235 86 78 73 
347 658 310 134 162 191 
217 927 271 111 87 67 
153 633 162 124 123 125 
57 283 243 113 99 87 
261 348 314 126 125 130 
163 672 321 71 91 141 
173 897 381 151 118 94 
322 220 343 86 33 31 
97 743 236 140 137 140 
169 541 358 86 110 164 
348 176 270 39 69 110 
211 224 274 121 105 101 
136 685 298 104 111 147 
263 516 225 96 121 165 
260 898 341 150 131 116 
124 443 351 122 131 144 
270 447 237 31 64 100 
131 822 231 77 78 81 
291 409 250 70 95 119 
253 320 298 129 129 136 
183 455 223 97 109 123 
223 9 236 80 75 71 
78 731 209 99 114 138 
358 204 278 179 93 87 
103 510 260 114 127 147 
212 681 160 135 159 198 
172 725 345 118 55 67 
153 704 338 133 151 173 
289 286 247 138 114 87 
196 13 302 152 128 110 
251 444 313 105 116 136 
101 637 191 86 97 110 
193 689 340 85 109 131 
81 711 211 82 93 122 
274 619 241 59 64 78 
48 672 205 122 131 182 
316 131 326 131 66 7 
86 632 215 83 112 137 
177 62 266 131 107 80 
303 607 247 73 63 62 
109 554 350 114 136 171 
141 306 231 152 146 146 
126 360 243 134 130 132 
280 487 240 115 126 146 
220 594 186 100 119 138 
121 815 227 196 85 84 
354 290 305 164 164 172 
328 210 291 102 63 74 
149 724 337 119 158 193 
296 246 247 56 85 117 
158 791 200 112 17 43 
220 7 243 81 73 66 
327 375 282 177 150 122 
266 361 322 93 108 129 
261 174 274 95 43 57 
348 148 273 150 122 99 
325 806 265 200 139 108 
320 258 264 106 24 51 
234 605 323 75 111 151 
294 136 262 129 79 57 
293 144 240 150 124 99 
254 797 211 191 160 130 
230 485 211 146 151 162 
325 789 227 150 132 115 
315 229 307 103 17 53 
333 752 279 158 138 125 
204 630 331 157 142 136 
62 693 205 149 101 83 
81 621 233 90 107 126 
205 275 282 81 110 135 
153 249 311 88 48 57 
309 406 345 136 119 103 
108 533 349 149 133 120 
263 409 321 106 114 129 
325 607 252 109 100 93 
85 295 274 82 31 47 
111 767 188 187 175 197 
312 766 212 206 159 109 
151 338 324 120 94 63 
347 687 297 90 88 131 
249 392 250 73 102 132 
204 664 346 95 104 116 
232 907 291 83 63 49 
121 343 338 87 117 142 
319 437 333 157 135 113 
346 768 271 212 169 118 
326 401 300 192 157 123 
184 261 280 134 130 132 
242 791 210 137 112 85 
321 249 330 113 105 102 
331 389 332 198 167 134 
166 344 314 133 44 81 
161 562 354 68 102 160 
208 319 266 147 36 55 
210 281 255 175 171 173 
162 780 311 175 159 150 
46 699 191 91 117 165 
193 519 366 98 119 141 
148 204 302 72 36 31 
157 892 348 160 120 94 
244 937 316 75 60 52 
294 793 218 174 146 119 
195 683 340 84 113 140 
190 479 339 114 128 153 
53 311 300 78 44 63 
166 302 302 86 92 100 
246 644 336 141 99 60 
171 766 191 119 134 163 
107 804 281 127 36 41 
221 363 291 93 115 145 
198 523 366 107 125 145 
303 667 208 128 128 133 
275 553 327 108 127 178 
222 10 244 87 78 70 
344 639 306 52 95 134 
322 377 342 189 158 126 
223 10 245 82 73 66 
257 254 298 132 130 133 
94 386 273 128 102 116 
87 778 248 127 148 170 
230 841 234 240 179 140 
91 342 303 71 94 115 
236 779 312 202 147 120 
374 711 202 118 131 155 
324 198 285 91 88 90 
311 180 308 27 44 90 
347 189 276 53 101 137 
249 596 221 75 88 102 
74 650 328 120 95 76 
196 725 341 107 96 90 
332 685 210 57 83 110 
171 568 202 112 112 114 
144 102 275 96 79 61 
137 301 233 135 138 151 
277 170 234 138 87 61 
200 30 299 151 133 123 
219 783 208 135 116 102 
111 281 244 108 111 118 
373 642 250 92 81 69 
149 572 348 158 166 180 
70 758 204 65 81 150 
134 717 277 75 97 129 
49 693 185 78 116 150 
237 847 238 253 196 166 
192 498 204 77 94 113 
239 410 308 55 83 125 
168 734 343 161 112 100 
244 359 267 123 94 71 
297 478 317 178 187 202 
56 441 284 115 129 153 
167 86 264 124 94 53 
273 838 242 250 189 151 
166 716 167 188 156 175 
194 345 296 142 89 106 
75 733 181 173 181 222 
211 125 261 212 94 27 
142 763 320 175 167 166 
150 697 328 124 140 159 
291 671 185 97 102 111 
186 732 342 116 98 95 
345 618 263 108 92 76 
354 223 281 64 45 73 
179 209 279 44 46 71 
131 696 214 90 102 145 
244 853 258 236 180 146 
285 429 345 50 69 110 
325 158 326 136 42 7 
167 244 283 69 91 110 
269 503 231 92 116 150 
172 573 342 64 102 138 
110 828 260 95 58 134 
165 481 340 106 116 139 
80 772 216 88 115 174 
324 406 309 191 140 90 
223 23 236 118 104 93 
258 501 322 111 121 136 
102 757 185 73 86 162 
133 599 349 160 170 188 
235 439 313 74 90 126 
283 734 187 179 192 214 
232 391 255 62 94 119 
254 224 291 134 129 130 
219 27 229 106 92 80 
119 409 345 170 146 122 
136 689 285 44 52 91 
222 965 352 85 64 48 
353 158 286 124 57 0 
242 484 217 94 109 127 
344 225 301 65 51 48 
132 835 274 195 157 114 
168 377 314 59 82 112 
145 269 322 128 121 123 
123 436 349 185 161 137 
129 665 322 130 94 92 
269 338 322 88 100 118 
310 420 260 126 136 157 
67 324 309 115 84 75 
335 735 283 88 80 86 
47 694 187 53 92 121 
64 389 270 172 161 171 
237 773 314 201 145 116 
237 406 306 71 93 122 
165 871 317 154 118 90 
85 528 284 137 138 146 
134 494 229 128 129 134 
101 672 245 92 74 71 
226 243 285 113 107 109 
129 483 236 122 125 132 
305 142 271 124 78 53 
124 651 164 99 112 128 
146 149 294 118 86 49 
218 29 230 117 104 94 
176 751 185 161 192 220 
185 144 276 120 111 111 
266 67 248 104 86 68 
271 798 213 156 141 132 
161 542 214 111 119 131 
218 30 230 122 109 100 
291 298 322 80 91 107 
163 627 162 84 103 122 
163 190 287 35 40 55 
87 627 267 121 130 143 
153 741 336 176 62 71 
166 622 163 103 114 128 
233 878 304 144 107 80 
310 346 335 120 79 58 
221 340 271 160 103 115 
59 440 310 121 131 144 
168 259 246 139 128 123 
43 700 189 81 102 140 
327 610 277 117 96 75 
147 259 238 167 155 149 
139 707 310 121 134 152 
301 320 253 89 134 172 
187 177 259 134 20 47 
328 403 324 207 167 116 
248 898 339 113 84 65 
130 663 332 147 110 99 
150 609 189 115 113 114 
188 481 331 96 110 139 
248 623 317 76 62 80 
121 345 253 87 113 139 
275 442 240 68 90 114 
145 716 332 125 148 172 
260 192 281 106 81 65 
190 254 278 125 124 128 
344 668 298 111 144 176 
189 395 235 73 99 123 
294 511 302 117 123 162 
88 471 268 72 98 132 
66 389 269 151 147 162 
220 26 228 104 89 74 
224 846 241 240 179 145 
56 423 305 151 153 162 
303 487 293 122 137 169 
117 485 245 89 104 121 
102 566 270 90 108 131 
245 941 319 97 74 61 
65 317 234 96 74 114 
130 818 226 124 126 135 
230 511 314 84 100 123 
230 596 329 143 153 173 
204 657 342 81 74 74 
64 297 263 74 57 78 
87 500 273 125 140 164 
294 820 229 202 144 110 
246 850 266 206 154 123 
306 286 327 74 85 98 
187 471 214 76 93 109 
150 382 322 57 80 106 
377 736 259 179 49 63 
219 28 234 132 117 106 
173 783 199 114 40 92 
221 915 377 141 109 85 
191 783 203 161 132 100 
174 581 182 119 115 114 
208 515 198 83 107 134 
233 876 306 154 115 86 
239 113 267 127 105 91 
161 26 314 155 118 104 
98 655 173 98 97 98 
78 311 269 89 37 47 
199 405 293 44 77 118 
249 760 200 108 129 150 
213 119 266 165 143 124 
79 679 247 165 114 93 
165 519 343 104 117 134 
140 349 328 108 108 114 
191 741 185 162 189 216 
146 261 317 95 39 60 
141 657 308 78 91 128 
277 433 330 38 71 118 
224 495 311 102 112 126 
334 159 268 128 111 96 
326 199 328 96 31 28 
262 345 268 143 146 155 
180 184 259 101 83 92 
342 209 292 51 54 58 
56 431 280 96 149 193 
271 593 297 63 74 86 
287 641 315 59 78 115 
296 472 339 104 127 174 
228 536 319 72 97 122 
222 25 234 119 105 94 
284 534 255 123 132 147 
184 445 310 73 93 129 
268 111 266 96 84 72 
305 365 356 129 132 159 
303 142 265 135 89 65 
222 25 236 123 109 99 
324 274 268 89 81 78 
338 696 202 73 92 111 
223 25 236 123 109 98 
234 863 303 157 115 84 
181 557 354 158 173 195 
258 350 310 82 94 117 
325 253 335 162 82 14 
158 671 319 92 103 144 
97 672 224 84 64 63 
290 651 326 75 89 104 
196 36 298 111 84 59 
326 770 215 174 139 114 
81 676 165 82 95 114 
242 835 278 172 122 97 
57 451 302 127 144 165 
148 598 201 89 99 110 
223 26 238 123 109 98 
285 789 281 190 139 107 
71 286 259 47 56 107 
223 263 283 150 149 154 
272 75 238 109 94 79 
175 19 326 120 109 102 
204 806 216 195 153 103 
283 810 219 130 132 138 
301 358 339 96 72 76 
265 763 306 193 140 109 
165 986 323 150 119 86 
321 690 193 94 99 106 
314 178 249 96 80 118 
227 417 233 52 81 107 
151 275 326 143 142 146 
219 568 203 79 78 78 
243 822 218 226 194 165 
264 100 222 121 101 81 
198 842 316 105 81 54 
283 496 337 120 134 159 
228 872 268 210 163 129 
90 651 196 120 124 132 
187 305 306 121 114 110 
82 492 331 187 158 128 
315 444 302 168 173 185 
254 394 315 52 78 118 
144 711 329 132 147 167 
196 796 308 187 137 118 
226 370 292 53 91 131 
109 394 252 107 88 70 
117 814 229 186 25 44 
107 394 329 112 126 144 
301 279 325 79 90 104 
150 355 230 156 154 158 
381 662 289 111 135 161 
223 26 240 120 106 97 
191 408 295 70 94 123 
54 663 223 83 76 96 
202 320 263 142 30 49 
223 26 242 117 104 95 
220 239 259 122 27 49 
177 430 325 139 139 144 
121 668 226 55 69 92 
96 602 261 88 112 134 
277 188 283 109 55 44 
86 546 292 87 102 136 
151 762 185 172 186 207 
228 874 272 202 155 122 
61 258 240 132 106 81 
58 711 180 92 100 150 
261 806 288 195 137 114 
262 507 225 116 122 132 
135 246 316 112 31 33 
165 603 338 99 121 148 
222 28 240 120 107 98 
210 662 348 168 145 122 
192 729 340 120 142 164 
222 29 241 117 105 96 
93 804 243 138 126 142 
156 636 332 85 128 165 
84 628 272 119 128 141 
299 286 248 134 121 110 
230 383 293 83 106 132 
215 909 251 124 98 72 
299 232 250 124 94 74 
199 468 305 141 140 144 
59 461 292 148 150 157 
254 385 257 80 98 115 
76 639 209 104 117 131 
170 612 336 83 122 159 
86 623 271 108 120 134 
364 744 220 187 183 194 
230 638 176 81 103 127 
320 241 267 136 124 120 
273 661 180 70 69 71 
201 29 291 169 141 131 
246 906 323 178 106 78 
162 567 358 146 165 189 
161 736 340 172 98 108 
309 294 347 79 115 145 
208 346 292 132 128 129 
149 138 292 105 95 86 
220 991 345 127 99 77 
238 908 310 93 74 58 
145 358 344 72 116 152 
316 231 344 95 86 98 
97 495 341 192 165 140 
226 836 287 155 111 84 
211 820 297 175 114 93 
156 587 202 81 88 96 
185 511 204 151 153 163 
192 971 368 90 68 48 
236 112 273 125 110 97 
259 839 265 208 151 122 
207 988 310 177 139 91 
176 12 293 101 85 69 
196 468 214 117 119 124 
287 303 322 103 99 98 
87 383 269 141 8 42 
117 358 252 113 111 114 
359 766 252 166 136 106 
246 507 320 92 113 137 
388 704 270 175 188 209 
163 47 306 126 102 80 
278 566 244 114 124 140 
112 743 174 178 172 194 
182 123 278 140 115 93 
214 16 325 105 73 54 
317 614 235 92 101 113 
295 489 337 115 136 187 
137 696 158 190 187 198 
223 35 214 113 97 80 
97 483 266 98 123 154 
184 409 231 100 120 148 
192 962 373 90 67 50 
179 693 160 71 106 202 
168 846 268 200 145 119 
336 777 223 54 53 61 
318 747 288 176 133 82 
239 175 267 62 83 103 
230 906 288 88 67 54 
222 38 215 105 89 72 
283 547 271 92 109 137 
71 389 313 144 148 158 
219 529 198 137 137 161 
223 39 214 106 91 75 
366 240 301 132 53 82 
289 764 292 158 115 89 
146 371 234 128 152 186 
163 531 345 116 124 138 
287 506 336 103 128 186 
321 291 338 128 141 159 
153 462 230 79 101 122 
308 821 267 211 146 117 
128 305 335 114 99 82 
132 424 352 168 83 23 
127 810 218 174 15 54 
276 98 245 112 93 74 
208 890 381 153 122 93 
235 723 177 178 177 194 
200 362 293 88 104 131 
280 483 342 157 168 190 
126 489 236 95 106 119 
288 799 278 190 143 108 
192 273 284 91 109 128 
99 613 236 89 116 140 
215 599 334 113 141 180 
330 316 336 179 153 125 
230 597 329 136 149 169 
324 147 324 145 58 10 
94 643 328 79 66 60 
153 903 336 91 73 60 
302 144 249 153 122 101 
66 640 262 70 100 128 
220 32 223 104 90 79 
312 180 298 50 64 83 
192 726 342 148 99 121 
126 710 215 127 131 141 
187 321 309 133 68 97 
97 423 264 93 99 109 
168 882 364 121 98 75 
195 747 330 150 144 144 
204 942 282 102 76 55 
65 283 277 81 66 94 
188 147 272 43 76 102 
103 592 264 81 90 103 
64 314 284 88 39 63 
257 844 242 243 180 145 
337 679 220 43 66 100 
282 149 280 37 75 101 
92 741 230 122 125 136 
271 627 304 42 38 42 
50 676 198 61 82 139 
175 202 283 88 37 48 
194 434 298 83 106 130 
286 712 173 179 175 189 
135 647 162 124 122 124 
57 380 260 135 82 86 
193 513 202 161 161 170 
190 639 335 69 114 150 
181 843 286 172 126 100 
228 771 204 87 102 121 
105 597 253 82 91 102 
373 743 229 92 70 90 
340 195 268 115 96 82 
192 833 227 183 151 128 
292 774 212 188 168 152 
221 37 220 101 88 78 
149 88 288 111 93 75 
257 562 332 56 80 118 
201 857 360 126 88 71 
221 36 222 113 100 89 
223 436 228 113 118 126 
152 837 239 169 142 115 
192 431 227 115 125 139 
221 516 199 144 143 146 
143 291 333 99 113 129 
221 38 222 118 106 98 
195 437 298 120 126 138 
221 39 222 123 112 104 
221 39 223 131 118 108 
222 38 220 101 90 80 
176 570 355 168 181 200 
113 402 242 139 137 142 
216 809 302 177 120 101 
75 326 260 112 29 22 
60 265 238 122 122 126 
73 292 266 53 48 86 
365 708 199 119 117 120 
306 801 276 182 138 106 
308 220 300 103 29 37 
344 153 271 147 119 97 
314 664 220 124 128 137 
103 277 248 146 98 96 
56 376 309 78 125 161 
197 730 339 149 131 115 
223 42 214 101 86 70 
168 845 239 174 150 129 
308 637 237 60 83 104 
168 381 316 101 112 127 
285 187 240 52 84 121 
294 500 309 162 162 172 
170 854 325 139 108 79 
222 45 214 99 85 70 
109 622 203 89 98 109 
89 635 233 107 120 136 
165 450 341 108 126 150 
144 838 269 208 188 176 
266 659 176 127 124 125 
370 716 277 172 29 47 
102 719 221 103 102 107 
311 780 277 168 123 97 
322 174 318 74 39 30 
175 436 332 57 88 125 
212 677 160 175 173 185 
199 558 196 90 108 129 
342 286 320 146 145 151 
167 794 305 185 160 139 
78 299 278 114 41 52 
222 41 216 100 85 69 
235 407 239 58 85 108 
344 336 314 214 176 134 
386 670 282 103 122 160 
308 347 258 174 169 172 
357 646 300 46 55 108 
222 42 216 99 85 70 
278 561 280 90 105 128 
270 295 314 120 121 128 
280 123 269 110 85 68 
166 447 340 144 149 162 
233 823 219 171 163 161 
189 788 312 118 115 117 
186 129 268 200 136 65 
298 257 315 104 103 107 
220 834 292 153 107 77 
196 795 209 113 79 68 
321 171 279 115 67 44 
322 733 286 55 52 57 
188 845 299 141 104 77 
222 40 223 130 117 106 
300 498 284 187 182 184 
313 610 239 127 134 143 
115 472 251 115 119 126 
281 726 182 199 211 226 
100 329 255 77 133 175 
212 446 299 94 104 118 
184 484 345 119 131 157 
117 211 261 96 70 62 
64 471 313 147 49 90 
223 42 222 124 109 96 
53 653 220 123 123 129 
185 58 281 117 96 74 
320 194 256 170 104 95 
208 807 304 175 120 101 
309 420 341 157 59 92 
64 342 247 130 31 54 
59 309 251 107 45 68 
323 169 334 101 33 21 
56 726 195 69 105 160 
308 179 303 84 43 56 
334 312 329 193 167 137 
87 344 300 66 98 125 
201 389 244 60 99 131 
143 681 237 103 101 137 
135 735 289 119 137 159 
122 319 247 151 61 75 
56 649 229 105 104 108 
233 616 206 84 88 93 
259 467 319 69 90 120 
56 687 195 61 76 124 
75 613 254 82 106 129 
153 52 259 118 102 89 
169 393 319 89 107 129 
93 641 220 101 115 130 
320 245 332 107 98 96 
146 394 246 77 98 118 
168 232 284 94 67 80 
190 137 262 228 97 17 
331 252 276 149 82 90 
188 572 188 127 125 125 
146 338 336 99 111 127 
190 651 156 166 165 172 
166 936 296 79 59 49 
87 467 276 67 84 113 
215 934 279 134 104 72 
98 322 303 80 93 108 
296 408 354 84 113 162 
210 653 161 82 108 132 
267 296 311 129 128 133 
108 621 336 157 168 184 
268 578 225 107 119 135 
202 502 201 108 121 141 
310 313 330 93 94 106 
326 606 272 119 100 81 
208 926 385 119 92 75 
236 834 228 232 169 131 
310 157 285 129 53 0 
168 690 343 141 164 189 
302 219 252 137 60 66 
163 534 347 98 111 130 
225 910 265 95 75 62 
147 381 322 112 118 128 
114 673 216 91 90 92 
301 354 338 108 71 58 
340 313 322 144 7 60 
255 632 309 107 90 87 
362 237 309 106 46 70 
214 531 327 130 137 149 
300 212 296 113 25 34 
282 431 338 42 66 106 
58 280 218 182 105 84 
241 926 354 84 68 54 
76 479 289 126 144 174 
311 598 283 126 105 84 
240 755 198 169 52 59 
90 549 289 132 133 139 
291 284 247 169 150 137 
263 142 272 63 48 57 
303 705 317 112 124 139 
355 234 285 47 72 111 
105 238 266 101 29 39 
314 235 307 65 43 58 
99 421 322 118 19 52 
81 436 278 129 66 84 
156 450 233 68 89 108 
354 242 310 110 67 84 
144 685 311 127 126 131 
106 474 261 146 148 160 
183 547 356 140 161 192 
99 722 164 158 41 59 
85 785 236 134 149 180 
334 358 296 134 108 126 
224 283 257 168 169 177 
181 149 276 104 61 65 
343 155 272 135 119 105 
328 404 332 189 79 6 
350 729 197 189 200 215 
94 263 288 115 49 66 
108 812 282 110 108 109 
283 486 243 122 134 155 
159 288 232 91 81 87 
310 152 313 118 35 26 
302 827 245 235 164 133 
379 736 225 145 164 185 
161 250 291 68 87 108 
271 475 230 128 129 134 
55 315 250 125 57 75 
205 839 232 218 153 111 
338 728 194 172 183 197 
218 631 176 77 65 59 
113 377 337 121 135 152 
291 822 270 205 144 113 
218 930 275 106 82 57 
81 777 211 88 84 139 
250 368 265 78 77 78 
256 765 202 85 128 162 
317 737 291 174 161 153 
76 752 194 135 145 217 
175 327 315 114 84 98 
319 232 307 47 63 80 
221 58 211 93 82 70 
221 59 210 93 81 70 
66 490 309 189 157 125 
87 523 337 178 81 8 
184 135 279 153 81 9 
77 514 325 177 105 20 
209 603 182 122 125 131 
217 834 228 211 151 113 
220 958 296 125 96 72 
173 221 290 81 36 33 
93 614 302 81 113 165 
135 197 295 114 32 16 
176 109 273 101 80 59 
262 62 248 101 83 65 
110 574 255 121 119 122 
71 385 312 152 153 160 
245 430 237 87 108 131 
168 280 289 128 124 125 
62 663 240 100 75 73 
194 137 260 216 103 61 
225 699 339 162 120 76 
131 766 306 148 124 95 
258 895 339 138 109 83 
222 57 213 112 103 97 
102 636 191 89 98 109 
362 243 297 104 47 69 
204 946 384 96 79 67 
233 439 230 60 79 96 
197 27 316 179 158 157 
220 700 165 88 161 217 
58 418 280 138 156 184 
313 144 305 104 94 84 
381 152 282 151 67 8 
221 60 209 100 88 76 
256 527 326 52 64 95 
168 660 334 61 68 115 
294 783 216 161 136 110 
138 585 348 83 104 145 
280 444 338 35 63 105 
82 774 226 93 105 153 
129 552 232 91 104 119 
223 60 209 101 89 77 
117 805 217 135 49 81 
119 608 213 100 109 119 
189 896 273 98 69 52 
279 474 237 146 145 153 
111 630 337 152 160 175 
314 406 260 154 136 118 
281 727 320 159 117 81 
114 558 248 95 103 115 
136 746 306 129 76 81 
212 248 280 102 113 132 
220 536 199 130 139 163 
301 401 351 69 96 146 
128 606 204 76 93 110 
239 938 305 63 45 39 
316 680 204 120 119 123 
180 1005 332 175 151 130 
53 723 184 117 135 190 
195 452 221 99 110 124 
122 349 341 84 121 151 
262 21 243 162 147 139 
315 171 247 177 86 37 
285 527 253 122 143 168 
150 658 155 103 122 146 
211 776 204 97 131 162 
75 479 325 143 101 118 
312 143 324 105 102 102 
185 290 293 129 128 131 
89 570 310 94 110 157 
332 652 304 102 134 164 
254 436 236 68 95 121 
65 307 268 97 67 73 
320 730 288 151 142 139 
139 167 291 122 56 26 
219 34 231 138 124 114 
80 668 316 178 123 114 
164 498 340 138 137 143 
306 456 339 80 110 180 
265 243 299 105 113 125 
110 804 283 145 92 96 
85 717 214 72 86 130 
180 857 293 151 107 82 
168 949 367 114 93 71 
68 442 286 79 126 163 
153 843 259 186 176 173 
310 798 226 168 157 152 
102 641 322 38 52 73 
373 662 294 118 149 181 
313 719 182 138 172 207 
285 523 252 104 126 155 
115 346 334 82 116 145 
328 194 258 178 129 99 
209 895 264 135 92 67 
373 143 292 125 85 39 
125 696 208 63 91 136 
70 752 194 164 176 216 
52 322 246 141 92 82 
276 397 331 79 98 123 
221 38 224 133 119 109 
59 356 246 136 62 93 
52 426 296 163 164 174 
221 39 225 122 106 91 
158 578 355 88 122 179 
319 209 289 128 68 71 
128 323 244 103 113 134 
164 737 177 218 205 212 
313 250 309 56 87 112 
240 657 341 175 127 72 
74 338 302 119 73 86 
64 678 224 144 97 75 
160 942 357 97 75 65 
200 651 158 169 167 173 
310 362 349 172 171 177 
167 943 299 77 62 51 
169 261 246 130 128 129 
187 643 157 100 119 140 
97 687 155 80 107 131 
161 262 289 67 101 128 
207 849 349 100 79 58 
330 803 250 177 172 173 
214 686 161 134 164 199 
292 633 311 57 80 104 
94 599 319 85 109 156 
214 116 270 155 114 90 
206 841 234 214 147 108 
198 917 266 89 65 48 
305 382 259 123 108 93 
101 258 259 66 86 104 
78 723 209 116 126 142 
102 259 289 116 36 57 
289 270 314 84 100 117 
89 624 299 65 92 116 
163 551 213 83 94 106 
173 510 345 92 114 140 
138 380 235 123 146 179 
234 383 295 72 102 130 
176 69 265 136 107 79 
82 607 272 83 103 128 
386 726 219 166 176 208 
321 217 343 91 23 24 
99 684 324 184 124 119 
166 672 155 166 166 182 
211 977 360 94 69 46 
49 278 220 143 85 52 
233 513 207 94 106 120 
247 707 168 207 200 214 
156 800 299 125 105 88 
266 258 304 96 51 54 
284 705 327 159 121 100 
205 452 219 75 99 121 
161 929 296 101 79 62 
147 278 327 120 124 132 
89 647 198 108 118 129 
366 688 295 132 163 196 
180 227 256 42 59 89 
57 288 220 192 113 91 
261 63 219 119 101 82 
320 689 195 74 83 93 
186 185 259 111 65 81 
273 660 180 72 71 72 
177 966 352 115 82 53 
197 328 258 115 107 98 
238 635 184 129 127 128 
192 761 324 144 113 90 
347 165 270 150 55 18 
184 944 289 113 84 57 
253 805 292 191 132 110 
201 641 335 69 107 139 
228 867 340 139 98 73 
242 351 269 157 121 79 
57 714 197 85 116 162 
272 193 235 82 49 66 
251 616 232 63 71 80 
272 704 168 183 180 190 
108 460 335 152 125 93 
245 373 261 98 113 128 
204 297 258 182 182 191 
93 453 329 162 137 111 
281 794 214 185 153 121 
221 39 234 137 111 98 
195 560 341 158 154 159 
273 411 246 51 83 108 
217 544 329 80 104 134 
91 638 230 106 120 137 
358 232 289 39 81 121 
90 314 296 111 46 66 
334 374 317 171 34 73 
320 199 257 134 101 126 
289 512 334 188 192 203 
372 170 277 119 49 55 
176 902 296 103 77 52 
220 38 236 146 128 116 
128 744 253 74 91 117 
331 309 334 159 153 152 
282 273 246 193 76 0 
315 297 353 105 139 168 
232 609 209 85 89 95 
52 320 229 49 84 121 
377 672 292 162 182 208 
322 259 316 108 110 117 
153 939 314 99 79 62 
337 759 277 190 155 114 
108 764 187 117 122 187 
178 843 234 190 154 131 
224 872 261 217 168 136 
255 408 246 73 89 107 
290 342 258 90 57 77 
285 659 199 82 95 110 
313 278 351 162 162 169 
63 289 251 142 64 10 
151 254 314 83 45 61 
221 631 178 78 102 125 
271 659 180 95 92 92 
281 702 169 103 130 161 
89 293 261 94 72 78 
237 657 167 79 99 122 
289 440 350 100 122 179 
325 208 322 84 23 34 
223 974 347 93 70 45 
321 414 318 169 53 8 
351 292 317 103 125 149 
225 985 343 130 102 76 
64 690 172 47 72 95 
343 199 294 78 73 70 
221 40 230 131 96 81 
181 867 280 177 134 105 
184 466 337 109 122 146 
226 427 307 96 114 139 
278 560 284 71 89 126 
194 13 300 149 127 109 
256 762 313 198 141 112 
170 538 360 112 134 164 
293 133 294 134 67 2 
345 329 315 206 174 141 
254 440 235 114 120 128 
222 43 229 134 97 81 
326 187 335 44 56 84 
236 350 295 117 126 141 
233 641 341 134 89 37 
283 675 335 166 81 59 
253 643 188 75 94 114 
293 304 251 177 169 168 
147 835 275 131 127 128 
160 826 223 149 134 124 
65 292 271 82 65 87 
421 670 250 182 193 213 
243 821 217 183 167 156 
326 709 183 131 134 146 
223 44 231 134 104 89 
212 914 383 171 128 102 
136 274 237 139 79 29 
255 490 222 124 132 146 
108 707 209 75 90 121 
64 659 245 95 76 79 
265 312 260 91 145 191 
115 387 245 96 104 116 
221 41 232 134 97 86 
327 308 278 135 144 160 
321 420 289 164 148 137 
167 196 256 129 50 34 
289 697 328 91 120 154 
117 354 256 122 123 130 
263 360 318 91 104 124 
109 738 239 48 67 101 
190 121 281 130 109 91 
254 659 169 75 103 127 
90 629 216 92 115 137 
289 515 312 163 171 187 
329 163 257 107 82 58 
121 353 341 85 120 149 
223 43 232 135 104 88 
272 476 338 51 78 112 
222 42 234 134 100 86 
278 777 292 187 134 103 
277 459 339 43 68 107 
64 309 265 114 90 86 
134 640 341 77 86 134 
186 289 250 169 169 179 
111 401 336 150 139 132 
56 265 229 154 78 23 
236 344 295 131 136 146 
300 321 332 88 81 91 
308 740 299 191 141 75 
288 675 333 154 45 46 
154 531 344 77 98 129 
82 475 331 157 31 79 
50 674 200 34 56 110 
346 675 223 45 61 87 
321 177 250 144 155 169 
269 370 262 83 92 104 
320 193 311 74 50 73 
313 258 257 108 66 73 
111 306 244 170 165 167 
137 265 237 139 146 157 
209 691 162 200 185 188 
221 728 181 190 205 223 
273 500 231 94 117 170 
120 469 248 121 122 128 
247 390 308 75 93 125 
124 328 337 139 142 151 
286 206 242 128 57 62 
174 294 242 90 89 102 
233 908 291 84 65 50 
266 537 223 82 96 113 
68 683 230 167 114 90 
313 185 287 65 89 110 
310 288 346 84 115 141 
339 247 313 68 45 39 
272 563 324 107 146 186 
335 734 198 182 205 224 
68 292 240 98 46 36 
175 441 336 96 117 141 
340 161 283 114 56 0 
160 458 228 55 80 105 
293 274 245 167 81 0 
135 794 302 145 127 122 
286 695 329 86 99 122 
279 568 282 105 124 145 
277 575 258 139 135 136 
319 153 274 112 99 90 
40 299 224 155 67 4 
323 196 318 88 45 34 
288 187 287 114 52 39 
266 298 255 182 177 179 
222 34 242 110 98 91 
100 661 342 176 122 119 
184 520 370 54 101 135 
326 210 262 91 132 166 
60 269 251 97 67 39 
292 604 255 85 77 70 
106 402 254 91 96 104 
67 488 302 195 167 139 
148 53 263 102 85 76 
167 300 300 105 107 114 
135 216 299 74 46 64 
316 130 326 120 77 12 
135 734 294 117 138 162 
51 358 270 128 89 98 
219 263 282 133 132 137 
141 530 221 112 123 141 
212 873 363 164 130 106 
141 65 265 123 100 80 
278 648 328 73 75 79 
215 170 265 141 76 88 
373 163 295 48 65 85 
215 931 275 126 96 67 
156 31 307 138 105 96 
217 783 208 137 119 105 
131 650 301 89 110 145 
221 313 263 149 166 189 
190 489 325 114 120 132 
318 432 288 154 134 110 
142 295 334 106 118 132 
223 292 258 110 135 181 
144 304 338 151 151 158 
222 36 243 107 94 84 
270 495 228 147 154 172 
215 272 254 127 60 74 
327 363 337 188 158 124 
367 713 281 94 123 165 
51 321 241 138 85 84 
265 105 223 130 105 78 
283 795 281 192 141 109 
64 258 280 135 65 14 
229 749 193 135 47 74 
229 857 249 238 182 147 
320 432 326 142 124 107 
248 731 182 175 194 217 
204 378 261 110 120 134 
132 764 305 111 95 99 
243 371 301 85 101 125 
349 292 300 175 168 169 
224 908 276 84 65 52 
320 225 324 102 0 50 
218 916 268 94 82 72 
64 313 285 78 44 66 
235 925 358 95 76 61 
182 156 275 98 59 49 
135 754 312 124 55 55 
351 146 285 113 98 83 
73 293 265 49 47 88 
88 644 330 65 64 65 
270 455 327 72 94 124 
115 216 261 98 74 69 
92 593 291 134 140 151 
99 539 275 146 140 141 
223 41 241 116 96 77 
121 787 293 119 88 74 
219 980 313 132 102 66 
233 863 267 220 170 137 
149 828 228 166 141 125 
247 10 259 118 90 77 
133 726 238 102 113 134 
272 88 249 112 93 73 
115 630 184 118 125 135 
279 588 265 52 55 60 
159 555 213 78 90 103 
89 621 279 88 109 130 
353 759 226 118 109 103 
284 683 171 99 109 124 
75 614 259 119 132 150 
134 721 283 126 130 140 
256 401 316 39 71 119 
74 652 207 100 115 132 
137 481 232 102 111 122 
348 667 304 140 168 197 
168 708 165 208 202 215 
195 509 202 96 115 139 
327 686 208 93 104 119 
215 998 319 198 162 126 
318 427 284 135 116 103 
385 665 218 155 157 168 
279 798 215 177 156 138 
165 431 237 68 96 122 
317 219 312 64 30 50 
124 705 160 188 184 198 
182 546 201 70 90 110 
151 326 230 119 135 157 
304 800 224 134 122 113 
190 482 339 83 99 148 
233 14 223 74 66 60 
236 174 266 72 83 99 
254 143 269 109 77 64 
134 621 184 97 113 130 
184 302 304 113 98 80 
176 898 297 129 95 68 
373 748 241 206 27 53 
234 741 188 209 16 34 
127 481 352 149 137 131 
117 728 229 90 98 113 
281 605 259 93 86 80 
171 441 337 73 97 134 
210 513 198 84 100 118 
282 749 309 165 149 138 
51 376 281 133 80 86 
118 540 240 127 131 143 
148 589 206 89 98 109 
93 611 244 86 113 138 
71 648 204 83 106 126 
239 11 218 71 64 60 
219 875 362 160 121 93 
166 83 261 129 93 60 
347 721 192 46 62 99 
59 319 309 32 61 93 
135 719 299 118 130 147 
61 665 234 102 76 74 
186 932 278 95 75 58 
165 673 323 88 104 152 
86 640 319 45 72 95 
283 394 252 90 101 116 
178 870 294 158 119 94 
53 435 296 71 111 146 
176 490 339 116 126 141 
154 367 236 149 163 187 
389 648 272 128 139 155 
260 187 236 88 55 88 
113 469 255 122 125 133 
237 12 219 70 64 60 
236 14 216 76 68 61 
155 475 344 128 136 151 
272 475 334 86 103 123 
133 652 334 43 97 155 
289 144 284 72 65 72 
136 389 330 100 108 130 
118 792 205 101 108 147 
263 94 259 95 79 62 
296 488 261 118 138 169 
348 656 311 162 182 208 
237 298 258 114 106 128 
323 210 262 96 118 141 
248 529 322 68 90 112 
156 495 344 158 158 165 
180 309 249 134 133 136 
224 905 372 138 109 84 
135 713 278 76 97 128 
270 529 231 77 86 115 
136 432 248 55 91 138 
263 22 232 127 117 113 
337 755 213 165 134 101 
283 435 343 35 65 107 
266 679 335 162 78 40 
370 664 294 110 136 165 
224 583 201 102 116 131 
126 822 233 59 55 98 
238 398 250 73 96 118 
276 384 255 112 116 123 
67 295 235 105 36 40 
62 322 285 124 55 70 
184 419 302 57 78 120 
53 305 245 135 67 28 
283 694 170 83 94 110 
230 880 288 141 102 76 
261 646 192 125 124 127 
133 223 300 69 41 53 
230 384 262 22 71 110 
158 504 217 79 102 125 
128 723 229 119 123 135 
48 374 259 141 80 84 
168 787 200 193 148 95 
165 737 340 183 94 98 
234 445 225 67 91 111 
324 157 329 127 46 41 
192 517 203 133 142 160 
195 616 173 85 104 123 
237 28 207 139 116 90 
62 277 261 159 59 0 
236 30 207 132 111 89 
366 220 294 75 36 58 
237 30 207 132 110 86 
107 229 285 45 53 66 
244 628 208 87 105 126 
154 521 343 45 74 125 
321 276 325 74 93 110 
178 139 267 217 91 14 
185 851 353 150 116 91 
239 29 206 130 110 89 
176 488 340 134 139 150 
238 30 207 130 107 82 
203 736 331 78 68 70 
181 454 320 104 113 134 
239 31 206 142 120 99 
280 835 252 238 180 145 
258 894 339 139 111 86 
216 258 281 153 151 156 
377 743 250 162 55 107 
198 371 263 94 110 126 
105 435 327 142 117 93 
178 100 286 113 87 63 
145 547 220 101 116 136 
203 233 259 95 36 36 
241 232 286 135 63 6 
226 19 222 90 76 63 
207 990 358 134 103 70 
322 310 264 83 120 150 
145 362 346 75 119 154 
267 485 327 63 82 116 
184 928 278 81 63 49 
290 259 244 130 67 80 
84 296 275 85 33 40 
224 817 296 182 119 101 
270 244 299 118 118 123 
157 685 326 119 133 151 
310 774 280 124 88 65 
121 662 160 138 136 139 
60 669 226 105 78 74 
227 285 285 92 130 161 
140 390 325 90 104 129 
220 456 218 103 111 122 
123 570 242 129 122 118 
162 93 297 121 97 74 
357 644 297 58 63 108 
258 395 319 58 82 121 
218 871 361 155 118 90 
159 528 343 65 89 121 
235 944 297 95 74 63 
180 217 275 29 54 98 
57 268 259 103 91 80 
260 593 316 98 121 160 
385 645 220 110 133 161 
75 256 295 124 88 94 
118 263 307 83 71 77 
305 137 296 121 81 43 
411 663 249 66 67 71 
136 705 272 90 100 125 
350 148 271 150 118 92 
349 270 316 86 76 83 
272 296 315 123 123 127 
249 269 294 140 138 143 
196 871 369 151 111 97 
189 453 309 66 88 126 
276 660 184 63 68 76 
150 445 341 129 129 136 
210 844 318 122 92 65 
275 559 308 97 125 177 
335 774 220 121 104 93 
337 250 291 123 91 78 
176 347 240 183 125 53 
74 653 207 101 117 134 
90 753 185 77 119 197 
98 323 254 71 105 135 
315 307 259 96 128 157 
220 839 295 154 113 82 
281 125 247 92 79 66 
386 682 284 124 151 179 
355 760 229 145 108 102 
143 425 345 98 97 103 
141 271 238 111 119 131 
153 265 320 136 134 136 
162 445 234 84 101 118 
289 312 328 128 88 61 
385 710 208 119 139 168 
325 405 296 186 85 7 
59 257 238 151 82 3 
164 609 336 85 102 123 
263 54 231 98 84 69 
344 303 300 181 180 188 
102 820 248 175 50 50 
266 696 166 153 168 192 
149 617 183 76 72 78 
281 523 246 138 146 160 
136 527 354 111 139 184 
160 805 298 169 152 139 
176 511 360 120 139 162 
329 280 284 75 111 141 
188 972 310 100 76 53 
220 618 328 160 152 150 
384 672 287 155 168 188 
50 662 227 78 84 139 
129 297 333 135 63 13 
107 330 319 119 126 137 
136 380 351 166 168 177 
270 588 239 109 108 111 
215 911 265 104 84 62 
170 157 282 126 39 31 
286 355 264 160 155 159 
345 683 218 60 62 84 
184 674 157 139 157 189 
199 680 349 72 84 99 
206 584 338 167 177 196 
111 328 324 113 120 132 
214 767 319 128 116 108 
153 944 331 92 74 60 
281 738 315 144 141 149 
325 698 290 106 30 48 
300 193 296 41 60 77 
261 324 265 124 148 176 
292 393 346 38 71 102 
57 276 294 62 86 109 
176 721 346 160 53 60 
183 71 298 118 88 70 
304 139 293 120 70 26 
374 147 293 144 71 9 
313 146 272 94 81 71 
307 699 177 58 92 129 
350 229 311 61 90 114 
223 279 284 92 130 161 
209 195 266 55 74 97 
272 82 232 110 91 71 
87 644 330 53 56 61 
226 31 214 119 102 83 
260 54 220 102 84 65 
114 383 338 148 148 155 
319 606 255 112 100 91 
299 156 297 57 52 61 
73 295 264 46 47 81 
337 671 224 43 62 83 
80 639 207 94 115 134 
314 289 334 75 102 128 
342 750 212 210 161 97 
67 285 304 108 78 92 
225 233 280 130 62 15 
355 255 312 80 104 129 
136 699 283 55 55 97 
238 644 176 114 111 112 
245 811 292 179 121 100 
342 197 273 103 96 112 
295 661 210 116 116 121 
193 195 268 50 38 53 
226 114 271 127 109 95 
313 266 316 110 108 112 
144 265 319 109 85 84 
231 26 213 122 104 86 
65 711 174 79 89 102 
251 812 214 118 122 129 
188 604 339 102 136 165 
232 871 282 120 80 54 
206 509 317 140 138 143 
343 342 315 211 176 138 
198 293 296 131 131 136 
42 315 226 173 75 5 
358 245 293 121 56 75 
140 741 175 187 189 214 
268 654 334 181 140 90 
229 530 318 88 106 126 
237 124 256 219 97 13 
397 679 271 105 130 183 
148 403 243 71 94 120 
83 641 204 83 106 128 
118 670 341 161 105 95 
219 348 291 130 137 150 
119 593 233 84 97 111 
334 167 262 121 75 49 
353 146 275 148 116 97 
306 635 314 67 100 128 
305 657 222 94 113 141 
134 152 263 91 78 64 
199 673 343 80 85 95 
158 172 295 117 39 32 
164 869 333 142 104 81 
71 644 243 78 110 141 
147 298 230 164 157 157 
280 297 251 125 136 154 
203 864 247 228 164 130 
95 487 339 185 158 129 
325 319 338 154 135 114 
391 671 275 107 133 177 
119 833 261 217 154 102 
130 278 235 176 72 2 
236 419 309 58 81 118 
176 771 194 127 44 95 
182 83 285 97 77 53 
303 690 323 175 99 56 
163 497 216 36 79 115 
185 256 279 138 134 136 
248 367 303 73 91 116 
189 484 344 111 128 153 
222 261 283 138 138 143 
86 559 304 94 114 149 
360 757 231 193 121 111 
124 413 349 184 161 140 
116 360 256 120 118 120 
347 226 308 48 55 62 
321 161 332 99 30 37 
273 442 240 81 99 119 
376 641 281 124 137 153 
273 466 333 61 78 110 
106 768 190 147 166 208 
62 259 275 122 82 30 
280 157 279 33 54 75 
217 496 310 117 123 135 
162 433 238 74 98 125 
178 770 319 184 158 140 
214 999 324 187 155 123 
153 183 298 85 47 51 
321 723 185 160 170 194 
306 370 260 96 108 121 
272 345 267 145 143 146 
185 712 169 147 177 219 
279 400 333 46 79 128 
143 243 312 88 39 34 
58 318 308 50 81 105 
162 482 342 104 113 146 
144 438 344 59 76 99 
158 925 363 121 97 79 
170 880 363 108 96 88 
326 156 263 133 100 83 
100 642 203 101 112 125 
225 29 216 117 101 82 
120 721 165 177 175 196 
203 218 259 95 44 65 
254 369 264 86 98 111 
245 892 325 159 110 85 
321 400 269 137 121 103 
91 654 189 111 117 125 
204 187 256 58 51 69 
184 58 279 119 98 77 
323 350 268 116 129 146 
343 323 305 158 142 130 
240 373 299 83 103 127 
224 30 218 115 98 80 
271 587 241 114 112 115 
132 731 242 105 111 127 
222 402 295 84 104 127 
270 346 324 114 119 129 
218 153 267 138 112 101 
220 546 342 67 103 145 
229 25 216 113 96 79 
294 599 261 95 86 78 
318 224 306 70 39 52 
363 742 265 87 105 123 
235 207 275 119 48 72 
118 819 286 166 141 124 
113 666 281 89 82 102 
168 798 206 119 107 96 
232 817 294 175 114 93 
196 730 179 185 201 224 
104 810 230 195 163 178 
106 340 321 111 123 138 
179 715 345 111 98 112 
159 837 235 221 178 119 
232 277 286 98 128 154 
229 351 270 126 89 74 
116 626 345 168 176 195 
175 509 350 120 139 161 
52 286 221 212 87 11 
212 656 161 88 103 119 
279 644 317 95 74 88 
271 610 308 151 101 92 
236 18 215 77 67 58 
124 668 157 136 136 141 
332 797 263 157 143 135 
288 375 336 51 84 119 
233 771 204 138 119 106 
199 881 372 86 69 50 
146 584 210 92 98 106 
66 696 168 82 108 132 
122 501 236 122 126 135 
196 202 257 107 52 45 
109 827 257 57 19 98 
179 461 338 110 128 149 
134 723 280 118 128 147 
92 599 304 81 104 156 
312 346 332 121 81 53 
275 88 243 115 95 74 
131 415 352 179 146 109 
392 658 241 64 69 76 
110 585 349 70 107 169 
200 931 271 84 62 48 
237 23 211 126 106 84 
311 234 304 103 99 99 
239 20 211 108 93 76 
141 684 307 107 108 126 
239 21 211 112 96 80 
124 698 208 105 117 139 
352 254 313 86 119 146 
118 349 337 82 116 145 
248 942 334 83 69 57 
314 773 282 152 122 94 
269 290 312 109 114 124 
238 23 210 128 108 89 
151 385 247 97 111 131 
174 407 234 82 101 124 
302 430 255 94 115 147 
135 670 222 98 106 141 
78 349 261 85 55 62 
230 891 356 166 122 93 
276 612 250 77 74 72 
146 735 172 180 177 197 
171 849 267 203 148 119 
289 632 310 58 68 102 
232 469 315 120 134 161 
110 391 252 91 67 39 
73 318 247 70 46 79 
238 20 212 107 93 80 
238 20 213 105 91 79 
144 444 240 105 112 125 
209 118 275 135 120 106 
331 664 294 98 140 176 
114 615 206 107 113 122 
142 627 178 87 107 130 
366 755 238 236 168 130 
105 573 262 116 118 125 
194 383 294 59 90 115 
332 245 274 152 87 81 
99 422 322 116 50 45 
189 839 324 126 99 75 
258 670 337 128 93 59 
324 347 340 131 116 133 
304 478 274 118 135 162 
159 260 244 160 153 154 
322 192 256 173 100 86 
273 567 305 147 160 182 
86 633 214 83 112 137 
147 53 269 80 69 66 
151 476 226 113 118 128 
234 19 217 76 64 54 
182 124 274 150 122 97 
234 171 265 80 96 114 
306 298 330 91 30 40 
119 709 211 80 94 126 
260 95 221 119 99 78 
172 146 258 177 75 23 
221 912 273 73 60 47 
141 333 232 86 132 171 
147 367 322 138 120 109 
80 297 293 102 91 89 
184 684 340 109 131 155 
324 256 270 138 75 86 
355 256 295 85 94 121 
237 467 317 131 147 171 
284 659 200 77 87 101 
141 678 266 64 99 127 
138 542 351 64 93 156 
210 925 260 90 73 63 
190 138 259 208 110 68 
169 755 185 177 140 150 
111 626 330 84 94 130 
245 186 274 95 76 86 
326 218 323 41 40 48 
170 93 267 114 85 53 
281 267 245 195 89 0 
162 199 286 54 37 60 
207 896 263 128 99 84 
193 539 369 130 155 194 
195 864 369 170 127 109 
276 387 254 74 89 105 
236 17 216 70 64 59 
237 16 216 70 64 59 
52 428 281 133 152 176 
107 319 314 128 127 131 
271 334 265 147 138 136 
217 750 192 129 46 112 
293 279 322 101 109 121 
230 774 314 198 145 121 
249 636 194 81 103 125 
79 363 303 66 101 129 
127 623 349 91 117 173 
88 672 333 164 109 104 
204 922 261 93 71 53 
181 27 282 64 42 41 
142 187 297 114 37 16 
122 668 224 49 60 83 
285 542 266 133 143 161 
321 289 263 145 143 146 
143 359 338 95 99 109 
194 138 258 222 90 36 
62 259 254 92 58 39 
318 175 310 75 38 43 
345 196 278 180 91 100 
351 674 223 90 94 100 
101 638 319 72 96 123 
254 633 218 93 97 104 
29 303 223 133 116 104 
279 619 237 81 98 117 
98 787 263 140 25 50 
266 217 290 95 56 67 
242 600 218 68 78 90 
302 672 197 96 101 110 
113 477 345 184 158 130 
362 668 304 155 175 199 
281 762 204 96 133 166 
180 603 171 80 104 127 
123 795 299 122 131 147 
56 352 310 118 57 87 
325 271 329 158 80 18 
181 837 287 170 125 101 
331 679 291 130 46 55 
180 669 156 153 165 190 
351 771 259 194 166 139 
264 893 346 170 144 121 
267 447 236 92 107 123 
406 667 234 48 70 89 
150 784 307 45 42 52 
134 398 243 107 118 149 
53 712 183 55 89 140 
263 316 262 84 130 171 
301 138 285 119 66 32 
233 31 208 129 110 90 
279 642 227 103 113 132 
219 643 340 62 61 65 
262 605 234 65 80 96 
326 722 186 160 172 192 
178 960 363 89 68 58 
170 598 174 79 100 121 
176 483 212 92 102 115 
387 651 248 82 74 67 
220 810 218 154 144 143 
342 677 295 110 144 175 
409 689 229 206 206 213 
275 466 344 79 99 140 
73 460 285 163 160 164 
156 367 238 118 142 175 
323 348 341 126 111 126 
155 814 291 185 166 151 
264 108 265 86 73 60 
239 711 331 150 139 133 
136 792 303 170 145 136 
218 544 325 94 116 143 
215 326 267 145 155 166 
238 25 208 134 112 88 
181 873 281 174 130 101 
106 334 319 110 120 134 
176 47 275 105 90 75 
271 778 208 139 128 123 
147 544 219 111 123 138 
98 608 321 143 157 177 
164 489 341 118 131 150 
242 15 215 72 62 54 
316 226 301 79 46 61 
109 827 259 57 32 82 
260 50 241 97 81 63 
161 774 192 111 72 79 
309 820 239 206 144 112 
204 534 372 122 152 187 
136 713 289 111 117 129 
125 677 155 171 169 177 
295 217 247 125 49 54 
236 611 220 80 87 97 
296 238 303 58 73 87 
179 59 270 127 106 84 
154 437 339 89 104 123 
321 723 288 159 120 78 
147 346 327 122 95 62 
178 975 355 107 83 62 
139 807 293 171 154 144 
170 505 341 137 138 144 
170 99 296 128 102 77 
244 811 293 179 122 99 
312 453 278 97 122 163 
317 178 334 78 42 47 
167 110 264 97 76 50 
220 864 354 146 111 80 
163 164 288 128 20 36 
367 700 289 192 113 119 
109 572 350 69 105 168 
350 768 232 116 98 88 
306 470 273 117 134 165 
148 417 335 101 110 122 
62 315 233 94 48 77 
91 589 314 104 118 154 
329 729 192 195 123 127 
105 807 278 131 72 55 
183 444 311 59 82 123 
327 393 291 162 151 147 
324 670 307 131 135 150 
367 667 221 95 110 128 
184 955 298 129 92 63 
136 665 241 52 77 114 
154 187 298 94 38 31 
141 408 243 97 107 127 
227 772 315 197 149 125 
307 824 244 231 162 134 
408 674 260 99 130 187 
222 900 276 122 96 77 
227 283 285 85 125 158 
204 644 159 161 160 167 
48 368 262 117 99 103 
95 313 298 106 25 53 
232 885 341 142 101 73 
301 360 353 95 111 138 
205 347 293 138 120 103 
254 676 163 167 163 168 
53 348 244 117 79 89 
98 639 193 85 96 109 
158 478 343 85 104 140 
276 559 297 105 124 152 
263 134 229 132 104 71 
136 677 295 95 103 134 
65 393 270 127 145 177 
135 745 285 124 134 150 
244 12 217 78 69 62 
232 903 358 113 88 63 
244 13 217 78 70 63 
215 519 318 112 119 133 
418 667 252 90 99 112 
267 585 302 65 84 119 
179 438 328 94 110 130 
196 633 160 91 106 122 
74 632 268 105 114 128 
278 258 305 85 98 112 
61 285 288 88 58 61 
330 275 286 77 109 136 
321 158 317 109 95 74 
209 163 266 149 115 99 
185 374 298 88 106 126 
126 408 349 182 157 134 
55 369 291 124 30 70 
229 506 314 98 109 128 
213 603 179 135 138 145 
