ply
format ascii 1.0
comment Created by CloudCompare v2.11.1 (Anoia)
comment Created 2/28/22 9:44 PM
obj_info Generated by CloudCompare!
element vertex 2011
property float x
property float y
property float z
property uchar red
property uchar green
property uchar blue
end_header
140 136 257 92 79 65 
160 780 308 169 143 121 
213 971 305 113 79 49 
198 428 317 96 111 136 
216 888 375 135 113 91 
316 740 229 118 25 48 
89 291 281 155 61 0 
294 193 218 116 78 68 
216 550 203 112 122 136 
194 630 205 157 163 176 
246 686 340 93 74 82 
174 671 183 122 125 132 
140 240 322 99 84 77 
348 244 306 88 98 114 
141 699 216 134 133 139 
110 297 249 116 107 105 
89 436 305 101 128 155 
137 136 267 100 84 67 
130 504 233 111 117 127 
346 289 314 134 143 159 
212 740 187 152 173 198 
180 312 278 110 115 124 
280 581 309 97 91 88 
215 318 269 108 117 130 
276 553 304 155 158 168 
270 413 239 90 107 125 
208 223 279 166 31 15 
288 474 252 96 126 164 
292 461 252 107 126 162 
256 380 246 128 126 127 
136 137 268 101 84 67 
226 759 326 190 147 121 
181 771 319 193 169 148 
144 207 320 135 55 5 
110 591 334 174 185 211 
279 511 249 170 175 188 
282 479 321 97 110 151 
276 741 326 123 141 162 
240 818 292 173 117 94 
285 333 247 48 100 135 
126 265 328 107 111 119 
136 140 264 99 83 67 
279 816 232 196 141 104 
245 399 307 128 127 133 
273 393 331 61 84 121 
124 446 344 134 74 63 
310 124 215 109 87 63 
305 597 272 75 72 72 
120 620 158 135 142 154 
89 418 299 152 152 159 
276 388 328 61 84 115 
88 465 287 121 123 131 
257 246 296 153 151 157 
151 380 243 128 131 141 
275 789 297 201 145 114 
131 749 176 158 179 217 
173 289 273 119 128 142 
287 659 212 139 135 135 
229 723 187 121 147 182 
186 666 196 78 105 131 
134 143 273 103 85 67 
348 32 212 109 100 94 
337 238 341 120 113 116 
88 452 301 122 139 160 
238 653 221 122 122 126 
112 569 234 91 111 134 
87 453 297 117 134 154 
124 360 242 165 159 160 
184 427 315 38 66 99 
305 708 211 116 123 159 
206 879 262 208 144 102 
306 356 347 128 133 144 
161 417 236 74 97 121 
203 372 292 44 68 87 
134 705 202 79 101 132 
113 768 185 216 226 239 
100 292 268 107 39 39 
240 375 247 114 120 131 
103 809 253 219 94 58 
259 602 330 69 64 99 
129 516 357 116 101 90 
345 257 346 179 72 8 
185 232 316 91 40 61 
152 325 341 99 124 150 
265 223 249 94 69 90 
253 322 267 83 66 79 
104 599 310 126 132 188 
273 736 331 94 108 126 
265 262 298 69 108 138 
83 308 268 127 101 109 
103 323 311 155 22 75 
112 778 280 81 33 46 
232 877 345 144 102 72 
179 290 327 143 139 142 
74 636 243 64 108 144 
159 480 351 144 126 123 
140 280 239 168 65 3 
93 799 253 192 51 96 
187 416 237 95 111 129 
336 179 331 44 36 57 
306 319 318 97 74 82 
296 394 337 100 117 137 
263 324 265 89 107 125 
294 623 328 97 124 152 
278 278 240 98 117 140 
255 241 267 159 48 36 
274 812 280 198 141 111 
170 375 326 102 106 122 
332 144 315 74 34 32 
114 558 197 64 90 114 
318 781 242 119 101 84 
175 962 347 127 95 69 
278 329 308 127 96 58 
327 338 308 216 178 136 
222 695 182 105 131 165 
160 287 258 132 117 114 
230 857 308 150 110 81 
92 469 322 139 56 88 
169 350 342 137 149 166 
180 600 350 95 150 191 
239 872 317 150 112 82 
273 418 240 88 102 116 
286 421 342 66 87 124 
372 136 319 119 104 94 
371 52 219 123 97 68 
370 162 326 107 72 62 
320 122 262 133 90 69 
193 698 173 110 74 80 
127 365 243 161 155 156 
160 264 339 120 66 80 
137 134 276 106 88 69 
180 844 249 209 154 123 
360 678 238 113 132 158 
168 434 326 70 85 118 
138 132 276 104 87 68 
278 619 328 97 119 150 
189 188 265 58 75 97 
99 558 340 193 136 127 
185 787 312 148 135 127 
370 747 260 169 47 72 
175 610 176 88 128 162 
277 382 325 65 89 118 
199 751 331 140 107 101 
165 463 337 102 110 125 
129 564 353 125 152 189 
170 672 344 127 144 164 
138 135 277 107 89 69 
220 801 307 186 130 111 
142 713 330 161 69 79 
98 394 322 68 109 142 
138 135 279 106 88 68 
130 654 253 75 71 111 
280 496 330 154 165 180 
183 197 320 126 39 17 
302 643 295 124 149 175 
176 857 353 139 112 84 
177 815 222 194 136 84 
125 579 350 168 184 215 
285 775 299 193 133 104 
202 695 177 108 123 141 
207 718 338 136 122 121 
241 955 322 141 104 77 
117 628 301 80 88 110 
212 507 358 76 103 148 
206 479 212 81 96 111 
319 792 245 166 158 159 
174 900 380 159 125 101 
153 691 333 121 137 155 
309 351 346 105 121 139 
274 830 264 216 161 131 
145 689 264 77 85 132 
272 299 260 104 123 145 
307 693 210 156 159 169 
245 837 280 178 129 104 
306 341 325 118 41 67 
101 293 333 160 70 80 
99 658 226 84 66 67 
141 128 283 104 87 68 
323 401 340 180 135 110 
221 334 263 145 111 77 
57 654 201 77 97 115 
340 94 239 98 81 63 
213 760 196 201 46 49 
140 130 282 104 86 68 
251 630 247 101 104 110 
92 304 310 46 71 109 
314 385 317 188 157 124 
235 785 209 119 102 87 
209 453 229 74 85 97 
229 448 325 142 153 170 
342 256 356 157 95 18 
109 579 236 83 106 130 
365 678 240 86 108 144 
258 714 342 190 158 125 
239 574 223 141 154 171 
281 747 216 118 21 35 
268 496 345 166 176 195 
263 478 347 40 65 125 
184 325 339 138 143 154 
273 701 341 127 112 108 
348 260 310 87 129 162 
149 711 161 111 136 198 
280 325 307 126 103 76 
133 320 239 171 163 162 
197 981 299 149 113 66 
92 286 332 151 100 81 
88 608 200 93 113 134 
320 70 193 175 117 89 
164 452 339 147 137 135 
92 542 317 137 124 116 
283 596 273 94 88 85 
284 721 330 151 125 97 
83 775 197 139 155 221 
138 707 288 114 127 143 
112 561 199 112 120 133 
98 300 258 91 35 30 
161 890 356 148 120 92 
228 938 284 105 82 63 
194 687 179 123 123 127 
175 402 345 136 145 160 
214 369 300 52 81 105 
133 488 232 83 98 115 
211 477 337 75 105 144 
273 457 334 57 74 113 
140 135 284 104 86 68 
274 393 329 42 72 114 
362 207 314 110 88 105 
93 360 292 143 105 88 
167 447 331 64 86 115 
265 659 211 112 113 120 
75 778 212 125 145 203 
260 831 237 254 200 171 
231 609 338 167 123 112 
236 655 341 160 111 62 
238 776 318 207 146 121 
143 132 287 103 86 67 
189 659 201 71 86 104 
125 709 200 87 102 131 
207 618 211 94 120 152 
264 461 233 90 117 152 
293 466 328 105 123 157 
89 775 194 192 194 243 
188 273 326 100 49 71 
184 587 182 178 175 180 
97 319 291 106 92 109 
212 651 358 113 122 135 
191 716 348 168 79 90 
142 702 268 78 94 117 
229 859 331 151 112 82 
337 210 342 121 26 16 
88 427 300 135 143 157 
206 510 347 61 96 138 
149 313 330 105 51 70 
46 669 211 94 119 150 
324 742 291 125 109 98 
220 684 186 134 132 135 
242 435 230 56 91 126 
285 328 311 116 53 41 
145 462 223 80 94 110 
206 720 338 98 99 107 
141 702 273 89 105 125 
339 179 242 107 90 101 
137 136 277 106 87 68 
103 540 269 97 107 127 
290 821 243 226 163 130 
237 221 294 126 96 92 
227 175 294 102 57 67 
153 263 246 150 143 146 
156 639 165 117 141 172 
328 272 351 82 97 116 
193 251 321 58 39 38 
137 138 277 104 86 67 
137 139 277 104 86 68 
372 11 225 103 91 82 
287 483 254 130 137 151 
39 713 210 49 96 146 
105 652 293 163 114 103 
147 616 164 84 123 156 
97 570 286 105 123 155 
172 262 270 157 142 139 
349 250 332 101 80 106 
336 210 251 110 45 65 
202 653 358 105 89 82 
226 137 277 176 149 128 
223 843 244 236 170 136 
318 602 250 70 88 106 
299 799 290 187 142 110 
165 510 187 131 135 146 
119 342 239 89 117 142 
155 737 172 70 132 185 
326 215 227 156 83 88 
235 371 291 73 88 108 
141 721 244 120 124 134 
249 881 338 133 107 86 
304 408 258 154 142 137 
156 468 201 66 89 109 
70 663 154 108 106 109 
110 580 246 101 117 137 
392 696 253 132 145 165 
214 985 299 185 140 93 
187 678 356 73 60 61 
181 976 352 117 92 63 
177 364 301 100 108 127 
188 628 191 82 130 167 
139 136 283 104 86 67 
139 137 282 104 86 67 
287 331 325 114 38 71 
163 823 283 169 149 133 
253 644 228 49 55 62 
138 139 280 104 86 68 
249 155 277 89 80 78 
153 748 177 156 184 217 
308 422 280 145 132 119 
266 659 211 133 130 132 
356 744 246 186 154 112 
247 919 325 90 73 59 
335 165 330 76 36 49 
135 527 355 155 136 118 
100 369 328 148 153 163 
231 420 309 49 67 89 
243 642 234 112 113 117 
117 819 266 108 75 79 
102 706 194 63 88 115 
131 220 320 140 64 8 
255 805 219 162 154 154 
174 758 326 150 137 131 
107 284 332 129 91 104 
153 814 223 180 160 143 
335 724 231 176 136 129 
49 726 161 206 202 210 
140 750 322 125 100 76 
269 818 229 205 144 107 
97 431 274 136 78 93 
140 661 256 62 102 132 
252 585 239 96 117 140 
173 589 176 181 176 179 
201 846 243 221 156 119 
102 312 330 67 45 71 
221 923 375 140 104 82 
265 573 322 156 157 166 
349 680 233 104 121 143 
203 482 330 78 100 134 
250 882 326 161 123 88 
138 143 283 104 87 68 
100 406 327 140 144 154 
253 559 233 102 107 115 
268 126 269 184 107 60 
312 135 288 76 58 64 
270 281 298 92 110 129 
294 140 238 122 99 78 
159 524 351 62 89 139 
148 382 345 136 140 150 
374 28 244 145 134 128 
266 352 252 126 124 125 
133 748 285 64 69 92 
71 731 159 225 213 220 
209 697 179 100 124 153 
140 136 285 104 86 68 
170 222 337 91 44 66 
149 351 341 124 106 109 
149 249 322 39 44 60 
141 136 286 104 87 68 
227 231 296 94 110 135 
327 279 349 69 104 132 
326 749 235 157 51 60 
335 344 340 122 136 154 
56 753 191 87 91 136 
351 625 240 151 154 164 
274 559 258 127 137 152 
292 210 219 114 78 69 
282 539 294 89 110 142 
338 47 216 46 42 39 
237 638 347 153 121 110 
321 110 237 85 71 57 
168 858 337 145 105 79 
152 710 343 172 94 83 
301 676 305 129 90 102 
179 256 276 83 125 160 
163 337 244 140 137 140 
282 384 245 72 72 103 
256 295 270 152 153 159 
339 49 195 121 108 97 
188 858 365 136 110 87 
300 271 308 85 101 118 
298 452 304 112 128 162 
141 142 287 105 87 69 
390 678 298 120 143 179 
265 571 333 107 141 187 
87 776 195 175 188 243 
283 537 277 109 120 134 
333 237 348 128 124 126 
190 739 338 112 115 125 
74 287 246 146 105 71 
208 819 224 130 156 185 
100 755 176 190 185 207 
214 698 340 151 58 44 
276 400 321 42 65 111 
158 221 329 37 62 100 
229 569 214 125 133 148 
135 144 262 95 81 66 
86 787 253 153 83 87 
244 590 339 101 101 124 
114 652 229 100 104 112 
152 499 190 151 146 147 
256 487 231 172 166 171 
127 625 329 207 218 238 
370 720 246 138 159 183 
340 329 312 214 181 147 
193 866 259 177 131 98 
96 275 251 111 48 26 
166 286 332 119 9 50 
288 752 220 150 127 106 
283 353 331 73 97 122 
91 788 212 204 215 233 
228 862 342 145 105 74 
395 677 252 116 136 158 
349 664 296 150 172 198 
72 260 298 144 125 106 
129 820 277 185 158 137 
336 183 268 101 40 50 
160 549 179 79 102 125 
135 148 258 81 73 67 
100 758 256 112 117 126 
296 309 319 85 72 69 
99 756 255 112 119 131 
212 303 286 148 147 153 
205 478 211 90 102 113 
157 748 330 139 149 164 
101 403 267 116 117 129 
121 379 341 126 125 133 
134 150 258 92 85 80 
128 481 242 63 87 110 
168 316 332 149 69 11 
257 175 300 86 98 114 
308 420 283 161 141 122 
133 148 262 92 79 65 
284 428 245 83 111 141 
356 711 289 89 96 110 
206 545 197 125 136 152 
264 762 212 80 67 61 
400 659 264 73 87 102 
320 378 318 231 191 142 
234 528 219 101 119 143 
237 490 333 96 121 151 
394 14 235 141 111 91 
230 373 292 66 86 108 
162 625 343 113 141 179 
106 442 340 158 128 93 
121 607 336 137 162 207 
236 206 274 41 55 93 
106 472 256 43 69 109 
203 545 195 96 114 133 
134 148 262 94 80 66 
307 407 343 158 132 90 
335 606 281 77 79 84 
339 335 313 216 182 146 
124 497 242 78 95 113 
84 709 152 82 150 204 
264 180 300 120 95 99 
174 372 346 84 131 168 
188 409 314 47 74 104 
258 132 277 138 72 10 
284 532 282 85 99 119 
177 361 305 119 122 131 
238 332 267 116 123 134 
216 240 307 138 135 139 
295 659 333 97 136 170 
110 593 332 98 121 183 
130 522 209 135 137 144 
247 143 276 107 86 85 
322 346 343 155 123 86 
134 145 266 100 84 67 
64 699 214 97 124 156 
219 846 326 139 100 70 
141 486 219 135 132 136 
336 156 220 133 120 107 
89 692 200 74 91 110 
350 138 258 133 115 94 
107 309 253 102 97 100 
111 645 306 124 70 73 
99 417 322 143 144 152 
286 433 351 68 103 177 
185 629 185 87 135 176 
271 536 330 60 77 103 
84 618 180 122 131 145 
132 146 269 103 86 68 
91 507 270 103 121 152 
305 192 305 79 56 55 
148 628 162 95 106 119 
283 730 210 134 145 164 
219 719 336 152 136 125 
221 163 293 87 44 41 
275 246 236 38 77 106 
224 852 339 149 109 78 
354 612 261 89 108 128 
353 756 251 122 95 88 
309 254 224 175 53 91 
133 148 264 98 83 67 
328 191 222 59 94 126 
254 627 332 52 53 55 
97 802 244 205 46 68 
153 299 245 154 148 149 
348 29 230 72 57 42 
100 591 306 118 134 166 
328 255 242 146 21 63 
343 709 230 98 127 158 
87 491 308 181 158 137 
377 694 297 170 185 206 
165 270 338 100 56 72 
386 727 261 203 196 203 
239 386 296 60 79 102 
108 522 253 66 90 123 
132 150 267 101 84 66 
236 199 307 107 74 70 
245 377 247 121 124 130 
132 148 268 102 85 67 
223 654 347 173 138 96 
164 934 362 129 103 88 
132 149 269 101 84 67 
291 773 297 192 133 100 
320 648 295 101 127 151 
283 300 240 153 147 148 
232 447 321 43 63 98 
233 864 311 151 113 86 
235 658 340 149 63 37 
235 727 191 172 181 197 
38 720 186 183 181 187 
245 846 257 242 180 142 
376 658 243 172 176 195 
387 675 301 117 127 178 
222 461 227 80 99 119 
178 853 306 136 104 75 
163 902 303 141 84 57 
252 647 345 185 136 73 
130 825 264 218 192 171 
129 155 263 101 92 84 
263 812 222 115 80 85 
362 753 282 119 90 81 
299 319 239 155 152 156 
196 667 359 99 114 130 
272 381 318 80 94 110 
211 774 320 198 148 127 
333 373 338 201 164 119 
50 676 219 73 75 103 
189 224 272 51 47 95 
175 263 274 117 40 66 
131 155 260 108 101 94 
210 671 201 80 110 138 
124 533 356 136 118 101 
183 838 338 136 108 81 
256 138 275 129 112 105 
186 548 353 142 156 176 
146 531 183 138 143 154 
132 241 324 105 80 72 
289 816 282 203 146 112 
244 582 341 108 150 192 
178 437 229 98 110 125 
189 436 318 44 71 103 
302 760 305 129 113 104 
129 159 259 92 85 81 
138 505 209 137 136 142 
137 506 355 140 123 107 
298 685 324 180 142 97 
221 155 289 79 63 71 
103 293 331 156 67 77 
161 346 241 147 144 148 
97 509 334 182 152 121 
344 734 238 163 97 101 
348 277 320 124 109 111 
170 839 268 203 149 119 
164 772 315 175 147 129 
258 779 214 188 170 156 
197 840 318 110 84 55 
177 873 362 144 116 94 
203 200 272 42 70 127 
134 411 239 110 125 147 
120 683 184 101 111 125 
197 257 325 117 41 32 
166 860 325 146 113 85 
162 827 278 185 164 147 
306 779 293 182 133 102 
189 670 355 108 93 88 
128 156 263 104 95 89 
309 389 272 150 145 147 
316 679 216 132 133 142 
364 650 311 70 103 173 
129 156 263 104 95 88 
102 596 247 132 136 146 
337 200 320 89 28 28 
198 959 370 105 82 65 
146 698 236 145 143 148 
201 798 308 183 133 117 
318 88 226 74 61 48 
246 620 332 146 109 95 
66 733 216 118 128 143 
302 343 250 114 132 155 
258 472 230 100 110 124 
171 583 355 71 107 166 
243 167 265 94 52 57 
132 152 259 108 99 92 
247 534 342 77 102 136 
132 153 259 113 104 97 
365 742 285 89 83 102 
236 879 316 140 103 77 
76 781 220 35 145 208 
226 148 285 108 108 110 
259 262 265 119 137 155 
99 659 230 94 69 61 
421 664 278 66 96 123 
144 337 342 114 130 149 
296 690 205 160 156 160 
256 827 280 204 146 118 
371 632 284 105 89 72 
335 669 290 133 155 179 
316 601 256 82 80 82 
328 334 306 220 185 146 
301 727 216 135 144 165 
207 281 294 144 144 151 
308 417 280 123 107 95 
301 201 307 71 49 64 
262 728 200 162 177 196 
190 357 266 111 87 80 
236 935 293 72 57 48 
132 152 263 95 82 70 
174 990 307 148 113 85 
127 666 279 145 102 97 
180 299 279 88 109 131 
205 689 180 131 130 133 
134 513 202 123 125 132 
131 152 264 97 83 68 
287 580 305 104 91 81 
283 368 248 111 123 141 
232 240 277 114 36 42 
83 685 209 80 59 53 
143 767 313 120 94 90 
333 258 345 109 113 121 
71 638 234 69 110 145 
326 298 334 64 92 120 
293 335 238 133 155 186 
228 909 279 78 61 46 
123 652 255 61 62 111 
268 225 302 97 119 142 
102 598 285 102 113 162 
258 367 306 42 72 107 
273 446 351 92 115 151 
126 490 241 97 107 120 
260 482 342 59 84 125 
358 176 346 43 39 45 
200 953 290 142 98 54 
167 678 344 122 141 162 
206 786 314 192 145 126 
345 50 233 92 79 66 
131 153 270 102 85 68 
98 551 279 77 88 127 
312 236 315 67 94 117 
295 180 303 112 69 48 
168 687 349 103 134 163 
359 621 295 113 93 74 
341 355 329 165 21 64 
375 142 327 143 116 85 
112 700 191 85 103 129 
296 464 300 161 163 173 
67 711 150 79 144 194 
223 800 306 187 127 109 
144 691 228 19 41 104 
171 277 272 147 141 143 
255 484 230 157 159 175 
294 596 278 77 70 66 
362 746 251 173 34 53 
236 954 315 139 105 76 
336 188 329 96 34 52 
303 246 306 117 116 121 
114 568 256 152 149 153 
86 340 279 100 94 111 
102 600 280 143 154 172 
191 490 328 99 112 129 
175 375 333 81 77 88 
94 446 316 78 105 130 
265 214 249 136 56 32 
212 496 209 116 122 133 
178 463 324 116 124 137 
349 85 238 108 88 66 
302 701 209 159 155 162 
215 346 273 113 84 98 
316 296 246 167 162 164 
285 343 320 98 107 119 
253 499 337 79 96 126 
307 806 242 132 94 84 
116 792 292 96 111 135 
248 707 189 114 136 170 
415 667 287 145 166 210 
108 752 254 91 104 121 
273 556 252 166 160 160 
231 231 275 65 63 91 
327 367 344 202 171 142 
172 479 336 128 132 143 
140 341 337 113 114 121 
374 33 238 177 161 157 
367 156 313 118 107 97 
132 152 264 96 81 66 
96 492 331 97 121 146 
287 366 248 114 125 138 
345 311 316 146 13 63 
271 391 318 95 100 112 
201 504 336 131 135 144 
266 635 229 74 99 122 
337 174 269 53 43 55 
300 172 297 99 40 44 
321 732 291 132 124 121 
339 204 328 40 34 47 
340 157 261 101 59 76 
197 621 197 104 67 91 
184 240 317 98 34 34 
43 714 156 200 192 192 
183 261 321 117 39 35 
358 761 278 140 131 127 
222 649 351 204 150 77 
136 147 256 92 82 75 
212 167 295 113 39 35 
291 305 314 117 61 77 
334 276 290 115 130 148 
193 666 356 89 73 66 
334 253 345 135 130 130 
296 670 330 162 47 59 
136 149 256 103 94 89 
179 395 307 55 80 116 
122 742 169 135 167 216 
147 807 218 204 167 139 
133 144 273 102 85 67 
335 169 332 69 46 63 
242 149 278 59 76 93 
133 145 274 102 85 67 
192 539 189 116 133 156 
36 702 187 83 121 167 
214 554 353 116 131 170 
237 801 215 167 167 175 
302 680 316 140 54 49 
146 400 349 119 139 161 
337 624 319 88 130 174 
82 285 313 139 50 64 
318 138 212 127 100 66 
328 304 285 95 120 145 
147 429 231 39 81 116 
89 458 287 95 108 124 
312 63 218 112 92 71 
214 584 204 179 173 174 
185 330 276 99 105 115 
362 160 309 111 40 66 
76 287 270 134 118 104 
211 880 368 75 62 58 
116 317 334 97 59 63 
140 713 264 75 97 132 
130 378 335 93 98 106 
118 776 191 222 224 239 
255 772 316 201 147 116 
401 655 278 73 76 81 
72 639 178 100 118 137 
281 319 250 75 112 143 
174 791 204 178 148 139 
207 290 278 170 169 176 
208 840 239 215 150 114 
243 603 335 37 44 81 
98 597 228 66 96 123 
321 755 234 80 103 125 
239 491 333 106 127 151 
236 932 351 89 66 53 
190 720 346 95 50 74 
137 725 240 109 114 128 
219 327 284 96 107 121 
133 467 240 116 116 121 
313 77 218 102 87 72 
231 517 218 116 125 144 
198 224 275 114 27 21 
236 952 310 162 132 104 
91 769 186 137 175 217 
226 961 309 115 85 58 
219 538 340 88 104 134 
319 352 301 176 143 103 
98 800 223 206 13 65 
103 544 348 135 116 103 
82 621 185 87 112 136 
103 307 262 66 48 74 
243 826 231 225 154 116 
134 514 356 168 154 148 
283 419 350 43 71 117 
259 438 319 68 80 110 
206 353 291 64 76 92 
208 884 373 101 79 60 
106 603 317 171 186 209 
322 601 277 102 95 91 
167 944 362 91 74 60 
287 149 285 57 69 82 
172 485 337 83 97 127 
133 150 276 105 87 68 
228 414 311 51 76 107 
334 98 239 95 79 62 
321 286 328 97 110 127 
223 892 281 105 80 65 
329 254 274 108 54 51 
228 203 276 74 56 85 
293 353 242 140 165 197 
372 626 257 101 120 140 
134 149 277 104 86 67 
165 265 339 95 64 85 
282 233 225 99 100 109 
91 289 331 148 89 77 
329 623 317 72 94 169 
257 306 269 79 113 141 
356 52 197 135 110 85 
190 849 359 166 131 113 
254 688 345 107 90 83 
143 650 323 88 107 174 
172 508 187 103 114 131 
194 141 267 197 105 53 
235 854 306 147 106 80 
179 240 271 145 28 51 
332 659 294 132 157 184 
172 989 309 135 104 77 
136 702 158 126 153 192 
247 429 313 103 110 122 
335 767 289 197 178 163 
362 201 314 132 91 102 
323 665 222 112 127 146 
281 819 237 210 153 114 
156 264 331 125 32 57 
299 133 282 59 76 93 
121 594 343 65 93 185 
241 473 227 84 110 151 
114 542 253 145 139 138 
147 483 209 86 104 123 
212 845 243 226 161 127 
232 914 363 111 87 69 
341 146 228 128 115 104 
267 470 350 92 116 162 
205 520 200 115 123 135 
88 615 219 115 129 153 
98 298 293 121 66 72 
75 767 188 175 171 215 
201 802 307 187 135 117 
269 305 264 125 130 140 
131 155 276 101 84 67 
193 871 261 162 120 84 
344 312 312 150 95 73 
129 159 272 99 84 69 
315 601 250 121 125 134 
149 459 217 91 103 118 
130 156 273 100 83 67 
327 680 220 86 106 135 
298 414 252 96 118 142 
277 494 324 68 87 125 
210 418 236 50 87 117 
232 489 222 66 86 104 
299 121 271 200 81 16 
161 934 298 80 64 51 
127 378 336 94 102 112 
292 675 333 165 37 54 
375 41 212 133 107 80 
330 136 307 100 34 23 
273 539 340 55 70 111 
288 449 246 72 111 147 
185 338 272 128 93 57 
167 182 256 101 91 93 
130 159 275 100 84 68 
131 156 276 100 84 67 
195 482 204 93 104 117 
240 592 339 198 200 211 
138 393 237 124 135 152 
131 157 278 101 84 67 
224 763 324 197 148 120 
121 503 244 107 112 120 
292 722 322 136 117 103 
329 758 291 125 103 85 
287 512 268 123 134 163 
90 733 232 58 75 97 
163 680 338 119 139 161 
186 708 353 174 66 73 
131 158 278 101 84 67 
131 158 279 102 85 67 
239 882 321 133 96 70 
226 320 269 91 107 124 
177 350 324 110 57 82 
181 434 232 62 89 114 
132 379 244 81 98 116 
136 473 232 88 100 114 
115 368 340 71 107 138 
367 18 199 136 113 89 
133 253 325 94 85 98 
173 256 268 92 122 147 
331 208 229 156 71 82 
132 153 276 102 85 67 
319 343 355 155 155 163 
221 909 270 71 58 45 
235 741 335 135 142 153 
106 287 332 151 74 83 
254 176 261 111 59 66 
321 301 258 173 169 173 
282 527 268 120 144 180 
172 280 326 114 6 41 
406 655 286 72 69 66 
298 431 335 78 100 150 
345 781 266 155 127 100 
227 403 306 42 73 108 
169 777 193 227 185 105 
104 325 255 71 49 58 
140 687 316 137 150 169 
334 747 290 158 141 130 
357 624 267 80 94 110 
134 152 279 105 87 69 
344 123 237 120 95 67 
207 844 351 137 99 84 
297 731 314 195 155 106 
166 452 207 71 103 129 
195 812 302 180 124 107 
288 666 209 102 110 125 
304 803 289 193 143 110 
126 739 243 87 93 117 
320 58 220 103 88 75 
141 699 290 65 65 104 
42 676 194 37 78 110 
199 915 388 196 154 135 
134 636 326 116 137 199 
305 670 297 110 103 123 
198 336 289 146 108 58 
380 12 233 123 106 97 
323 287 357 77 118 152 
234 886 348 158 112 84 
176 599 178 93 97 114 
118 675 189 93 107 125 
336 232 342 96 77 76 
199 270 307 97 54 77 
88 415 298 155 156 164 
123 506 355 171 71 10 
279 588 283 82 80 81 
307 433 288 119 34 89 
204 360 292 55 71 90 
268 563 252 119 119 124 
279 634 229 83 98 114 
323 295 262 111 77 88 
247 236 272 162 37 10 
97 570 296 87 107 155 
85 759 179 95 101 188 
98 423 324 143 143 149 
192 854 253 203 149 118 
93 430 280 118 73 92 
181 867 278 176 134 106 
152 939 330 94 74 61 
120 291 241 88 103 120 
133 156 282 105 87 69 
158 784 306 146 105 79 
177 432 233 82 101 121 
132 158 281 103 86 67 
65 722 153 81 146 199 
180 310 277 137 133 134 
375 687 299 143 169 198 
221 911 265 76 60 46 
126 371 337 83 74 83 
233 164 267 88 43 34 
331 764 242 153 125 105 
155 261 328 121 32 59 
227 848 295 159 115 86 
90 538 310 133 119 106 
270 147 249 140 122 105 
211 591 203 125 143 167 
317 354 280 194 172 152 
289 381 248 129 115 101 
264 399 315 70 82 105 
382 732 279 85 57 69 
241 286 285 73 111 141 
135 156 285 105 87 68 
135 157 284 105 87 68 
196 143 289 129 97 79 
217 914 379 177 133 108 
39 706 157 165 122 113 
315 803 248 135 109 82 
284 605 311 122 88 75 
266 579 317 131 132 138 
168 804 213 139 114 120 
322 209 314 101 25 34 
206 307 275 126 140 160 
380 671 245 109 131 164 
157 261 332 130 47 61 
136 144 279 102 85 67 
334 238 252 97 54 70 
154 656 335 98 153 196 
303 206 308 98 28 50 
395 676 298 112 131 191 
350 63 198 159 126 107 
353 770 274 181 161 146 
380 640 261 37 83 129 
161 949 348 87 71 61 
140 711 265 41 61 120 
350 731 291 81 84 96 
95 438 317 112 133 156 
217 630 341 80 110 136 
63 668 225 144 101 78 
368 632 278 96 84 73 
257 212 261 88 62 80 
245 843 246 242 176 139 
119 563 188 99 109 122 
316 811 282 206 142 114 
77 662 236 158 111 91 
197 642 347 81 103 125 
141 457 355 102 132 161 
137 145 284 105 87 69 
265 808 222 95 121 146 
228 901 366 159 122 92 
63 673 154 66 61 76 
146 539 356 117 140 183 
178 234 321 31 38 57 
342 224 283 106 54 56 
151 626 163 105 118 139 
346 65 198 157 125 104 
154 828 272 168 159 157 
196 142 281 138 107 90 
231 321 270 121 124 129 
277 607 253 96 116 135 
340 175 240 61 73 96 
394 27 224 146 130 123 
80 757 180 103 159 223 
290 659 212 151 145 144 
199 347 272 109 63 72 
160 881 329 144 105 78 
293 614 326 105 123 150 
138 270 238 143 81 9 
275 418 242 61 94 121 
249 395 308 88 101 118 
136 148 282 105 88 70 
395 675 251 178 178 186 
184 962 303 99 65 47 
245 285 286 71 107 137 
94 540 304 66 89 135 
286 358 334 77 93 111 
215 991 304 190 153 115 
316 703 215 140 149 170 
316 350 354 133 139 151 
200 835 343 153 118 102 
161 877 336 148 109 83 
332 169 220 165 70 9 
264 128 267 196 100 42 
236 429 231 79 103 130 
168 964 324 76 51 40 
417 676 278 120 140 197 
110 616 290 89 105 148 
233 436 312 53 70 87 
338 205 275 104 54 60 
146 399 233 65 93 117 
237 580 224 161 154 156 
153 501 189 119 130 143 
320 409 338 182 155 136 
324 282 256 86 132 168 
365 627 304 78 89 101 
215 407 311 76 96 124 
251 224 269 105 47 42 
192 824 228 206 183 165 
212 530 203 103 115 132 
147 318 333 116 53 72 
86 610 202 96 114 133 
324 277 250 84 130 166 
284 433 245 29 75 113 
312 361 266 151 12 54 
325 724 226 161 173 190 
35 711 197 74 104 157 
277 531 340 67 87 145 
264 448 323 86 97 114 
379 737 265 199 42 47 
190 778 198 62 32 89 
313 122 262 167 100 68 
89 794 242 145 136 148 
279 549 294 132 132 139 
313 99 209 148 115 83 
333 654 230 53 84 117 
137 153 286 105 87 68 
257 706 192 183 179 184 
136 154 284 105 87 68 
163 284 263 98 110 126 
165 829 237 214 186 160 
174 849 323 131 102 74 
311 784 292 183 137 106 
177 281 325 100 81 86 
359 134 331 133 68 8 
127 500 238 122 123 129 
325 627 315 61 95 178 
89 721 221 54 69 85 
142 345 242 84 119 151 
98 567 305 99 115 149 
83 616 194 83 105 128 
200 788 204 163 133 119 
140 297 241 142 124 108 
350 633 316 124 148 193 
75 683 219 133 90 72 
284 582 310 110 98 89 
257 459 232 80 108 139 
133 630 159 86 128 161 
160 538 181 107 119 139 
287 491 307 174 169 172 
239 639 346 200 158 105 
136 158 287 105 87 68 
226 558 347 91 102 132 
137 158 287 104 86 68 
87 429 295 116 135 156 
279 358 317 34 74 104 
187 835 332 126 100 75 
76 775 206 104 129 199 
136 715 317 153 169 189 
102 585 221 123 131 145 
109 586 178 120 121 126 
143 819 232 138 74 99 
186 696 172 139 139 145 
128 754 279 117 48 54 
230 961 339 88 71 60 
163 278 262 111 122 137 
224 373 295 54 84 120 
286 317 306 135 107 73 
310 366 264 194 163 127 
222 224 312 126 108 111 
251 356 295 82 96 115 
196 472 212 131 131 133 
92 519 325 178 75 0 
345 750 244 148 110 88 
128 633 324 173 181 207 
180 439 227 71 96 119 
192 330 300 145 96 52 
345 255 296 110 66 72 
118 727 220 49 80 120 
155 461 206 101 115 131 
182 653 196 140 143 151 
145 129 287 105 87 69 
215 322 284 84 103 123 
94 735 162 221 216 225 
41 732 201 68 109 184 
112 462 248 90 110 137 
178 1000 331 173 154 141 
394 703 289 167 177 198 
315 784 291 185 137 106 
91 400 303 81 115 142 
275 574 290 52 39 37 
278 330 308 127 94 57 
114 357 243 121 130 147 
75 738 165 239 230 237 
227 862 317 143 105 76 
141 678 313 154 154 162 
227 396 245 48 81 109 
279 512 335 76 98 139 
251 346 262 109 114 122 
253 459 320 83 94 110 
364 635 312 67 99 151 
103 805 231 170 126 147 
153 274 330 137 83 70 
168 385 247 97 105 116 
413 660 253 143 152 165 
323 268 242 144 100 106 
181 864 276 179 137 107 
38 726 190 180 184 194 
155 707 345 105 122 145 
168 690 170 86 109 131 
156 156 287 78 60 39 
317 348 277 169 125 99 
268 560 322 98 120 166 
177 909 384 181 138 118 
256 454 336 82 104 138 
202 444 324 70 96 131 
122 319 238 140 138 141 
368 750 278 146 140 140 
175 493 190 58 88 119 
140 539 183 126 133 144 
149 320 341 140 144 154 
288 413 346 58 83 125 
103 355 329 62 87 108 
61 663 167 122 124 130 
119 623 157 110 128 148 
68 757 224 108 115 145 
272 608 255 53 70 88 
394 646 293 64 68 74 
297 249 222 164 105 112 
225 414 316 78 101 133 
119 754 174 159 177 214 
135 508 213 130 134 144 
87 410 288 134 139 148 
223 331 284 93 101 113 
296 408 352 100 103 154 
336 718 229 165 170 182 
223 299 282 135 136 144 
48 745 189 176 183 214 
234 549 218 100 121 143 
302 723 215 158 170 188 
136 723 301 123 141 161 
297 419 317 124 107 91 
200 307 279 135 137 146 
143 139 289 103 85 67 
329 155 306 86 38 51 
322 321 360 104 57 65 
122 705 195 87 104 133 
73 287 252 137 99 72 
101 592 233 79 105 131 
231 171 290 105 62 55 
276 554 258 98 120 144 
172 302 330 145 65 13 
168 684 346 126 148 172 
94 526 328 181 67 8 
282 622 236 84 104 124 
244 629 246 83 84 87 
121 603 339 99 129 198 
171 609 175 118 145 171 
285 259 227 115 98 111 
137 827 269 222 184 145 
189 520 340 93 108 127 
291 592 282 98 91 86 
277 380 332 37 73 117 
246 694 340 73 66 59 
302 373 344 71 90 120 
69 645 239 133 106 129 
196 302 335 102 125 149 
374 633 292 103 86 69 
262 362 251 89 104 119 
141 146 288 104 86 68 
141 146 289 104 85 66 
306 395 317 159 128 94 
214 996 314 198 174 154 
299 459 328 79 108 153 
117 407 248 177 128 63 
347 125 300 121 103 89 
131 453 243 127 134 148 
303 126 264 184 98 61 
143 145 290 104 86 67 
233 228 293 127 98 59 
192 626 195 89 132 166 
329 160 306 79 40 62 
257 824 231 243 184 149 
270 220 241 126 58 28 
100 804 241 196 123 144 
363 643 314 85 118 178 
113 363 244 148 143 144 
120 668 192 57 81 106 
191 590 350 117 53 80 
84 712 214 60 77 109 
164 457 337 107 112 130 
338 361 324 169 13 62 
218 284 287 112 109 122 
140 150 289 105 86 68 
345 607 259 127 128 132 
83 632 256 93 76 80 
247 942 323 95 76 59 
183 306 333 104 114 127 
234 273 277 154 159 169 
343 157 238 161 74 5 
261 762 211 66 62 106 
123 412 340 106 93 80 
53 752 214 71 53 131 
333 607 246 95 116 137 
208 774 320 200 152 131 
318 120 242 87 70 52 
344 663 232 115 132 156 
267 546 341 79 100 144 
268 714 197 160 158 168 
194 471 212 108 119 132 
302 638 322 91 124 154 
47 746 205 146 155 210 
344 684 230 61 101 139 
272 360 249 146 140 140 
337 228 339 79 69 89 
213 723 182 164 167 186 
158 222 331 34 61 101 
121 377 243 134 133 139 
86 788 214 179 204 234 
205 234 281 94 39 41 
212 483 214 100 111 125 
137 157 288 104 86 67 
219 927 273 69 54 45 
196 256 324 121 47 31 
236 366 250 116 111 108 
188 244 317 92 39 31 
197 776 198 101 94 90 
81 625 215 100 128 156 
138 157 288 104 86 67 
285 751 218 138 106 57 
109 809 247 223 129 73 
181 203 324 135 46 32 
264 681 344 163 92 62 
222 593 213 142 149 163 
79 311 261 62 96 123 
181 938 380 85 71 60 
137 803 216 64 102 157 
169 327 335 128 113 101 
279 266 300 93 59 63 
101 411 267 106 118 133 
134 639 324 104 130 200 
285 479 318 123 139 181 
294 136 248 119 100 95 
343 177 345 40 48 58 
102 335 306 140 67 72 
108 807 229 152 31 113 
308 639 227 118 129 145 
179 537 350 114 132 154 
286 452 343 142 160 189 
115 798 216 234 52 51 
249 204 267 104 55 62 
201 465 218 81 94 108 
205 678 353 118 100 89 
109 429 343 176 149 122 
375 742 275 182 27 57 
294 762 302 132 101 81 
312 326 361 157 160 171 
295 325 324 70 71 78 
142 154 291 100 83 65 
144 692 270 92 106 131 
248 607 335 135 106 91 
316 726 222 169 68 83 
327 313 358 83 137 178 
118 336 240 85 116 145 
65 648 193 80 77 83 
59 763 210 111 138 204 
329 229 321 61 88 109 
188 366 294 70 95 121 
276 192 304 47 77 100 
180 924 275 78 62 46 
97 608 168 95 109 124 
290 800 230 118 100 84 
125 397 243 89 78 76 
249 365 255 96 106 119 
128 480 357 190 163 137 
117 286 242 126 133 145 
308 373 265 195 164 132 
329 122 277 123 103 91 
338 231 336 45 85 112 
260 500 347 80 106 157 
146 755 324 152 165 184 
244 377 297 61 78 102 
168 656 177 95 119 144 
217 140 279 165 125 97 
222 804 214 160 154 158 
234 929 357 109 84 72 
250 756 326 204 145 115 
176 364 330 98 53 72 
263 770 313 197 143 112 
356 232 329 147 86 99 
262 423 239 65 90 116 
99 468 331 162 131 96 
336 219 254 54 46 57 
170 981 329 112 90 68 
145 131 288 104 86 67 
160 177 327 106 95 88 
330 757 238 71 91 122 
81 263 319 156 78 7 
61 731 211 111 123 140 
129 684 158 190 186 203 
334 687 289 84 119 145 
101 431 262 81 100 131 
88 298 280 129 86 76 
242 661 339 147 89 69 
186 834 335 134 105 81 
238 852 266 219 167 132 
239 652 342 168 127 89 
105 622 278 73 103 131 
196 857 252 207 153 121 
240 267 289 112 129 149 
258 587 244 133 134 141 
93 543 322 136 118 104 
268 816 228 197 138 103 
153 561 175 88 104 122 
164 752 329 160 121 132 
263 296 291 119 120 127 
317 167 212 173 67 6 
234 704 185 131 150 176 
155 618 347 136 169 207 
261 659 210 70 94 117 
293 416 248 100 118 143 
193 737 339 48 50 73 
198 708 346 134 123 129 
324 318 277 174 120 98 
274 793 222 181 156 135 
135 217 320 143 63 6 
285 277 231 153 150 155 
144 675 251 105 119 138 
186 993 342 117 85 57 
217 421 311 88 105 129 
162 258 254 163 155 156 
169 736 174 95 139 212 
228 838 288 169 123 95 
104 307 257 72 56 81 
88 782 205 198 208 225 
178 268 278 156 135 133 
79 742 232 100 106 137 
148 129 290 103 85 64 
216 240 305 136 135 141 
326 386 324 228 188 138 
63 692 215 121 82 66 
305 366 336 68 80 108 
336 121 289 124 100 82 
57 754 191 72 57 120 
251 253 271 163 160 160 
281 156 243 143 61 0 
118 441 245 79 109 140 
279 512 333 73 98 143 
226 874 273 152 110 88 
82 777 201 221 221 231 
297 302 233 94 126 159 
183 476 326 75 94 129 
335 152 323 122 33 17 
342 677 230 79 90 118 
147 261 240 157 150 147 
53 667 182 79 88 99 
193 312 303 158 116 66 
317 736 297 157 140 128 
288 317 309 123 89 52 
342 785 265 211 186 166 
208 702 342 159 67 70 
85 712 213 61 75 100 
278 447 353 84 107 167 
83 725 156 150 42 57 
99 648 261 158 105 92 
148 133 292 104 84 62 
380 687 247 116 128 158 
90 766 257 113 124 140 
189 699 355 74 74 130 
282 441 353 105 125 181 
182 197 325 132 40 19 
140 368 239 119 119 123 
337 309 304 209 178 146 
97 438 325 84 103 122 
312 759 232 168 148 132 
311 712 299 97 86 78 
178 845 321 120 93 67 
180 867 359 148 115 94 
79 774 201 185 173 216 
331 248 355 92 105 125 
269 549 322 140 156 188 
100 418 328 142 146 155 
234 592 341 115 147 194 
113 669 152 173 175 188 
144 137 289 104 86 67 
337 196 262 100 37 48 
307 339 323 117 60 75 
94 555 321 144 129 119 
103 446 333 146 33 65 
179 810 298 177 129 107 
118 794 210 144 54 137 
261 404 238 86 111 133 
145 566 174 68 91 113 
177 484 333 82 99 125 
145 139 290 104 86 66 
245 578 231 100 116 144 
397 649 294 68 96 124 
137 482 228 129 126 127 
172 944 370 81 65 56 
185 670 352 84 104 123 
172 377 313 69 88 124 
306 89 211 94 72 52 
125 629 320 136 154 201 
178 286 326 142 130 127 
212 952 287 112 82 57 
187 842 319 113 87 60 
397 658 247 125 152 196 
184 446 224 86 98 111 
275 828 241 237 179 144 
313 600 260 82 77 73 
271 491 344 145 160 188 
191 798 307 186 137 120 
191 818 224 178 160 152 
102 582 215 102 116 135 
343 224 287 118 61 70 
101 619 267 79 98 120 
85 291 309 113 57 60 
142 715 330 165 19 53 
222 632 350 55 42 47 
198 697 351 171 76 75 
146 140 291 104 85 65 
101 599 294 83 112 171 
78 676 149 80 120 157 
387 698 250 108 133 162 
321 80 224 84 70 57 
65 647 198 79 80 87 
168 338 262 101 113 128 
113 360 337 78 121 154 
301 689 307 134 84 79 
240 923 346 98 78 66 
79 700 151 77 140 190 
300 457 297 165 163 169 
85 352 261 144 53 81 
171 897 299 107 80 53 
88 435 301 90 117 144 
237 908 306 85 66 54 
52 658 214 101 126 159 
102 622 275 65 99 129 
189 866 261 184 141 105 
149 137 293 104 84 61 
106 663 195 90 96 105 
275 826 270 214 158 126 
265 689 195 60 70 92 
207 532 358 161 170 186 
203 234 319 115 33 24 
145 709 337 105 139 169 
371 51 224 120 94 65 
303 280 231 174 167 172 
122 496 244 90 104 119 
339 718 287 55 34 78 
75 634 188 89 113 137 
364 716 291 102 37 46 
47 704 150 97 159 209 
332 269 360 155 155 162 
94 620 249 110 117 128 
344 615 307 98 80 61 
162 221 336 39 46 71 
298 345 327 80 81 93 
148 143 293 103 84 63 
171 940 372 101 84 70 
133 656 247 101 115 140 
369 172 334 106 38 42 
200 524 344 96 109 124 
332 602 256 84 107 130 
168 822 286 194 145 122 
151 140 294 101 81 58 
365 174 311 137 78 66 
336 270 289 159 162 173 
90 521 318 176 72 0 
198 315 278 146 74 67 
151 142 294 100 81 60 
285 529 290 101 114 147 
144 308 241 120 123 131 
241 928 345 86 70 57 
107 336 330 70 62 88 
193 316 331 96 56 75 
160 243 335 102 34 48 
228 876 280 152 115 87 
87 410 291 156 155 161 
335 218 261 46 30 56 
274 271 245 153 73 0 
238 627 339 49 39 43 
385 20 248 152 126 104 
182 349 265 133 107 79 
384 731 273 205 34 68 
154 131 293 108 86 62 
155 130 293 109 86 61 
273 347 311 62 83 105 
345 68 199 154 125 101 
174 373 252 104 112 122 
94 701 195 57 79 103 
241 489 226 80 89 99 
121 283 332 74 99 120 
177 977 337 98 76 56 
168 418 323 82 89 125 
170 868 310 150 115 85 
233 531 339 84 105 133 
220 916 270 69 55 42 
167 690 348 112 139 166 
282 432 340 58 87 126 
254 698 345 92 84 93 
305 809 242 175 129 86 
199 493 331 137 136 141 
182 772 193 232 192 124 
199 946 284 122 88 54 
84 710 152 80 149 205 
155 660 327 55 36 62 
236 694 336 133 116 111 
104 443 334 142 36 41 
312 695 295 135 54 62 
166 328 254 144 139 141 
315 362 277 130 142 155 
157 131 293 108 86 61 
323 701 286 123 44 55 
89 268 289 103 90 80 
386 655 243 127 144 189 
262 695 193 106 116 139 
158 130 293 109 87 62 
142 675 311 126 122 124 
107 580 230 86 106 131 
253 581 238 72 105 136 
153 215 323 98 67 62 
314 381 288 186 154 120 
271 279 298 91 108 127 
129 678 156 200 196 209 
164 162 289 86 61 44 
307 448 333 71 107 180 
307 412 272 132 120 112 
135 732 254 95 100 124 
219 411 316 84 107 139 
297 384 251 122 108 97 
246 577 343 191 200 217 
273 224 301 93 109 128 
377 696 246 96 120 157 
190 164 319 140 69 6 
376 721 249 185 189 201 
319 742 296 157 134 116 
307 674 296 66 87 129 
159 134 292 101 81 58 
54 675 165 114 112 113 
104 589 272 99 114 132 
253 164 289 81 79 84 
156 291 249 130 127 128 
313 374 345 153 66 19 
225 617 231 133 130 133 
368 148 337 134 84 42 
245 840 277 186 135 105 
182 714 170 195 184 186 
311 237 221 114 110 121 
71 655 162 112 115 121 
258 694 192 160 160 167 
210 532 357 105 135 182 
137 819 235 144 104 37 
318 672 288 71 83 110 
103 491 344 189 161 129 
338 283 350 135 142 155 
230 464 225 81 103 126 
98 804 263 172 28 52 
94 456 279 123 124 131 
117 556 228 65 95 124 
306 362 345 139 135 138 
166 420 236 70 95 119 
179 332 272 140 103 61 
246 714 341 158 129 101 
304 235 220 95 123 148 
199 206 306 40 36 38 
141 480 354 178 78 11 
140 378 347 161 162 170 
365 640 240 118 142 187 
138 711 279 84 95 130 
178 889 292 126 95 70 
177 654 347 148 164 185 
256 428 238 136 133 136 
190 460 216 84 101 116 
175 537 350 140 149 164 
107 499 253 48 78 108 
250 698 343 65 66 82 
283 293 239 152 147 148 
290 618 237 99 120 141 
305 410 321 147 66 7 
159 885 313 156 115 89 
94 506 330 183 157 132 
142 684 298 84 102 140 
250 169 292 79 71 73 
376 12 238 120 106 97 
113 502 350 191 161 128 
345 617 264 68 88 107 
231 524 337 70 96 120 
157 137 293 97 77 55 
284 371 247 115 124 138 
346 280 305 165 164 171 
151 505 189 84 105 126 
189 612 185 101 117 133 
104 658 151 172 170 177 
279 373 320 40 65 106 
182 339 311 129 37 76 
318 284 243 93 133 167 
192 180 311 70 40 48 
232 898 290 78 61 48 
158 138 292 90 71 50 
214 468 224 121 123 130 
142 553 179 69 91 113 
161 468 196 88 104 122 
232 622 337 154 109 96 
157 143 291 82 66 48 
145 470 219 84 97 112 
364 129 331 121 112 103 
247 157 262 178 71 0 
312 381 274 204 176 148 
368 167 330 118 53 48 
131 430 243 69 104 139 
323 364 345 198 170 144 
129 452 353 97 120 144 
258 812 289 190 135 112 
86 636 158 100 115 131 
178 947 293 120 87 61 
382 656 305 104 126 177 
211 916 265 117 91 62 
98 579 301 99 115 160 
287 770 301 189 131 100 
127 744 171 164 179 219 
275 632 334 78 69 68 
176 448 217 111 117 127 
268 129 267 184 100 50 
175 438 224 119 122 127 
354 669 295 156 177 203 
115 346 241 131 112 102 
315 325 349 116 106 102 
129 526 222 69 98 128 
128 696 192 92 104 132 
260 627 330 61 75 89 
61 764 208 142 167 216 
112 728 162 136 159 207 
89 515 313 141 99 81 
124 819 278 202 187 179 
291 486 261 141 154 179 
182 840 289 160 115 87 
86 789 215 173 201 233 
175 614 346 194 188 191 
161 442 210 61 91 117 
92 752 249 49 79 112 
170 817 224 226 183 122 
395 25 217 129 115 105 
371 12 243 123 110 103 
229 421 313 65 87 118 
295 766 297 170 125 93 
175 649 186 91 116 144 
239 667 204 131 128 130 
144 148 291 102 83 63 
276 255 300 81 113 140 
92 702 196 63 81 101 
214 731 184 119 162 199 
145 148 292 102 83 63 
172 944 368 86 68 55 
120 348 339 99 88 100 
363 191 325 86 82 89 
340 117 313 109 89 77 
268 835 250 249 187 151 
276 160 246 147 57 6 
311 272 232 95 142 181 
301 728 216 104 106 142 
348 174 345 41 38 37 
332 304 345 110 110 139 
175 583 177 168 166 172 
215 418 307 77 91 113 
97 459 269 81 106 134 
305 350 326 91 82 89 
115 579 177 102 110 121 
142 386 239 87 110 135 
217 203 308 87 39 37 
275 741 327 114 141 168 
274 425 336 71 92 120 
202 456 223 84 99 113 
277 375 321 64 84 112 
232 867 326 152 114 84 
98 584 293 122 140 171 
261 512 239 156 169 188 
221 333 284 86 95 109 
347 743 242 153 33 29 
150 144 293 100 81 60 
109 658 202 52 70 86 
327 650 229 56 80 103 
109 619 287 100 122 158 
139 525 187 97 110 126 
151 502 355 152 127 122 
144 447 231 36 74 106 
151 147 293 92 75 56 
92 799 247 92 79 133 
348 188 349 52 59 90 
225 416 318 89 113 142 
123 744 248 43 78 106 
413 668 253 162 186 216 
96 720 212 46 60 81 
117 819 276 170 153 142 
318 318 333 143 108 66 
135 815 229 204 170 135 
157 256 249 150 146 145 
157 299 247 145 139 139 
226 669 203 77 105 133 
258 166 293 76 84 96 
234 200 307 102 71 64 
52 706 149 85 138 184 
93 369 295 153 115 88 
35 698 170 131 135 145 
293 446 313 109 129 159 
138 575 353 89 121 177 
366 756 272 70 35 99 
116 811 233 249 217 177 
106 653 285 167 115 105 
321 310 347 119 130 146 
317 75 194 172 121 96 
322 597 284 114 105 99 
144 398 238 85 110 140 
234 310 283 129 130 135 
221 557 353 142 163 188 
217 691 182 133 132 138 
95 370 304 124 115 123 
309 409 279 166 144 124 
348 761 287 197 167 139 
120 344 239 105 75 80 
208 139 274 178 128 89 
147 152 293 95 78 60 
249 389 242 71 99 123 
95 401 273 126 125 138 
136 786 301 139 129 131 
348 144 265 168 63 5 
327 272 267 91 107 125 
143 503 193 129 129 134 
229 853 298 155 112 82 
214 629 340 59 89 114 
88 676 212 86 63 58 
255 255 294 142 140 146 
185 672 353 74 98 119 
315 787 242 68 55 62 
152 464 353 167 93 31 
221 555 353 121 144 179 
139 509 194 123 126 134 
187 896 272 107 84 68 
309 801 241 104 123 143 
227 435 322 98 113 149 
91 369 290 149 94 92 
204 815 222 170 147 128 
146 159 293 95 78 58 
350 267 321 75 119 154 
164 216 337 42 51 78 
36 710 206 61 89 144 
166 956 344 90 72 58 
241 510 336 59 83 125 
67 741 169 96 188 239 
242 217 272 61 53 62 
145 742 328 140 104 86 
252 426 315 83 97 117 
224 428 231 56 87 117 
192 454 221 122 127 134 
118 555 239 99 119 140 
327 598 300 125 103 81 
363 760 272 146 131 124 
341 326 336 153 11 65 
292 315 234 100 142 177 
297 611 311 102 100 103 
296 245 303 129 127 130 
100 543 344 149 129 119 
338 49 223 74 65 55 
224 857 347 152 113 82 
369 685 296 140 163 189 
227 763 325 200 150 121 
227 862 344 148 107 77 
220 226 278 159 37 10 
224 550 340 171 162 159 
226 945 287 123 91 61 
131 762 294 115 57 70 
343 257 294 169 164 165 
300 700 316 88 98 113 
238 916 306 75 62 53 
314 817 261 226 157 126 
231 228 275 95 51 75 
346 43 196 145 132 122 
238 661 213 135 133 138 
93 302 283 124 39 67 
148 158 292 92 75 56 
230 569 215 133 142 158 
167 682 344 130 148 169 
205 617 206 113 134 159 
149 158 292 90 73 54 
96 743 243 94 104 118 
335 201 234 156 101 74 
141 729 166 80 159 220 
329 366 317 182 12 64 
216 434 308 70 82 97 
273 606 258 63 63 66 
237 912 302 79 65 57 
89 363 285 113 91 107 
222 381 301 60 89 125 
321 296 252 156 141 138 
189 403 311 71 93 115 
36 687 190 108 126 164 
135 469 236 124 123 126 
303 236 308 120 117 117 
288 377 334 33 59 94 
227 498 330 59 81 102 
223 974 336 113 93 73 
364 175 344 78 48 45 
357 76 208 141 115 89 
396 648 254 49 82 122 
295 317 235 88 135 172 
302 715 307 129 98 76 
305 129 250 163 91 57 
194 627 201 116 134 154 
357 235 319 133 62 86 
136 712 313 132 146 163 
90 292 245 203 84 0 
338 333 340 141 148 162 
154 151 290 86 69 50 
88 409 277 149 153 163 
71 762 183 177 182 221 
155 150 291 85 69 51 
309 60 210 101 87 75 
213 601 208 137 150 170 
111 603 165 118 125 135 
288 393 332 29 48 73 
76 272 298 166 134 92 
172 821 289 198 144 122 
102 541 271 123 124 134 
100 690 194 103 107 118 
102 583 333 87 115 181 
314 360 350 149 158 172 
321 736 292 124 114 107 
213 336 272 122 84 92 
308 803 289 193 141 109 
134 616 341 93 130 193 
203 633 220 92 87 88 
321 399 325 202 121 39 
178 906 283 79 61 45 
297 709 320 164 129 104 
144 730 325 63 96 140 
235 883 346 149 107 77 
230 900 364 157 120 92 
117 271 331 98 116 135 
94 669 208 109 107 109 
103 390 262 127 77 92 
253 204 296 121 61 84 
93 542 325 148 130 114 
221 629 342 86 77 67 
263 556 340 80 138 180 
88 484 312 140 38 59 
169 817 291 179 134 114 
195 665 358 85 97 110 
85 384 273 144 16 62 
159 147 290 77 61 43 
201 283 281 143 138 146 
35 704 176 58 118 165 
289 588 315 145 109 91 
99 765 183 239 232 237 
159 478 193 84 102 121 
165 910 374 170 131 107 
128 426 241 38 95 142 
158 321 336 148 71 12 
107 659 194 39 61 81 
94 424 312 144 150 162 
156 149 291 81 66 48 
339 198 334 69 38 65 
271 424 337 86 105 130 
274 255 239 103 74 88 
351 154 299 113 118 125 
190 856 369 121 97 77 
212 967 302 130 102 76 
157 151 288 79 62 42 
341 44 212 168 166 165 
156 150 290 83 67 48 
257 447 231 151 152 160 
321 125 295 130 64 10 
227 155 268 173 67 8 
368 654 241 143 150 174 
248 486 332 89 105 131 
151 753 178 175 200 225 
139 675 228 132 136 150 
158 150 289 80 63 42 
307 649 293 120 144 170 
247 838 240 253 197 167 
242 495 334 67 90 118 
272 568 303 79 109 136 
175 844 254 218 159 130 
177 287 327 128 121 121 
329 338 342 146 27 59 
134 467 238 121 120 123 
196 514 196 131 132 137 
313 350 263 131 140 155 
320 201 310 108 31 30 
366 25 245 147 132 128 
265 192 254 82 46 38 
180 888 288 116 86 65 
117 659 273 153 104 96 
252 896 343 168 135 105 
222 777 318 200 148 123 
229 747 195 143 34 50 
115 339 337 118 34 68 
347 616 243 65 94 119 
338 184 280 93 34 37 
221 392 309 72 96 126 
272 808 224 130 121 116 
240 275 286 105 103 128 
318 310 252 175 172 178 
173 337 269 134 97 55 
244 943 333 99 81 63 
392 670 301 117 148 194 
387 710 253 81 111 158 
178 431 316 84 102 126 
323 739 230 117 120 133 
226 535 212 151 151 156 
159 636 166 125 149 176 
125 538 196 104 117 133 
128 397 335 89 96 106 
209 303 274 113 132 153 
336 47 215 126 128 132 
175 234 327 52 45 68 
313 635 300 123 151 179 
152 158 290 84 68 48 
151 756 322 129 114 102 
307 633 309 99 130 160 
96 694 152 88 156 209 
93 285 285 137 71 26 
211 613 345 139 135 141 
90 495 322 187 160 133 
75 763 183 129 144 213 
88 706 201 58 73 92 
160 703 164 78 105 165 
297 425 255 122 138 162 
128 737 243 95 105 120 
213 642 228 69 89 113 
236 949 346 101 83 65 
147 573 172 96 113 131 
243 325 286 108 111 118 
252 470 336 110 127 147 
88 269 322 45 74 105 
261 592 248 87 103 121 
115 818 263 109 103 101 
107 343 254 110 79 72 
342 611 264 86 111 134 
124 448 244 125 138 159 
269 291 259 121 126 135 
193 347 270 114 61 68 
375 143 332 156 74 7 
333 296 351 129 153 181 
201 955 290 172 126 83 
347 98 237 117 94 70 
154 626 343 123 157 202 
124 736 236 84 103 124 
115 655 269 149 100 91 
128 163 257 105 77 40 
220 514 332 109 119 137 
190 845 309 92 71 44 
242 325 271 114 120 130 
367 62 212 132 109 86 
313 119 270 165 110 82 
337 188 242 103 85 102 
206 975 298 118 89 50 
274 682 200 113 124 140 
74 767 189 203 196 232 
172 311 332 140 65 24 
308 796 290 187 141 106 
257 498 345 73 99 143 
42 735 198 119 132 173 
59 756 190 139 144 194 
225 131 284 143 117 96 
158 625 343 85 102 141 
135 827 263 235 190 140 
