ply
format ascii 1.0
comment Created by CloudCompare v2.11.1 (Anoia)
comment Created 2/28/22 9:44 PM
obj_info Generated by CloudCompare!
element vertex 2019
property float x
property float y
property float z
property uchar red
property uchar green
property uchar blue
end_header
203 219 266 123 48 85 
193 352 296 98 98 103 
336 758 248 98 113 131 
335 797 265 161 153 155 
309 119 317 123 61 2 
100 443 325 92 111 133 
231 188 298 101 39 58 
211 165 263 114 69 75 
227 973 320 70 54 44 
221 956 280 139 103 70 
233 190 297 99 53 68 
220 550 188 101 122 145 
213 910 375 170 127 100 
138 178 293 105 86 65 
208 352 294 72 85 109 
235 383 237 99 99 107 
379 29 239 160 143 162 
136 656 236 91 107 147 
301 659 224 94 113 136 
332 205 351 94 42 68 
109 663 211 99 104 112 
137 180 292 105 86 66 
100 797 244 208 67 84 
303 811 242 175 124 92 
174 405 228 77 102 124 
239 211 283 110 40 62 
315 118 209 110 88 63 
137 182 292 104 85 65 
279 546 311 145 156 172 
206 450 308 76 89 105 
312 337 264 188 164 139 
337 206 347 120 60 88 
189 885 260 111 96 84 
308 279 342 76 114 144 
140 327 329 120 40 68 
268 837 246 238 177 140 
138 183 293 104 85 66 
150 790 208 151 130 118 
215 696 180 114 136 163 
103 503 260 90 116 148 
214 686 354 186 92 35 
281 260 279 73 89 105 
298 683 331 158 32 48 
288 426 244 88 111 147 
212 640 212 59 80 99 
365 622 269 82 101 121 
118 805 229 179 40 91 
113 440 344 190 160 129 
259 573 227 125 136 168 
183 223 321 71 37 44 
85 636 173 95 109 124 
140 179 295 106 86 66 
182 616 173 97 140 174 
195 846 245 192 140 109 
381 670 251 119 125 149 
273 166 277 96 50 47 
255 754 205 183 124 44 
100 682 158 63 124 185 
278 622 246 95 106 120 
376 752 284 201 63 78 
236 385 235 112 119 134 
105 446 331 137 11 52 
100 400 275 137 39 68 
170 723 172 96 142 207 
181 856 281 168 125 98 
332 134 310 115 99 82 
118 324 254 124 59 73 
112 608 234 99 120 142 
278 587 324 107 95 87 
168 982 299 143 107 77 
142 178 296 105 85 64 
186 526 179 106 123 142 
395 729 291 160 184 213 
235 915 353 127 98 73 
224 431 222 99 112 126 
174 367 307 96 103 120 
291 643 233 67 94 121 
278 633 335 71 91 130 
190 350 340 70 106 139 
108 425 331 105 120 138 
243 772 325 208 149 122 
72 640 232 102 116 131 
249 359 294 56 80 106 
339 180 228 34 78 117 
143 180 296 104 85 64 
125 576 186 82 101 121 
257 505 223 104 120 177 
141 723 291 109 126 146 
266 151 282 95 91 100 
249 922 313 85 66 58 
237 263 267 101 108 119 
234 760 332 193 145 120 
321 638 322 112 133 187 
270 810 289 203 145 116 
360 674 310 121 150 179 
252 637 351 145 110 74 
137 184 293 103 85 65 
176 343 314 114 62 84 
225 366 244 99 72 72 
132 658 225 115 127 144 
149 194 306 85 66 48 
259 343 299 101 102 108 
136 187 294 102 85 66 
302 230 204 126 113 129 
106 804 272 187 156 123 
175 858 316 117 92 66 
173 969 320 78 57 44 
57 658 225 84 108 135 
101 503 268 70 92 133 
295 720 328 41 45 56 
179 904 279 67 53 42 
139 184 295 104 85 64 
288 314 310 125 52 76 
185 951 279 131 99 69 
241 557 205 105 125 149 
242 603 223 123 128 139 
134 520 227 119 122 130 
196 830 296 161 113 90 
287 493 310 173 169 173 
137 189 295 102 84 65 
45 709 213 79 103 172 
230 966 337 87 70 57 
330 222 248 50 42 65 
137 191 295 101 83 65 
180 857 298 146 108 80 
146 684 299 118 129 149 
372 662 247 105 121 148 
276 187 218 58 67 84 
244 573 211 150 163 185 
145 424 354 155 130 104 
217 534 188 102 118 138 
271 714 346 137 122 109 
266 305 233 113 131 153 
309 264 328 75 96 116 
216 787 205 190 165 143 
210 211 263 120 43 68 
340 155 208 137 120 108 
158 747 335 135 114 95 
177 341 299 135 80 95 
140 185 296 104 84 63 
345 657 303 137 157 180 
244 133 275 188 95 12 
224 416 239 46 74 97 
190 732 179 171 191 217 
122 679 192 128 136 150 
140 187 296 104 84 63 
127 546 246 64 78 106 
346 152 333 150 121 109 
290 380 352 48 87 135 
247 554 345 105 127 156 
177 433 317 47 72 112 
174 417 321 70 87 126 
235 545 346 93 109 142 
279 420 335 100 115 137 
366 664 322 78 107 164 
185 641 178 174 173 180 
321 127 332 132 68 4 
215 898 369 89 76 62 
170 358 317 75 84 118 
352 141 249 172 83 11 
180 308 300 68 92 123 
375 637 307 115 93 70 
223 872 262 196 149 112 
102 298 315 104 77 69 
333 618 321 61 57 55 
304 292 228 173 166 168 
138 822 250 198 176 160 
219 288 254 138 143 153 
95 715 224 70 77 88 
340 68 192 156 127 100 
95 788 267 121 51 115 
277 260 275 56 82 102 
323 790 251 155 130 108 
159 901 320 128 95 72 
277 816 230 182 130 93 
220 776 322 203 151 127 
288 371 317 67 91 115 
268 156 280 98 91 96 
285 381 311 85 95 108 
340 762 300 136 120 108 
163 465 197 78 100 122 
167 537 352 93 111 131 
244 936 331 84 69 55 
80 720 230 47 68 107 
148 713 244 71 83 122 
159 895 310 168 107 90 
185 315 290 145 103 38 
256 569 347 59 103 158 
148 589 356 97 123 173 
144 162 293 107 86 65 
229 949 279 108 82 66 
108 574 289 117 124 148 
242 914 342 83 62 47 
126 709 209 97 110 135 
233 425 306 54 69 83 
315 263 272 152 150 155 
403 683 312 97 125 180 
369 45 195 154 127 102 
308 292 339 131 139 152 
109 591 335 125 151 196 
304 327 347 104 118 134 
146 162 294 106 85 63 
160 437 214 55 89 116 
301 440 294 162 165 174 
163 278 314 114 41 59 
190 907 257 102 80 56 
388 732 272 201 210 226 
346 623 249 82 106 129 
99 634 159 94 109 124 
258 569 346 61 99 171 
250 622 238 78 79 81 
292 284 305 117 54 65 
268 565 247 121 126 136 
310 235 335 113 112 115 
311 732 305 56 52 66 
239 939 343 93 70 56 
145 167 294 105 85 63 
145 600 354 156 172 205 
254 823 230 224 157 119 
111 478 350 181 143 110 
333 145 347 133 40 13 
106 295 321 102 77 68 
133 737 176 141 166 207 
274 492 233 182 178 184 
381 726 305 151 124 133 
317 215 344 63 34 31 
83 637 205 104 108 115 
274 313 302 81 84 95 
53 734 207 144 156 202 
348 153 244 173 81 9 
87 408 283 152 150 155 
383 11 243 135 121 114 
121 337 330 90 57 52 
149 162 295 105 84 61 
268 888 328 148 121 101 
208 245 269 122 83 99 
211 590 352 170 171 180 
150 754 317 155 93 78 
103 661 155 187 183 189 
310 122 294 132 84 55 
150 162 295 104 83 60 
364 662 244 87 121 161 
202 307 335 106 118 135 
218 753 331 152 153 160 
237 676 193 87 76 72 
164 762 328 156 142 146 
96 711 218 46 60 80 
91 630 202 77 104 128 
149 165 295 103 83 61 
169 212 312 132 50 5 
295 446 326 121 138 164 
312 146 330 84 39 27 
159 734 176 72 144 205 
359 635 248 123 129 140 
189 168 298 111 68 48 
317 76 215 110 90 71 
408 704 295 86 124 204 
160 955 333 97 76 63 
294 725 329 121 110 105 
175 760 190 163 165 178 
208 164 315 137 68 25 
211 584 352 143 155 175 
151 167 294 98 78 56 
319 606 283 88 81 76 
70 655 171 115 118 124 
245 917 341 90 72 57 
301 169 297 92 42 41 
346 611 306 121 100 78 
263 533 344 105 120 159 
144 170 295 105 85 63 
355 623 287 68 69 71 
357 756 299 124 86 79 
329 629 325 81 101 148 
110 603 311 116 125 178 
201 227 323 56 38 44 
202 712 177 76 145 197 
318 156 338 127 41 22 
146 170 295 105 84 62 
156 677 330 123 139 157 
273 233 213 132 80 44 
371 689 314 116 148 178 
333 184 327 86 65 68 
246 411 233 86 106 128 
173 516 182 146 149 159 
225 780 205 133 115 108 
227 571 356 179 179 187 
137 665 218 123 135 151 
393 20 246 151 110 87 
176 272 332 95 36 43 
146 206 316 85 75 66 
199 235 323 64 34 32 
396 652 308 80 69 58 
177 638 173 146 162 188 
285 399 342 51 82 126 
191 888 366 148 112 96 
237 644 353 146 93 45 
222 906 369 169 131 107 
103 624 271 114 116 122 
116 611 249 118 129 143 
178 520 342 160 155 156 
398 13 247 117 94 86 
227 526 350 121 139 165 
80 772 226 58 147 210 
235 544 346 93 109 142 
151 169 295 97 77 55 
259 189 240 50 54 85 
318 592 313 130 107 84 
314 132 211 113 91 65 
209 375 306 55 80 112 
318 589 302 101 94 89 
115 404 335 105 123 143 
140 356 326 68 64 65 
88 630 246 73 113 145 
141 696 210 52 75 119 
295 218 284 56 86 107 
331 216 293 68 109 142 
232 438 316 59 74 96 
360 94 227 137 109 87 
104 565 294 138 149 166 
361 655 244 53 93 136 
95 741 250 66 85 111 
227 927 269 75 52 39 
290 382 244 106 94 84 
214 264 280 137 126 129 
264 577 340 116 140 188 
297 458 298 165 167 175 
201 801 308 185 134 117 
99 322 313 99 87 104 
208 406 227 77 107 133 
171 615 350 75 107 151 
297 336 234 121 140 165 
245 293 254 105 85 83 
171 266 328 99 47 61 
288 383 351 48 90 136 
168 655 346 82 84 92 
150 172 296 97 78 55 
303 372 347 144 75 91 
304 739 314 140 120 103 
163 324 335 153 73 11 
204 925 257 73 57 42 
198 847 306 100 76 46 
229 568 354 166 168 178 
279 153 230 143 124 108 
94 715 166 203 194 206 
276 318 229 90 106 137 
256 554 348 106 141 178 
268 890 329 147 118 96 
307 294 347 86 52 77 
216 199 319 41 41 61 
160 641 166 134 161 196 
133 326 244 123 107 104 
317 593 315 129 105 80 
230 295 249 83 119 151 
147 425 235 40 78 110 
316 287 244 84 126 161 
169 785 311 155 121 83 
139 274 240 189 159 128 
127 655 315 185 128 126 
329 85 224 72 61 49 
219 527 352 112 136 169 
319 755 237 72 63 69 
154 163 293 92 73 52 
107 434 331 130 128 130 
400 696 312 101 129 202 
139 303 240 125 110 99 
337 57 223 86 75 63 
187 573 359 165 174 190 
154 939 315 79 65 59 
307 129 219 101 84 64 
222 740 334 158 144 135 
197 999 331 156 127 96 
227 807 305 189 128 109 
250 599 232 102 118 137 
97 540 296 95 106 140 
341 180 291 131 49 79 
310 666 314 98 139 175 
215 244 303 124 121 124 
333 219 285 108 71 86 
172 975 308 74 52 33 
297 825 251 231 165 133 
170 310 331 155 133 111 
183 255 331 44 48 70 
299 598 317 145 106 90 
198 161 285 132 92 72 
135 735 175 165 165 188 
95 505 330 169 152 137 
296 150 295 48 63 80 
288 464 313 99 120 160 
206 433 304 71 80 91 
266 117 285 117 68 9 
288 328 225 96 137 169 
103 728 238 74 79 86 
157 160 291 85 67 47 
313 605 316 132 89 74 
375 39 229 123 97 69 
316 621 332 91 122 168 
207 841 332 134 101 74 
285 461 339 95 119 162 
205 546 358 154 164 181 
194 361 256 127 110 95 
82 680 157 80 152 206 
180 176 302 88 67 56 
227 242 275 115 103 107 
182 898 277 76 61 50 
159 160 289 76 59 39 
361 16 204 127 107 87 
159 161 289 74 58 39 
277 161 222 153 64 2 
119 743 250 65 76 93 
218 750 192 82 72 111 
253 756 334 207 150 121 
76 739 233 99 109 147 
293 724 331 147 131 121 
267 623 254 45 73 99 
213 896 242 119 92 71 
323 125 305 107 96 88 
277 797 225 130 118 114 
188 372 243 119 122 128 
48 709 223 64 88 158 
156 162 292 86 68 48 
260 774 213 137 112 99 
63 736 184 134 146 202 
171 378 319 82 91 118 
109 770 199 174 200 224 
368 639 326 169 171 179 
102 797 236 183 74 88 
194 817 300 186 131 112 
98 625 232 99 104 112 
218 442 212 109 113 120 
188 424 209 73 94 115 
291 356 326 105 114 127 
98 708 210 67 75 88 
313 196 328 47 45 60 
308 218 314 99 48 68 
189 323 285 131 77 21 
294 128 283 188 88 18 
229 857 292 155 113 87 
196 306 324 99 98 107 
162 958 318 95 77 66 
182 689 359 118 148 177 
158 166 289 71 55 35 
295 605 314 133 97 75 
99 558 340 150 3 48 
348 22 225 113 103 96 
192 257 323 75 31 28 
332 641 238 29 70 110 
110 511 244 53 85 128 
259 202 241 108 28 30 
183 906 269 85 67 51 
295 429 252 86 101 137 
301 674 219 110 121 148 
284 556 271 100 118 139 
138 668 218 88 109 137 
314 251 350 93 107 126 
86 420 289 116 134 155 
281 717 206 100 101 109 
249 422 233 63 90 120 
228 253 271 101 110 124 
262 790 309 210 149 123 
304 251 310 107 109 116 
314 84 199 134 95 73 
105 424 328 136 140 150 
127 323 331 76 71 93 
276 698 347 142 87 55 
110 324 259 125 125 131 
88 491 302 169 139 106 
379 641 313 97 81 65 
154 169 292 83 66 46 
157 222 311 139 57 11 
73 707 161 82 159 218 
190 646 185 129 152 179 
117 396 256 139 107 69 
158 629 164 175 177 186 
47 721 206 53 96 173 
94 548 309 91 104 143 
87 634 209 94 101 111 
236 306 250 83 110 134 
354 647 320 36 59 134 
132 437 349 119 54 75 
214 423 311 78 95 117 
265 276 272 89 85 85 
168 307 256 75 104 128 
146 515 202 133 132 137 
302 136 222 122 101 89 
321 228 218 130 83 91 
49 713 225 82 91 153 
231 765 201 40 30 57 
205 251 270 163 158 158 
192 847 305 119 92 65 
286 546 281 101 118 137 
123 768 196 218 213 232 
126 475 353 176 146 113 
172 965 334 99 77 57 
154 174 294 78 61 42 
217 358 283 80 90 103 
245 735 194 166 149 153 
166 247 311 33 32 42 
331 81 225 77 65 53 
360 627 287 80 77 77 
127 486 222 80 108 133 
360 629 281 72 82 94 
330 630 325 76 97 147 
87 382 290 129 97 88 
142 434 234 64 87 110 
321 729 296 135 111 95 
408 705 296 154 173 217 
216 531 354 126 150 181 
288 521 278 88 114 162 
105 276 265 84 94 106 
249 928 312 83 68 55 
159 169 289 70 53 34 
249 461 327 103 119 142 
279 519 334 56 73 104 
219 761 329 122 124 128 
308 711 307 105 81 87 
131 337 336 115 30 61 
189 667 356 132 152 175 
260 577 232 113 125 157 
249 620 234 114 116 122 
312 197 321 80 39 37 
302 584 298 122 114 109 
345 657 304 135 155 179 
130 793 297 93 81 100 
149 778 314 141 126 125 
101 579 332 126 139 160 
339 128 239 102 90 80 
164 903 355 160 123 98 
331 684 231 78 92 128 
304 131 230 115 100 88 
150 227 312 136 57 17 
122 501 355 171 143 114 
215 918 261 81 62 44 
129 540 241 79 97 119 
323 334 321 191 160 125 
141 416 350 174 151 129 
310 647 320 112 138 164 
188 979 340 122 98 71 
86 316 268 81 98 123 
310 116 316 116 82 51 
241 364 239 117 111 107 
159 369 343 75 103 127 
379 707 313 157 180 207 
108 708 204 80 94 111 
233 627 342 93 78 78 
295 600 317 139 96 79 
241 604 342 118 137 160 
142 196 302 86 68 48 
128 804 220 140 82 75 
153 175 296 82 65 45 
288 628 334 100 110 148 
244 267 265 76 61 60 
143 550 191 92 105 120 
220 362 265 84 94 106 
104 800 272 226 190 149 
310 820 287 212 146 119 
233 544 346 84 102 132 
101 542 344 174 63 10 
197 866 367 119 92 67 
253 482 215 75 113 150 
221 168 286 135 75 37 
119 569 263 132 127 126 
344 173 290 54 93 132 
198 195 333 109 67 58 
183 263 328 46 33 37 
258 493 343 67 91 131 
281 573 300 111 108 109 
188 988 339 121 78 45 
168 963 303 137 107 84 
110 295 337 89 57 60 
309 218 205 83 128 165 
309 366 271 160 68 82 
312 313 281 139 22 59 
190 426 208 76 96 116 
226 564 357 132 150 174 
275 576 258 126 129 137 
207 153 312 127 79 47 
177 394 308 69 84 122 
235 877 325 150 111 83 
145 668 273 37 44 87 
186 319 321 102 65 77 
363 743 258 129 18 22 
308 365 341 194 162 126 
312 120 220 86 73 59 
228 272 252 143 144 152 
70 759 225 80 106 181 
155 224 311 135 62 23 
146 182 298 100 81 59 
247 929 309 71 56 45 
318 589 300 114 106 100 
290 424 343 89 112 167 
305 259 213 178 63 92 
125 378 342 78 120 153 
135 514 360 137 123 118 
193 503 182 96 111 130 
158 326 242 87 117 143 
335 144 349 128 37 7 
296 800 295 186 141 106 
186 955 282 148 108 67 
120 588 254 139 143 153 
237 906 343 147 110 85 
120 772 199 193 73 88 
241 894 305 125 64 34 
144 364 338 59 89 115 
413 688 277 127 144 202 
87 385 280 126 23 75 
303 119 301 130 77 43 
243 362 241 106 108 113 
386 713 308 151 171 195 
151 818 279 130 120 118 
371 633 309 116 94 69 
285 516 304 157 158 167 
187 897 372 108 89 71 
208 542 357 89 120 161 
104 618 211 105 114 126 
115 594 269 121 129 142 
164 393 240 54 78 99 
325 93 221 78 66 56 
204 748 336 202 171 141 
332 777 252 156 139 128 
244 309 271 84 86 90 
129 319 332 107 77 94 
242 292 267 44 37 42 
123 578 230 100 117 137 
173 952 356 95 77 64 
353 65 195 144 119 97 
155 943 311 79 63 54 
239 548 347 95 114 145 
362 762 292 151 118 123 
203 445 204 130 130 134 
143 732 277 120 135 155 
335 177 212 148 76 40 
309 181 200 122 128 139 
305 667 221 124 128 138 
205 286 283 81 79 103 
191 673 183 127 127 131 
157 902 323 96 70 49 
323 143 204 126 99 66 
324 620 243 26 71 118 
160 950 300 135 104 73 
124 576 225 127 134 146 
188 999 292 114 77 55 
298 431 303 160 17 78 
99 472 329 127 113 116 
113 609 306 168 177 196 
163 884 326 145 108 80 
194 483 188 95 106 119 
208 371 260 89 76 82 
140 749 182 185 204 226 
290 769 225 165 138 127 
262 116 280 178 147 123 
312 287 354 86 129 163 
301 775 234 148 130 117 
147 185 299 94 76 55 
294 627 332 79 93 146 
315 127 276 143 98 76 
184 317 343 100 110 124 
273 559 319 131 144 164 
342 181 297 131 59 85 
292 588 294 111 101 94 
286 646 344 89 97 108 
213 918 260 92 70 47 
172 945 360 103 81 66 
274 774 218 127 115 109 
166 893 349 161 126 99 
304 760 314 141 121 105 
195 727 178 148 179 211 
192 308 344 99 119 141 
146 815 280 172 148 130 
164 551 178 84 101 118 
301 114 305 116 85 62 
339 744 300 123 109 110 
170 572 169 129 134 144 
164 768 192 178 141 124 
300 396 332 145 122 99 
93 489 284 53 95 129 
315 655 230 90 112 139 
232 384 288 49 64 77 
415 682 272 104 142 205 
230 362 236 142 106 73 
93 375 296 140 82 84 
232 391 291 33 52 69 
268 529 243 124 129 138 
169 931 277 77 60 50 
129 794 213 210 131 53 
339 615 281 77 79 84 
170 696 347 117 136 158 
150 665 258 71 85 138 
267 828 235 236 177 144 
149 185 299 92 74 55 
274 767 217 123 104 95 
195 316 329 99 62 63 
213 685 356 189 103 28 
250 525 344 74 93 121 
348 652 240 129 140 157 
106 361 327 73 64 95 
396 19 247 175 133 109 
240 227 272 122 55 16 
129 368 340 73 116 150 
194 495 325 71 94 127 
309 182 313 42 49 65 
150 184 301 88 70 51 
184 883 275 148 115 91 
129 268 334 156 108 81 
175 859 314 116 91 65 
127 768 285 83 44 68 
151 185 302 82 66 49 
177 344 260 99 109 121 
241 300 268 89 91 96 
134 716 167 120 127 158 
327 114 231 78 65 51 
100 290 292 97 84 74 
151 187 303 78 63 47 
167 511 183 142 147 161 
384 670 252 170 170 181 
295 411 309 150 62 11 
52 670 175 113 112 114 
219 295 251 95 114 133 
149 188 302 87 71 53 
351 114 211 149 118 86 
275 229 269 107 102 102 
200 245 324 70 38 51 
107 568 283 128 135 148 
126 276 334 134 112 112 
236 168 256 128 43 28 
343 782 261 179 160 146 
285 516 303 165 164 170 
396 649 255 144 148 158 
261 415 322 45 74 119 
254 380 310 66 81 110 
250 756 334 207 150 121 
253 129 282 118 85 62 
314 307 294 177 148 119 
282 325 307 117 36 66 
299 780 234 138 120 106 
131 451 242 106 119 137 
260 135 282 108 64 62 
299 303 323 122 92 52 
237 886 321 141 105 78 
226 855 332 145 107 74 
201 717 351 72 68 89 
337 123 346 109 87 65 
192 394 300 47 73 108 
102 301 273 134 31 33 
205 181 261 131 52 47 
218 719 182 125 149 191 
219 322 245 81 103 124 
106 370 323 87 41 66 
304 117 302 126 80 55 
87 632 193 88 114 140 
296 454 299 181 174 175 
312 246 347 121 122 129 
111 425 333 89 110 132 
401 694 312 95 122 197 
150 804 289 188 164 142 
103 416 273 111 124 139 
309 716 224 115 128 147 
237 436 230 57 80 100 
154 176 296 78 61 42 
39 695 191 86 102 145 
232 428 235 44 63 80 
224 236 257 149 35 12 
395 14 235 138 109 88 
291 165 283 119 57 64 
134 655 158 129 156 199 
202 687 180 146 144 147 
223 704 344 156 99 65 
156 284 247 115 115 118 
319 228 215 135 98 90 
233 585 207 113 147 181 
126 472 353 174 146 116 
188 896 264 109 86 69 
353 139 257 142 86 21 
373 23 196 110 107 108 
180 800 304 175 152 132 
137 652 159 143 161 192 
154 181 299 73 58 40 
266 715 346 183 164 150 
160 926 350 118 95 78 
235 921 276 60 46 41 
144 461 215 92 100 111 
141 274 326 93 92 99 
292 161 209 111 98 88 
150 751 183 157 182 211 
311 331 353 164 164 173 
292 129 268 186 87 33 
244 497 210 108 128 155 
360 752 300 119 117 123 
350 135 241 120 110 102 
285 586 298 80 74 75 
99 528 338 176 76 8 
192 306 287 104 115 130 
193 149 257 207 79 12 
310 661 319 114 148 183 
340 178 234 115 62 79 
214 284 261 120 117 126 
154 183 302 73 58 40 
304 422 270 152 127 126 
118 809 249 85 56 112 
266 162 231 157 66 0 
323 617 245 71 98 122 
325 770 247 130 103 79 
315 370 313 210 178 146 
157 179 297 69 54 35 
214 174 309 105 35 33 
111 782 207 130 102 148 
232 892 295 103 72 54 
288 457 246 95 116 156 
288 800 230 136 122 112 
298 327 329 136 93 27 
152 349 243 76 116 149 
345 36 203 116 102 88 
234 970 318 119 97 76 
180 312 297 152 110 50 
208 346 290 82 93 109 
329 113 233 79 65 50 
106 799 228 153 50 70 
108 298 297 145 59 6 
279 489 328 174 176 186 
329 151 203 89 77 67 
294 753 322 118 97 79 
185 402 225 61 84 110 
284 507 257 126 130 181 
155 665 326 178 175 179 
302 180 294 117 52 55 
97 509 280 85 106 136 
139 757 298 146 85 82 
138 663 223 102 118 150 
162 340 246 103 105 119 
311 801 244 111 124 140 
261 645 352 179 137 91 
148 443 361 180 153 127 
287 382 328 53 86 111 
292 690 213 144 143 152 
134 648 158 182 178 183 
212 362 264 94 55 63 
174 350 318 95 105 123 
229 439 219 107 116 126 
98 338 316 144 73 85 
250 398 307 82 94 116 
239 200 293 96 73 81 
155 747 326 144 60 68 
314 364 310 176 92 78 
173 907 369 167 129 106 
226 530 195 107 118 135 
186 1000 325 154 126 95 
176 775 197 141 114 85 
376 38 198 155 120 98 
178 375 335 74 70 80 
265 457 326 57 80 106 
189 800 306 184 136 117 
331 749 298 158 139 125 
201 358 263 105 62 69 
156 185 303 68 54 37 
208 631 192 127 148 173 
228 285 268 77 104 127 
259 219 243 46 59 89 
130 594 164 83 102 122 
229 548 346 109 116 128 
370 699 252 126 144 169 
72 756 234 81 120 159 
235 646 353 120 76 62 
243 434 313 75 86 102 
214 732 338 150 131 116 
359 766 289 72 63 81 
129 706 165 190 188 200 
242 765 204 59 86 118 
85 410 289 157 157 165 
288 652 346 77 72 75 
183 910 269 79 61 47 
151 190 304 82 66 48 
371 681 248 119 137 162 
238 916 284 71 56 48 
229 977 306 81 63 56 
292 689 337 166 116 72 
249 666 201 121 121 125 
300 230 293 64 94 119 
316 299 342 103 129 156 
181 333 260 139 135 138 
320 787 300 144 117 97 
208 971 284 93 70 44 
99 560 338 165 18 78 
315 617 244 76 101 124 
114 413 335 141 133 127 
148 761 188 226 42 44 
298 697 216 120 125 136 
185 297 298 88 103 131 
149 712 251 93 108 132 
321 111 224 80 68 56 
148 785 307 187 164 149 
302 248 305 69 88 107 
118 272 346 40 86 117 
61 703 215 86 92 119 
248 815 296 185 129 105 
117 544 251 107 111 120 
168 408 333 66 81 124 
232 931 357 132 103 87 
309 201 307 123 20 29 
321 327 330 147 151 160 
154 189 306 72 57 38 
160 634 344 118 141 173 
147 197 308 92 72 53 
295 228 285 72 99 121 
284 402 345 79 97 131 
172 295 259 85 118 146 
229 973 318 78 61 48 
315 304 276 124 129 139 
131 662 205 60 80 116 
264 460 327 70 89 114 
334 603 291 112 101 92 
269 645 226 44 84 115 
209 432 305 75 83 94 
240 347 277 85 86 91 
156 186 305 70 55 37 
115 610 163 128 133 141 
197 316 267 120 122 129 
274 830 240 237 181 147 
40 705 179 37 74 166 
89 450 307 88 125 159 
240 895 323 147 100 78 
147 668 271 29 37 90 
187 289 330 117 64 80 
347 169 296 59 93 122 
282 498 246 188 184 191 
112 310 254 138 132 131 
233 608 343 165 120 115 
319 190 204 159 85 81 
218 634 350 71 62 70 
229 941 356 136 103 84 
392 720 269 150 158 173 
200 223 324 79 42 51 
198 167 316 117 87 70 
135 761 292 104 92 105 
231 658 205 80 108 137 
332 610 316 139 106 76 
252 909 335 114 94 76 
182 827 287 177 131 111 
252 909 325 123 90 71 
270 301 222 108 118 133 
97 363 296 94 101 114 
216 676 187 129 126 128 
275 718 345 139 122 106 
353 626 279 60 75 89 
44 688 217 33 87 134 
324 332 313 201 172 144 
180 860 291 151 113 86 
284 129 269 182 96 61 
304 424 282 153 131 115 
198 864 361 138 99 77 
144 759 187 220 25 46 
279 490 237 135 147 170 
189 849 344 132 108 83 
334 146 348 132 41 22 
107 784 212 204 64 87 
87 778 248 156 172 195 
230 163 276 170 104 73 
197 964 362 97 78 64 
192 183 261 116 62 39 
137 498 212 177 172 175 
154 663 165 152 165 198 
334 190 259 116 16 44 
287 606 270 65 77 90 
329 246 294 90 127 157 
144 682 300 69 92 143 
209 829 234 207 146 107 
250 415 314 71 86 111 
391 692 313 125 136 188 
284 516 304 149 151 161 
141 382 244 95 115 137 
109 622 273 141 146 157 
117 677 159 203 196 205 
225 444 326 117 129 153 
319 353 324 176 126 91 
115 800 286 137 141 159 
219 185 263 124 49 33 
344 119 232 111 88 63 
293 734 216 176 46 61 
241 419 234 69 86 105 
184 848 252 208 152 121 
106 476 338 168 140 107 
214 896 368 62 54 48 
198 744 340 129 125 127 
303 297 327 69 96 119 
103 466 331 146 105 66 
302 785 237 144 119 94 
176 338 301 135 70 92 
398 16 230 142 113 91 
317 86 197 143 98 73 
201 738 184 156 188 220 
340 164 261 45 87 133 
155 478 194 121 134 151 
162 949 339 92 73 61 
311 252 214 160 90 81 
298 155 297 48 38 41 
171 936 364 160 122 104 
231 150 284 153 121 100 
221 301 270 73 98 119 
206 914 378 172 134 108 
308 308 239 176 175 184 
200 457 320 76 99 131 
336 195 279 157 61 57 
155 513 189 110 122 140 
273 441 322 69 82 103 
229 546 195 128 131 140 
144 680 314 124 127 136 
164 317 248 78 107 135 
133 212 318 75 57 40 
276 799 297 202 141 109 
95 512 330 138 143 154 
99 326 308 87 83 88 
126 672 159 201 198 206 
282 582 299 61 65 70 
166 130 259 104 87 67 
100 736 175 147 169 209 
267 146 246 175 146 127 
126 655 156 143 167 197 
223 616 345 144 137 135 
226 955 282 124 95 73 
211 154 310 142 70 7 
144 354 332 87 88 94 
101 381 273 126 27 43 
147 818 231 43 62 78 
101 799 249 183 64 69 
297 605 268 94 113 132 
122 305 331 118 57 71 
312 179 201 158 75 36 
268 629 246 57 90 116 
251 832 281 182 128 99 
371 676 248 87 114 151 
233 214 259 103 43 53 
165 132 257 104 85 63 
136 486 362 171 75 9 
158 829 247 185 169 159 
303 775 234 180 158 142 
335 654 298 124 142 163 
172 411 340 36 59 91 
300 224 290 70 98 121 
318 241 218 117 105 121 
149 526 356 126 138 168 
103 753 187 224 221 227 
311 657 299 101 130 157 
181 305 301 100 102 115 
219 402 306 56 82 116 
234 218 281 119 39 73 
193 365 298 59 77 99 
138 448 356 178 158 140 
115 800 223 222 176 138 
346 83 198 126 100 71 
103 541 349 181 70 8 
159 406 359 144 156 174 
220 543 188 125 135 150 
58 687 224 114 131 174 
169 779 199 95 30 55 
177 344 310 129 50 83 
177 972 325 95 63 46 
314 314 264 157 154 157 
333 199 254 121 34 61 
267 581 331 80 103 135 
79 688 158 96 139 171 
179 848 268 192 144 113 
286 382 328 55 85 110 
404 655 262 63 96 123 
334 662 234 52 74 103 
246 937 300 89 70 59 
275 435 349 113 134 160 
230 181 300 132 59 68 
294 682 336 118 36 89 
127 472 354 176 150 125 
288 197 277 82 80 87 
329 241 299 90 123 151 
39 701 196 168 162 163 
118 356 260 107 123 142 
192 804 305 184 134 116 
205 811 304 185 126 110 
329 245 317 86 120 147 
168 135 258 114 93 71 
256 777 212 117 107 101 
283 719 341 162 141 123 
287 470 316 141 151 169 
214 258 266 83 124 164 
297 433 304 161 15 85 
289 136 291 88 75 75 
187 843 338 141 112 85 
395 26 216 210 191 180 
114 613 247 84 99 121 
315 314 273 156 146 143 
213 494 193 152 149 152 
303 150 211 115 96 76 
371 690 251 141 152 175 
77 754 192 144 147 214 
281 251 209 71 115 149 
122 757 188 120 168 213 
118 375 261 93 107 124 
235 211 289 107 60 71 
114 620 276 85 99 113 
198 682 363 74 82 92 
296 467 277 114 129 155 
79 694 159 88 148 197 
169 128 265 99 84 69 
168 329 334 123 97 82 
169 128 266 101 85 70 
181 268 266 145 136 134 
179 322 338 124 119 119 
123 470 351 139 91 61 
279 214 270 104 29 52 
199 917 379 181 143 121 
212 669 364 83 94 107 
276 330 235 93 129 162 
159 824 237 203 150 92 
169 131 265 105 88 72 
196 505 183 102 115 133 
293 437 337 57 88 141 
112 590 276 130 136 149 
106 617 228 93 114 136 
333 77 226 92 77 63 
129 552 234 76 96 116 
260 254 266 74 66 60 
281 488 322 151 165 186 
288 215 204 119 62 73 
120 590 253 104 121 141 
288 367 322 65 78 112 
317 321 336 137 43 62 
149 279 316 94 52 52 
211 955 278 124 93 69 
89 395 306 100 71 89 
329 142 316 107 59 0 
261 538 345 126 145 171 
187 883 265 107 82 59 
222 364 262 68 80 94 
286 307 306 107 58 89 
274 817 281 199 144 114 
345 623 249 93 113 133 
318 165 201 138 123 109 
249 609 234 83 111 136 
169 766 191 150 30 43 
98 796 245 207 73 80 
103 302 317 96 68 59 
214 147 268 159 97 69 
121 745 179 145 154 190 
275 572 258 88 106 124 
287 326 310 125 68 83 
172 873 309 143 110 83 
287 498 254 153 157 169 
183 316 260 119 128 141 
115 602 224 77 108 135 
156 282 315 90 45 45 
322 133 335 110 99 94 
402 702 272 137 149 178 
136 698 165 83 117 165 
125 294 245 90 108 126 
204 273 286 67 108 141 
283 566 293 140 135 135 
385 734 299 116 147 188 
200 977 346 87 66 48 
189 990 339 151 118 88 
217 728 183 161 158 166 
142 708 292 133 147 164 
212 920 377 179 131 106 
297 421 318 147 132 122 
116 273 338 112 59 31 
168 134 269 101 86 72 
182 170 257 159 63 46 
289 617 306 31 41 51 
322 239 353 151 149 154 
177 395 350 133 139 151 
169 135 268 103 88 73 
174 292 330 113 16 46 
176 637 172 132 152 179 
214 639 352 87 57 64 
342 752 249 185 69 80 
271 499 230 111 128 151 
168 136 258 115 93 72 
49 725 187 213 204 204 
155 617 348 91 111 169 
223 384 259 66 83 102 
175 303 329 94 103 114 
318 694 293 137 74 77 
304 407 292 182 70 5 
168 139 257 134 113 93 
229 336 274 86 89 95 
111 285 259 123 38 59 
156 771 194 155 13 39 
126 812 281 224 205 193 
317 77 213 110 91 72 
332 206 250 105 27 47 
213 297 273 89 37 53 
386 648 290 97 84 72 
345 135 214 127 101 71 
87 384 281 109 57 84 
374 659 248 131 139 153 
224 886 356 172 129 105 
380 694 256 141 149 178 
168 138 261 115 96 78 
139 653 252 124 137 157 
168 139 261 118 100 83 
250 946 310 92 72 54 
249 822 229 214 142 107 
254 700 191 106 129 156 
245 923 304 77 60 50 
316 270 282 132 137 147 
275 765 217 99 116 134 
226 881 353 169 127 99 
354 756 299 122 116 119 
352 764 259 206 173 140 
216 583 354 95 116 172 
278 584 317 52 61 71 
43 672 192 82 91 106 
287 444 244 72 98 124 
96 618 185 104 121 140 
219 638 356 60 57 89 
91 482 316 145 54 47 
172 406 354 153 159 172 
284 794 298 198 143 109 
299 682 216 45 64 90 
269 759 212 106 78 76 
95 371 276 66 92 123 
274 128 289 108 107 110 
151 775 317 130 125 134 
182 853 343 128 105 80 
80 721 230 43 68 109 
292 703 334 130 118 109 
272 630 335 96 108 143 
333 185 326 79 68 71 
335 197 234 165 85 78 
171 142 259 119 103 90 
286 281 298 100 91 90 
144 752 306 118 50 72 
206 692 360 125 94 90 
65 748 199 140 154 202 
194 301 342 115 126 142 
261 160 283 95 94 98 
181 204 319 137 54 5 
248 405 231 58 103 143 
305 371 343 175 72 17 
262 633 338 35 44 59 
194 171 323 103 90 79 
151 923 305 85 67 57 
166 326 249 66 91 114 
157 666 327 140 140 155 
134 534 356 151 139 136 
278 511 323 137 152 172 
282 522 311 103 123 146 
193 688 362 94 121 146 
200 561 359 186 196 215 
266 630 335 78 100 126 
170 143 261 113 97 85 
164 813 288 97 82 80 
354 87 232 106 86 65 
295 131 253 165 103 86 
345 174 294 82 107 134 
100 552 343 173 148 127 
327 731 294 100 89 83 
253 590 237 95 111 130 
236 262 268 88 101 116 
195 314 265 137 138 144 
333 199 255 122 40 61 
317 283 262 158 150 149 
347 622 323 85 86 90 
265 569 235 135 135 141 
269 592 259 100 104 111 
173 143 259 121 104 92 
132 470 230 106 110 117 
312 639 235 96 113 133 
283 423 355 79 110 171 
202 751 335 189 154 118 
325 253 328 81 119 150 
148 446 227 79 95 113 
277 266 277 90 83 81 
332 613 272 82 94 108 
180 579 170 166 166 176 
189 768 325 208 183 162 
346 146 223 120 107 97 
269 400 318 36 64 91 
307 374 279 148 145 148 
86 334 278 146 96 75 
279 833 247 239 179 144 
294 155 210 133 118 108 
130 229 334 124 73 61 
173 143 262 110 97 88 
137 584 354 118 143 203 
226 721 340 133 117 105 
303 648 330 115 146 176 
160 179 297 66 50 29 
154 563 358 110 122 168 
91 321 266 116 103 118 
331 216 290 77 103 128 
122 718 167 85 160 216 
140 518 220 71 92 118 
289 367 326 59 76 109 
263 468 329 68 88 113 
319 819 269 204 135 107 
261 574 344 93 125 179 
191 790 206 76 49 59 
236 905 344 159 118 90 
118 540 249 96 103 117 
299 445 268 84 106 149 
298 401 340 147 127 115 
170 775 197 190 139 104 
343 158 332 130 54 49 
168 139 266 103 88 75 
307 149 323 64 43 48 
209 818 226 85 139 181 
168 136 269 100 86 73 
94 445 313 75 114 147 
274 265 215 137 57 69 
164 472 346 125 129 138 
181 463 324 141 139 142 
334 126 204 142 111 77 
207 859 246 227 158 123 
232 158 279 162 120 97 
126 668 297 174 114 106 
221 903 260 77 62 47 
224 161 277 154 89 55 
163 545 356 91 112 138 
144 715 282 126 137 153 
168 138 271 96 84 72 
119 551 356 176 163 159 
419 671 304 114 137 170 
61 666 169 108 108 110 
305 414 328 152 135 124 
168 964 327 88 71 58 
306 394 271 152 116 92 
91 630 204 115 125 139 
155 382 346 88 58 58 
168 141 266 101 87 76 
320 255 255 71 118 153 
239 541 346 131 140 155 
102 794 276 152 18 49 
293 585 319 129 109 91 
315 277 270 141 140 146 
303 286 224 182 174 175 
183 826 288 177 131 111 
327 127 253 93 83 75 
146 702 294 65 68 91 
260 537 346 130 145 172 
181 804 301 169 124 108 
133 667 198 66 92 122 
206 236 268 98 45 42 
318 102 214 82 69 56 
178 675 349 130 146 166 
146 702 277 78 93 110 
91 350 272 115 50 61 
168 142 268 95 84 74 
242 656 210 128 127 131 
87 406 284 162 157 161 
268 631 335 96 114 143 
212 361 263 95 60 67 
241 543 207 97 119 143 
87 629 239 69 95 118 
88 295 261 168 80 34 
145 612 161 140 144 153 
300 155 299 48 38 40 
303 730 316 172 156 146 
227 691 344 128 96 65 
167 129 282 83 67 51 
289 619 246 83 103 124 
123 544 248 114 118 127 
311 280 279 101 118 136 
109 764 272 105 117 131 
333 758 299 147 122 98 
261 630 253 55 60 66 
174 385 238 121 126 134 
318 211 210 140 85 99 
255 583 345 171 185 208 
107 618 234 97 119 143 
164 309 253 72 98 125 
129 259 339 138 53 77 
167 128 287 88 68 49 
131 654 320 185 133 132 
296 266 304 126 126 131 
301 336 297 158 128 94 
317 120 228 88 76 66 
238 138 280 165 140 121 
144 562 359 86 121 166 
115 813 264 62 64 69 
294 713 332 138 106 75 
209 373 260 73 82 92 
292 631 334 90 118 150 
341 88 197 124 101 74 
386 21 203 126 116 109 
112 597 189 106 124 143 
271 689 349 160 75 29 
109 540 353 190 64 10 
147 424 354 165 143 123 
96 440 276 133 65 90 
166 133 285 75 59 38 
300 686 329 140 32 38 
299 825 253 232 165 133 
142 657 264 60 81 111 
130 571 185 115 120 131 
66 749 195 183 189 216 
90 488 289 77 112 142 
326 145 323 110 63 28 
170 163 280 101 64 30 
161 892 304 158 95 70 
163 887 310 158 117 85 
196 856 356 92 61 48 
95 444 278 148 107 111 
322 636 322 147 163 198 
186 246 331 46 46 71 
335 726 296 85 86 104 
274 551 339 97 145 188 
264 869 326 145 113 87 
299 461 291 115 129 155 
170 691 172 103 120 140 
210 674 188 125 124 126 
237 733 338 171 149 131 
323 222 328 81 43 74 
167 137 285 76 60 45 
145 389 345 137 143 155 
177 891 361 124 109 103 
277 558 313 85 107 146 
270 115 283 139 122 115 
167 831 272 191 138 114 
249 568 213 131 151 176 
256 242 248 133 16 14 
189 291 300 102 115 134 
300 124 297 150 81 41 
185 998 293 116 83 61 
141 614 160 169 164 166 
270 153 241 171 113 87 
363 757 294 145 123 125 
264 765 323 202 144 111 
188 869 356 128 93 75 
373 729 304 101 45 98 
332 70 225 101 86 72 
390 22 207 131 120 113 
252 799 307 204 143 120 
126 499 357 181 154 126 
189 695 174 162 159 162 
218 214 324 90 44 55 
224 728 186 162 179 204 
209 861 248 229 165 130 
111 431 261 117 132 151 
359 14 239 116 103 94 
248 432 320 84 105 131 
299 715 217 111 127 150 
167 142 284 71 57 43 
284 557 293 111 119 131 
120 542 357 163 142 121 
224 463 324 88 104 143 
246 927 339 112 93 78 
205 751 189 111 112 145 
197 721 178 84 150 200 
96 513 283 119 129 146 
313 322 268 118 129 146 
170 331 334 112 102 95 
242 296 253 85 112 135 
140 476 209 100 113 129 
336 137 351 122 92 76 
232 693 185 151 151 158 
64 751 219 121 148 206 
215 251 330 92 52 58 
86 320 271 84 98 124 
158 584 355 196 197 205 
294 378 244 148 148 162 
332 170 205 185 72 12 
247 411 309 79 91 112 
324 294 330 132 148 169 
53 677 164 79 97 117 
371 43 196 155 127 100 
106 490 258 38 76 127 
263 525 235 101 116 134 
114 605 281 137 148 164 
130 289 242 178 87 1 
189 845 300 144 109 82 
89 638 252 73 55 62 
117 780 204 210 57 79 
237 890 326 150 107 76 
319 215 211 121 104 115 
345 787 286 225 214 210 
315 94 205 114 86 69 
201 642 195 152 153 163 
329 743 296 38 39 42 
93 729 171 215 202 214 
320 194 345 125 31 17 
195 808 304 190 140 121 
347 149 250 177 71 19 
191 412 300 59 84 113 
140 744 294 115 30 39 
360 725 303 160 129 104 
89 427 309 135 142 156 
104 509 344 189 158 124 
237 603 218 121 131 146 
169 133 272 99 85 72 
305 784 239 131 106 77 
257 120 283 142 73 8 
287 493 252 132 140 158 
299 730 322 149 144 144 
142 717 311 97 128 157 
405 675 311 101 127 159 
97 563 326 161 145 145 
312 240 212 117 115 125 
169 135 272 97 84 72 
169 135 273 97 84 72 
316 132 209 116 93 66 
214 669 192 81 108 138 
169 135 274 96 84 72 
253 905 333 118 95 77 
228 523 197 100 114 134 
233 513 340 69 87 110 
343 763 253 168 167 172 
119 265 323 130 75 32 
200 353 299 70 81 98 
343 168 242 110 43 40 
133 696 203 106 120 139 
238 391 298 45 72 96 
188 311 342 89 105 122 
371 712 308 130 138 163 
353 709 246 151 153 164 
113 651 255 130 88 74 
244 789 315 205 144 120 
169 134 277 97 85 72 
273 696 348 160 65 41 
137 728 239 84 93 119 
325 104 205 134 105 70 
221 356 252 105 67 80 
287 812 289 191 139 107 
313 291 276 102 120 140 
99 631 268 119 101 112 
191 390 300 63 84 113 
94 626 240 52 50 49 
284 527 271 113 131 155 
334 185 251 139 64 74 
297 193 202 115 85 60 
221 748 192 165 169 183 
204 930 266 67 52 40 
202 306 335 108 121 138 
247 404 231 59 108 146 
388 653 287 84 75 68 
305 819 250 216 158 121 
300 304 323 119 87 46 
200 207 327 101 35 42 
403 716 294 166 187 225 
312 124 287 134 95 74 
196 837 299 159 115 91 
395 22 215 135 120 111 
209 545 357 103 123 157 
327 291 323 161 157 160 
323 117 329 117 84 62 
129 657 221 95 113 138 
298 324 233 166 163 165 
296 382 302 145 116 83 
199 335 288 94 104 118 
168 134 283 77 62 47 
332 618 248 21 66 101 
168 135 283 78 63 48 
281 493 242 185 184 194 
279 129 274 179 106 73 
168 137 272 96 84 72 
279 578 270 113 111 112 
224 177 263 117 46 49 
163 834 255 140 131 130 
388 645 253 136 147 164 
306 703 319 109 42 73 
96 693 201 53 71 87 
333 225 348 104 48 75 
298 829 257 238 170 138 
301 452 278 95 114 161 
53 669 175 112 111 112 
128 244 344 150 69 2 
247 906 331 121 93 70 
258 831 236 245 184 153 
168 139 272 95 83 72 
168 139 273 94 82 71 
326 241 238 135 96 93 
216 242 310 90 66 79 
284 810 288 187 132 101 
316 665 294 134 156 183 
164 259 311 50 35 47 
268 167 228 136 65 16 
167 918 363 163 126 99 
247 931 337 103 85 71 
326 301 303 163 49 88 
106 786 280 141 84 90 
132 667 286 137 94 90 
271 592 261 109 111 114 
279 689 347 167 61 36 
302 238 300 63 95 121 
164 960 308 98 76 62 
204 588 183 188 184 191 
210 957 277 121 86 60 
108 803 279 126 85 106 
126 385 342 107 96 105 
230 752 334 146 148 155 
340 608 291 102 93 86 
87 466 301 156 160 170 
337 175 263 49 46 55 
114 472 350 194 160 121 
240 480 208 115 125 140 
89 781 222 186 203 228 
175 896 292 105 81 58 
274 720 202 174 171 177 
209 259 320 97 82 93 
295 347 234 170 166 168 
176 998 297 174 142 108 
325 82 195 160 124 95 
343 38 205 100 88 77 
189 392 299 58 79 109 
221 534 352 90 112 140 
275 250 272 69 81 94 
198 548 178 87 108 131 
271 122 289 136 62 8 
168 143 274 91 81 72 
313 379 317 213 180 146 
287 256 286 121 120 126 
344 60 230 95 81 67 
272 513 341 107 129 159 
378 39 204 145 112 86 
174 748 338 137 114 118 
207 859 356 158 125 98 
189 890 364 129 103 88 
102 752 259 120 126 137 
110 265 289 132 77 24 
121 661 304 162 102 100 
209 169 300 114 92 86 
168 143 277 87 77 68 
68 751 229 80 104 160 
355 95 204 127 103 79 
251 633 342 52 48 47 
302 666 330 115 126 153 
226 166 282 145 85 51 
251 454 223 73 93 112 
111 555 353 124 109 95 
224 767 325 200 153 127 
288 159 213 110 99 90 
94 704 162 179 177 188 
201 998 286 65 33 26 
168 137 283 79 65 51 
274 291 298 100 103 107 
307 336 250 116 138 164 
168 139 280 89 76 64 
310 724 306 119 99 97 
305 410 319 122 79 37 
213 843 333 135 99 72 
204 488 190 122 125 133 
231 391 290 41 58 73 
255 419 232 116 134 158 
297 720 216 139 150 166 
99 555 339 160 136 107 
92 492 319 150 81 42 
331 119 203 128 101 69 
247 654 214 133 131 134 
312 206 327 111 36 29 
156 652 165 116 145 194 
150 771 321 165 119 98 
110 591 281 165 163 170 
298 616 309 50 57 66 
328 642 236 71 95 127 
173 436 204 129 129 132 
116 581 347 77 109 179 
309 325 356 166 167 177 
106 345 265 96 108 124 
243 208 256 52 73 106 
160 180 297 66 50 30 
279 720 205 150 149 157 
219 220 259 136 31 14 
86 714 229 106 111 121 
109 382 268 132 128 130 
242 570 208 146 154 173 
332 222 284 68 67 95 
327 784 252 201 167 129 
174 524 345 81 100 126 
332 129 270 109 99 93 
171 144 263 98 87 80 
325 175 203 181 73 9 
197 207 264 118 55 30 
328 59 217 94 79 64 
207 814 223 149 164 182 
256 217 246 56 62 94 
137 435 237 65 93 125 
175 144 263 100 88 83 
122 619 326 99 124 187 
133 321 243 151 145 146 
153 621 162 89 131 168 
236 884 325 145 108 78 
122 745 180 175 177 202 
286 668 214 108 118 137 
124 446 250 59 88 120 
68 656 171 120 121 126 
107 603 180 127 130 139 
140 515 219 104 114 128 
147 517 197 131 135 144 
330 236 318 138 85 97 
333 780 298 126 121 123 
255 518 225 85 100 119 
185 615 174 94 140 177 
241 922 297 72 59 50 
278 323 304 91 89 100 
168 751 336 147 129 122 
188 674 182 130 129 133 
92 311 265 120 65 67 
167 256 312 50 34 44 
253 602 339 55 72 111 
257 497 219 96 121 157 
114 471 350 196 164 126 
100 567 337 178 9 80 
167 560 173 75 94 113 
158 501 189 119 124 134 
113 328 334 40 50 83 
238 519 206 128 134 146 
259 405 233 56 85 111 
358 767 290 92 77 84 
252 469 216 68 91 112 
175 464 331 141 141 146 
84 730 173 235 233 241 
292 489 277 98 109 149 
240 842 280 159 113 80 
268 686 350 168 99 58 
246 306 271 88 89 92 
224 518 349 84 109 157 
360 699 248 136 152 176 
258 256 266 56 45 42 
281 131 291 107 114 124 
138 764 296 139 96 70 
214 222 325 83 42 59 
344 68 231 105 88 71 
347 170 305 108 91 104 
224 363 259 71 84 97 
233 417 238 46 74 99 
170 148 267 96 86 78 
233 538 345 76 96 123 
171 148 266 105 94 86 
99 554 301 57 89 137 
116 424 253 148 94 106 
171 149 267 107 96 88 
258 878 329 148 123 98 
107 480 342 146 6 58 
216 845 335 146 113 80 
359 669 312 150 171 196 
197 771 197 137 106 81 
87 308 266 56 75 111 
78 636 231 69 106 135 
117 292 340 148 87 80 
265 465 229 78 94 111 
151 299 322 62 58 59 
122 798 218 179 26 41 
293 320 226 93 139 177 
157 525 188 74 92 109 
318 248 352 97 118 141 
261 718 196 171 164 170 
225 218 258 88 50 74 
135 540 232 126 123 127 
169 150 271 104 93 85 
160 945 293 106 76 62 
257 256 247 130 57 71 
223 571 358 138 158 183 
182 1004 319 190 167 150 
259 437 231 98 111 129 
308 722 308 139 109 99 
182 590 173 102 132 159 
262 363 312 61 86 108 
273 818 231 204 142 104 
398 695 312 140 171 208 
125 662 285 142 95 90 
137 820 247 214 194 182 
145 386 345 155 155 161 
199 999 284 80 60 54 
355 756 257 162 64 95 
313 798 245 135 132 133 
329 217 336 45 71 117 
303 339 300 174 144 111 
173 147 265 99 91 85 
345 159 268 57 87 131 
199 233 323 73 33 30 
145 426 235 53 83 112 
135 419 245 74 92 112 
166 910 360 161 125 98 
300 336 239 143 148 161 
175 147 264 103 95 90 
280 124 280 210 86 8 
136 221 328 99 85 75 
172 149 265 102 90 83 
398 16 249 122 75 60 
141 812 224 160 130 112 
234 368 235 124 89 46 
290 126 286 188 86 12 
106 569 291 182 172 167 
172 151 265 108 88 73 
90 349 272 143 39 63 
218 459 317 116 123 135 
258 555 346 38 65 97 
111 430 260 111 129 149 
200 904 377 168 133 108 
312 376 311 193 159 121 
216 529 353 104 134 172 
213 949 370 86 68 55 
217 675 358 204 165 122 
203 958 279 177 134 96 
356 618 296 95 84 75 
381 735 301 139 68 78 
311 163 328 79 36 52 
220 187 318 73 49 65 
224 375 285 60 74 88 
145 678 296 105 87 103 
107 597 328 96 127 191 
284 202 273 46 67 90 
318 66 192 162 94 43 
147 664 268 62 90 113 
255 268 266 59 74 89 
236 884 333 139 96 67 
173 963 294 161 128 95 
97 568 319 116 137 169 
264 688 198 60 62 76 
103 414 273 116 123 135 
132 616 159 113 134 159 
267 817 284 201 142 117 
392 646 254 127 139 157 
170 152 269 116 88 62 
92 460 313 104 125 148 
329 230 321 125 23 62 
132 551 207 131 132 138 
204 926 258 75 57 45 
249 366 240 83 104 124 
182 893 363 97 84 80 
227 398 248 47 72 95 
180 983 319 91 68 50 
149 512 198 75 95 114 
171 155 269 113 63 5 
254 376 308 62 78 108 
108 325 331 100 31 53 
241 494 336 122 138 159 
96 461 319 165 140 115 
315 304 259 165 160 163 
273 544 324 75 105 159 
266 312 234 125 139 157 
322 747 299 133 117 103 
303 183 296 89 47 76 
116 373 263 63 90 113 
266 586 255 139 134 135 
170 157 271 111 62 4 
203 953 278 156 121 86 
294 743 325 208 189 177 
230 184 261 113 44 48 
267 467 350 67 93 142 
171 158 271 115 66 11 
302 398 314 168 79 10 
275 541 322 90 121 169 
337 170 262 51 43 56 
328 687 231 59 84 138 
291 249 288 117 115 120 
344 746 248 159 22 44 
278 371 237 147 150 162 
144 724 243 107 110 119 
286 445 243 40 74 105 
414 669 265 123 131 143 
285 813 287 189 135 103 
342 764 253 150 134 135 
183 979 318 106 81 61 
99 714 165 208 199 211 
384 722 265 131 147 169 
348 636 329 85 124 164 
101 339 299 70 100 126 
135 766 191 193 23 32 
117 367 261 115 119 127 
145 708 273 90 107 128 
240 574 347 73 102 133 
171 920 369 176 136 113 
264 548 343 46 59 93 
263 353 308 26 57 89 
177 655 348 100 106 117 
314 154 333 120 35 21 
229 609 343 174 126 132 
86 414 295 152 152 160 
227 435 324 96 118 159 
299 346 344 107 121 140 
116 802 286 131 124 127 
301 449 281 136 151 174 
259 309 242 130 126 126 
177 527 345 194 183 177 
288 141 232 129 99 87 
223 690 183 153 151 155 
105 781 210 186 208 231 
254 391 318 55 82 122 
120 588 217 53 88 124 
281 483 327 142 155 176 
170 485 186 45 79 109 
330 121 203 127 101 69 
115 308 336 143 36 73 
172 813 223 214 181 132 
325 810 265 204 145 114 
215 204 320 51 40 58 
352 720 304 152 77 83 
292 251 291 109 108 112 
166 440 205 55 87 115 
165 695 342 112 129 148 
158 946 335 84 67 53 
142 825 255 206 173 143 
288 463 247 73 105 151 
219 851 305 162 119 88 
195 436 310 80 100 124 
171 679 175 106 122 141 
174 157 268 117 69 11 
312 170 330 29 57 91 
317 640 324 93 115 191 
161 568 356 173 182 198 
224 522 348 93 114 141 
253 679 196 86 88 93 
69 722 169 238 231 233 
258 160 250 196 93 53 
255 543 348 122 141 169 
309 241 322 119 113 113 
159 911 341 135 105 81 
168 300 333 111 84 98 
224 458 325 107 124 152 
153 675 265 122 126 140 
167 441 335 68 82 118 
102 360 272 80 88 100 
215 246 322 67 68 84 
332 227 283 135 16 59 
356 106 212 146 118 88 
91 759 260 89 123 152 
273 613 260 43 45 61 
139 553 356 84 113 161 
142 239 318 67 78 91 
224 341 240 137 101 70 
281 537 306 176 174 179 
118 618 322 114 130 197 
91 383 295 132 77 77 
376 44 202 137 110 79 
320 279 351 156 158 168 
108 620 253 114 120 129 
296 137 228 131 106 91 
92 628 169 104 107 112 
287 490 310 176 169 171 
399 19 238 143 95 69 
161 626 164 180 178 183 
258 348 304 69 80 108 
125 737 243 75 91 109 
220 874 355 165 124 96 
93 371 293 111 86 101 
139 690 166 79 104 131 
314 769 307 175 154 141 
344 157 262 71 76 119 
104 607 190 106 122 140 
284 272 294 87 101 117 
406 702 278 130 129 169 
229 212 259 105 61 60 
275 617 324 114 76 70 
107 311 267 72 109 141 
313 327 258 183 165 150 
259 837 271 205 148 119 
312 816 253 193 138 104 
183 849 296 149 109 84 
264 273 271 48 46 52 
107 589 302 109 117 150 
266 839 252 245 180 146 
161 574 356 144 160 184 
123 581 184 104 116 130 
308 197 304 121 23 34 
247 953 311 146 114 86 
364 739 258 148 16 33 
164 497 184 26 71 113 
167 149 281 90 77 66 
180 924 376 194 146 128 
329 269 316 104 80 84 
387 652 287 85 76 69 
289 377 346 55 82 130 
217 258 263 79 126 164 
309 258 342 132 125 124 
311 740 228 168 48 53 
192 283 312 101 109 135 
181 781 200 154 175 204 
227 219 302 89 48 70 
384 698 315 151 176 205 
227 798 310 203 144 122 
290 255 290 124 123 126 
304 174 299 93 35 32 
336 190 279 149 38 66 
165 149 285 71 55 35 
262 275 231 144 61 1 
164 149 286 71 56 39 
96 533 330 181 69 4 
287 397 317 83 84 106 
208 831 235 201 137 102 
114 742 251 69 80 93 
215 427 221 102 112 123 
271 881 325 134 114 98 
220 422 321 125 140 158 
203 443 308 92 106 122 
223 180 315 84 60 71 
294 213 281 104 32 59 
99 554 302 56 85 139 
97 332 308 101 97 99 
137 738 256 93 108 125 
267 810 290 198 140 111 
197 486 189 104 113 126 
272 476 230 112 115 121 
281 410 327 59 76 115 
221 177 313 80 36 36 
53 703 219 50 59 80 
176 629 344 171 169 175 
121 651 227 39 62 88 
354 725 250 147 157 173 
139 347 329 80 85 95 
365 737 257 181 28 45 
301 429 295 153 133 117 
137 569 356 128 158 196 
255 787 314 209 148 121 
358 620 301 110 93 76 
296 450 335 71 99 161 
318 608 268 73 66 74 
87 427 298 158 157 163 
130 211 310 78 59 35 
293 648 342 109 93 84 
160 298 251 136 131 132 
288 505 292 134 145 161 
188 750 337 202 174 158 
152 926 312 72 56 46 
128 551 221 130 133 142 
293 360 336 118 121 131 
310 605 314 125 85 71 
258 401 233 68 96 124 
284 124 283 205 64 5 
224 135 298 115 89 71 
374 645 279 62 70 80 
289 503 285 167 164 168 
155 929 293 79 64 57 
222 407 306 77 95 118 
173 822 231 179 158 143 
