ply
format ascii 1.0
comment Created by CloudCompare v2.11.1 (Anoia)
comment Created 2/28/22 9:44 PM
obj_info Generated by CloudCompare!
element vertex 2019
property float x
property float y
property float z
property uchar red
property uchar green
property uchar blue
end_header
145 363 228 110 118 128 
264 741 344 170 171 177 
349 106 231 120 95 70 
361 30 197 50 36 36 
277 780 308 202 143 112 
318 224 243 60 80 112 
145 500 198 120 129 156 
322 64 216 102 87 74 
298 604 255 85 113 138 
162 450 190 51 81 116 
183 265 326 118 41 57 
110 356 255 118 63 53 
246 201 222 109 47 32 
242 630 233 91 79 74 
289 635 233 79 97 118 
277 141 214 110 91 96 
132 340 331 69 63 74 
134 389 223 97 110 126 
276 547 278 116 123 135 
103 744 203 216 216 228 
199 21 329 152 106 85 
265 301 217 181 172 172 
231 842 275 157 109 81 
392 708 315 120 146 199 
142 599 176 131 122 119 
186 901 242 121 100 80 
91 690 220 57 66 85 
228 357 208 120 87 97 
334 705 237 150 167 189 
58 705 233 126 137 154 
304 256 320 102 98 106 
296 383 280 162 159 164 
330 202 313 117 116 121 
292 818 244 227 165 131 
195 389 300 81 99 121 
244 493 228 153 153 159 
259 575 250 85 102 131 
301 238 341 124 91 88 
268 617 258 76 100 122 
128 157 281 104 86 68 
65 662 250 154 105 85 
283 204 198 110 72 85 
264 534 256 76 95 120 
255 274 221 137 63 1 
380 632 266 101 112 125 
400 709 301 178 197 227 
96 657 238 90 84 83 
173 535 206 70 87 104 
179 817 279 179 128 109 
163 544 203 60 85 106 
208 749 205 54 41 65 
345 620 330 108 85 62 
129 710 191 106 62 104 
251 195 215 114 45 47 
83 497 291 60 106 139 
62 714 192 177 189 211 
276 533 283 102 116 135 
251 199 215 107 28 40 
113 439 348 107 45 45 
257 464 237 92 108 136 
201 141 288 103 90 79 
322 809 275 209 146 117 
154 111 258 108 83 48 
192 295 325 106 109 117 
176 908 255 76 60 47 
337 630 243 75 107 133 
310 724 316 148 111 92 
315 195 267 144 62 54 
357 704 317 134 161 187 
317 202 249 107 20 42 
172 224 307 69 40 53 
111 267 335 146 137 133 
271 157 279 84 32 36 
85 302 261 135 105 85 
135 580 246 110 115 125 
166 969 276 121 98 72 
362 632 337 144 151 163 
177 330 239 125 130 139 
95 401 327 122 116 120 
288 698 345 154 56 35 
178 668 193 111 136 163 
89 544 343 183 74 8 
332 646 235 34 68 95 
210 520 185 109 132 170 
207 382 284 45 68 90 
135 660 223 60 83 123 
157 136 292 115 88 63 
356 18 206 112 98 83 
115 432 244 123 128 139 
301 135 327 118 105 103 
286 791 226 92 89 88 
281 466 258 87 118 151 
197 369 279 62 88 114 
291 380 252 128 136 150 
310 203 332 58 41 49 
175 805 226 199 169 148 
198 260 331 132 53 80 
162 775 212 181 118 75 
189 590 361 84 135 172 
296 369 355 107 117 134 
235 887 314 145 101 72 
205 969 334 132 106 82 
375 28 242 156 141 136 
179 707 364 128 80 88 
115 654 177 218 216 223 
84 735 258 122 135 154 
286 738 222 162 134 97 
279 640 349 86 98 111 
148 580 362 75 92 141 
210 934 250 76 57 40 
257 514 355 110 130 154 
274 528 317 105 123 152 
406 665 266 104 128 157 
169 415 194 95 115 136 
240 475 225 122 127 138 
248 193 217 107 32 33 
164 125 288 99 74 52 
164 419 350 102 128 153 
347 749 258 139 121 115 
89 493 335 89 112 133 
212 787 312 219 165 143 
166 750 200 180 105 43 
147 241 309 40 61 85 
249 194 216 105 33 37 
249 194 217 109 40 45 
297 329 277 139 24 62 
188 447 327 40 73 116 
288 670 215 135 140 149 
308 186 312 114 65 53 
156 552 237 81 87 96 
261 306 282 121 92 62 
90 558 309 65 93 140 
96 778 271 152 34 46 
173 92 293 113 86 62 
156 443 353 137 103 89 
266 576 332 107 116 128 
137 140 290 105 88 69 
258 547 358 118 153 189 
188 801 223 164 129 103 
234 844 245 226 168 134 
136 653 234 119 129 145 
165 253 307 52 40 59 
153 211 292 78 33 16 
188 405 300 53 74 93 
299 394 333 87 93 113 
153 498 359 97 101 131 
143 674 287 29 43 72 
261 471 328 52 72 96 
407 682 278 174 190 219 
282 480 354 109 125 176 
139 100 281 114 93 70 
306 768 312 87 101 118 
237 392 305 69 85 114 
318 193 319 66 60 65 
147 643 183 153 177 211 
327 100 222 68 58 47 
179 721 199 141 159 185 
218 655 202 63 65 72 
207 561 363 151 159 174 
251 204 215 109 40 44 
130 574 215 105 123 143 
239 501 209 57 95 129 
59 671 178 121 93 92 
314 64 209 82 67 51 
312 676 310 112 80 104 
313 204 262 48 39 52 
342 676 235 84 47 97 
253 201 213 103 36 45 
413 665 286 98 123 149 
127 767 213 210 160 84 
87 556 324 165 151 143 
351 617 325 121 97 69 
304 258 259 71 118 154 
167 953 330 98 78 63 
196 638 209 66 102 134 
67 657 253 153 107 86 
99 482 265 61 93 125 
239 114 265 122 94 80 
239 256 240 125 122 124 
32 687 215 81 98 138 
268 623 249 84 108 131 
161 762 206 69 44 101 
183 848 303 105 77 48 
254 200 213 101 37 40 
102 498 255 54 91 132 
178 334 320 80 59 71 
323 127 280 112 100 88 
181 384 293 36 66 90 
162 129 262 112 88 57 
135 686 224 104 113 131 
165 111 272 104 80 49 
82 426 302 158 158 166 
261 255 273 86 96 108 
278 343 233 203 194 195 
255 204 211 113 39 43 
255 205 211 114 43 51 
177 679 192 178 175 183 
327 246 312 88 131 168 
153 900 292 145 95 77 
153 429 349 103 109 127 
265 717 212 152 166 184 
200 199 299 51 67 91 
190 973 322 106 85 66 
410 683 284 124 153 207 
385 22 246 168 137 127 
182 553 179 145 141 141 
114 418 347 146 139 137 
322 157 254 39 82 125 
346 70 194 151 126 102 
186 321 324 79 70 85 
217 196 267 123 92 89 
162 603 177 101 153 197 
322 181 318 66 74 85 
349 79 197 134 109 83 
270 597 341 157 108 96 
94 260 303 96 67 64 
239 290 228 95 80 86 
93 774 227 207 50 55 
91 327 281 136 89 98 
122 606 261 100 115 134 
287 450 315 102 118 145 
113 522 238 57 92 137 
320 169 254 63 44 63 
273 522 327 160 168 183 
235 849 266 190 140 112 
319 411 334 152 131 114 
276 500 266 114 129 159 
278 618 340 84 97 113 
77 478 302 146 153 165 
398 670 326 144 156 183 
144 156 296 114 90 63 
249 201 218 109 31 41 
84 760 260 148 164 184 
216 848 316 143 101 72 
121 612 175 108 39 48 
161 367 337 96 114 139 
393 661 258 143 152 166 
186 774 211 180 162 149 
287 395 353 62 87 126 
280 181 286 48 49 60 
269 459 244 127 140 179 
251 201 216 108 37 46 
109 256 248 99 82 81 
85 374 282 94 84 105 
250 203 216 106 37 41 
250 203 217 107 37 39 
97 756 213 181 198 218 
176 697 193 81 143 184 
174 480 344 102 110 134 
117 484 359 174 146 118 
48 670 177 78 106 131 
248 205 219 120 63 55 
364 732 309 164 44 58 
138 653 338 121 91 84 
378 26 196 125 103 80 
130 688 220 74 96 134 
127 671 316 179 116 110 
218 151 281 114 112 115 
315 166 199 170 70 7 
249 207 219 110 42 32 
276 559 283 100 110 122 
133 406 219 87 102 120 
120 725 249 74 89 105 
149 799 225 204 182 168 
296 701 218 91 116 156 
247 842 272 189 135 108 
151 742 324 115 56 43 
289 453 295 126 135 156 
166 80 305 134 106 82 
229 943 332 128 98 84 
132 563 364 73 108 178 
179 849 286 149 109 82 
244 208 223 107 40 26 
285 383 249 148 116 92 
275 557 308 55 78 101 
81 522 318 189 155 117 
144 340 243 76 99 120 
159 683 347 135 152 173 
161 402 344 153 157 167 
355 102 203 123 97 67 
111 550 249 82 100 120 
300 269 219 95 149 189 
288 454 275 112 134 166 
246 208 222 108 40 31 
307 181 332 98 45 45 
53 641 240 71 103 130 
106 584 289 93 104 128 
342 43 211 90 83 79 
321 656 310 123 149 176 
224 342 214 101 49 55 
140 716 276 132 136 147 
272 532 268 116 122 132 
352 629 342 81 110 154 
170 489 348 133 136 146 
169 367 289 85 92 116 
101 583 298 103 118 141 
334 725 306 44 52 73 
91 657 259 139 94 78 
98 567 295 164 160 162 
288 785 300 200 141 107 
314 599 269 61 101 135 
323 307 309 177 151 123 
250 485 332 120 126 137 
284 454 341 73 96 142 
137 576 241 77 94 112 
327 598 296 96 88 84 
190 686 364 88 130 164 
105 749 272 111 122 137 
266 409 321 25 52 83 
345 772 296 196 168 139 
180 833 277 166 125 98 
321 67 189 165 104 45 
163 385 322 68 86 120 
138 245 319 110 80 66 
322 809 271 205 141 109 
339 789 273 177 154 136 
205 240 271 96 84 72 
250 429 228 71 94 119 
224 356 280 57 69 83 
116 587 273 97 105 118 
198 688 368 86 66 70 
285 471 323 59 83 135 
251 208 215 108 47 41 
336 131 204 129 103 71 
212 188 269 133 100 81 
305 246 309 116 119 127 
214 612 358 184 176 177 
173 791 220 214 164 98 
227 733 338 141 106 83 
129 588 269 83 92 104 
99 769 276 70 58 81 
184 301 274 130 130 135 
237 701 203 176 174 186 
43 713 214 163 159 193 
68 701 238 58 70 115 
85 451 313 72 111 144 
163 437 342 74 89 117 
191 454 328 65 96 130 
291 326 298 103 89 101 
170 410 344 137 144 156 
213 524 356 82 104 130 
101 679 183 181 179 188 
420 675 303 241 244 254 
258 429 235 157 159 173 
148 661 258 134 138 150 
160 883 301 135 105 77 
375 61 220 111 89 65 
98 749 270 110 123 140 
289 452 296 156 159 170 
320 371 343 181 84 11 
185 709 365 77 101 139 
222 480 197 59 88 113 
179 765 206 155 122 104 
345 613 326 125 99 71 
297 766 316 117 86 70 
207 167 306 125 73 53 
162 822 258 130 100 79 
254 211 213 110 56 40 
185 296 275 138 137 142 
193 797 302 191 142 122 
370 20 247 149 133 128 
258 536 229 124 134 149 
191 647 201 93 41 33 
205 200 327 97 43 48 
214 677 367 164 143 126 
117 457 230 127 135 148 
175 368 211 114 109 106 
230 633 224 77 99 128 
174 413 193 140 143 151 
177 998 295 191 170 154 
292 206 198 102 96 107 
82 356 277 133 68 74 
77 286 263 108 93 82 
127 804 275 174 155 141 
370 710 318 129 163 196 
361 644 345 116 140 185 
231 876 321 148 103 74 
277 182 284 38 42 56 
122 619 340 117 133 197 
71 741 216 242 234 239 
44 712 235 48 65 146 
197 267 249 92 129 162 
362 667 331 62 101 157 
304 127 271 91 82 77 
142 712 257 104 109 124 
232 748 210 92 105 117 
175 987 266 129 94 70 
234 898 278 80 61 46 
277 788 301 207 149 118 
300 666 344 97 134 166 
211 931 355 193 139 117 
171 939 345 165 125 107 
229 394 302 81 95 113 
291 440 299 128 138 160 
249 209 219 110 48 35 
344 104 231 117 97 77 
138 105 277 106 87 67 
291 774 306 194 134 104 
286 820 241 230 172 134 
200 507 182 74 95 115 
96 613 215 75 107 134 
76 450 289 86 133 169 
152 741 327 116 64 59 
166 381 326 66 78 98 
321 172 247 105 75 93 
170 744 337 119 125 133 
296 198 323 115 20 21 
36 704 210 137 147 174 
254 189 270 76 65 67 
251 210 216 101 43 28 
187 336 272 97 108 124 
253 619 264 105 109 115 
250 211 218 107 55 43 
166 826 255 208 153 124 
300 298 285 115 115 122 
128 579 190 76 95 113 
100 622 285 116 115 121 
112 494 357 179 146 115 
193 375 288 34 75 107 
125 578 205 137 140 148 
298 291 232 179 174 177 
366 27 197 85 65 37 
379 676 254 154 160 175 
87 448 321 86 113 138 
145 730 293 104 117 131 
119 531 363 136 120 101 
178 870 341 150 116 92 
86 404 272 122 50 61 
268 575 270 93 93 97 
210 234 270 133 58 13 
250 214 217 107 59 46 
250 686 203 124 143 172 
116 614 339 80 115 181 
353 696 244 136 151 174 
300 299 246 151 150 155 
213 989 263 177 142 103 
185 312 273 140 138 143 
81 470 287 126 135 151 
210 986 310 96 68 46 
265 183 275 77 56 73 
403 686 319 70 108 187 
307 193 316 113 29 47 
158 722 348 63 96 151 
174 795 297 99 122 145 
360 633 341 142 154 169 
155 582 177 172 170 175 
181 473 334 135 136 144 
247 416 316 85 97 113 
169 414 343 78 93 115 
283 797 293 197 139 102 
284 633 235 46 81 109 
279 685 347 164 64 32 
213 644 210 74 99 124 
187 863 345 167 128 107 
299 404 323 73 74 110 
105 578 287 96 110 130 
183 471 333 136 136 143 
213 724 345 93 95 100 
344 632 345 80 138 185 
203 823 229 181 131 90 
210 509 349 103 122 145 
289 455 296 127 132 155 
278 136 282 78 46 46 
240 157 265 92 51 48 
252 220 215 103 61 87 
252 221 215 100 70 93 
295 372 343 70 88 112 
258 540 228 118 143 170 
308 327 350 166 162 166 
220 926 352 185 135 111 
194 870 240 164 118 84 
281 504 297 123 133 154 
193 927 360 202 159 139 
172 548 188 60 98 126 
293 591 301 85 76 70 
196 861 348 163 120 100 
89 351 281 100 89 103 
308 348 313 117 120 127 
248 174 267 96 56 48 
230 387 206 83 112 152 
185 281 252 156 157 164 
197 886 356 194 143 128 
133 378 230 117 117 120 
165 919 344 167 128 103 
338 669 233 87 55 104 
179 194 297 97 37 24 
348 633 346 145 167 196 
216 269 243 82 84 98 
135 186 297 109 88 66 
237 901 318 93 68 51 
344 626 345 72 104 141 
110 632 297 152 100 89 
76 708 244 66 88 134 
149 794 286 177 146 118 
90 558 337 128 113 110 
275 412 242 70 93 117 
373 699 322 136 156 179 
251 217 216 123 62 57 
133 572 221 63 96 130 
221 656 370 76 87 103 
293 224 294 60 94 120 
264 576 337 133 141 154 
207 498 336 66 93 135 
297 128 248 119 105 97 
99 781 273 148 7 34 
87 444 311 114 131 150 
38 650 212 112 111 114 
251 219 217 101 62 86 
310 717 228 163 24 37 
274 303 220 174 163 163 
96 777 227 203 17 54 
277 758 323 200 150 120 
333 682 231 42 72 125 
127 805 275 176 156 141 
178 853 265 167 129 99 
300 117 322 114 102 95 
135 676 320 177 121 114 
234 669 354 149 113 82 
90 328 299 94 68 73 
230 862 266 121 78 57 
248 218 221 81 73 90 
131 382 338 85 48 56 
191 272 331 83 120 151 
106 291 323 72 68 84 
248 218 222 71 69 88 
354 716 252 169 177 193 
178 982 304 145 120 95 
177 377 340 129 125 129 
114 328 328 55 77 105 
248 836 240 230 167 130 
121 378 245 151 148 151 
158 906 268 143 114 85 
167 971 272 114 86 59 
339 121 231 108 87 62 
163 444 349 93 95 116 
260 551 243 136 155 181 
251 221 218 93 52 81 
150 696 190 186 186 198 
280 425 250 98 121 151 
273 488 255 175 174 181 
250 222 218 103 68 91 
272 789 220 107 102 103 
219 766 324 198 154 128 
276 711 346 128 120 119 
331 335 324 158 96 63 
124 774 215 182 79 51 
87 765 263 161 171 186 
309 445 338 97 127 181 
117 533 232 79 98 122 
162 386 317 66 82 118 
249 221 221 98 68 91 
185 830 282 163 117 92 
301 674 218 78 93 113 
201 708 198 164 182 205 
287 689 214 91 119 159 
249 222 221 88 57 82 
168 408 348 158 161 172 
126 655 215 77 94 112 
295 377 273 181 155 130 
141 720 194 93 104 116 
275 473 250 171 170 180 
252 220 216 105 70 93 
128 637 330 125 129 145 
257 548 228 126 144 179 
278 502 271 107 116 153 
252 223 217 96 74 92 
242 948 299 75 54 42 
251 502 240 57 88 118 
255 527 234 110 124 141 
64 736 212 227 221 230 
199 518 188 110 137 174 
182 346 224 145 125 103 
81 457 283 143 52 90 
126 648 278 39 53 113 
280 652 351 56 50 57 
305 257 304 114 123 137 
227 908 345 163 125 97 
102 766 278 151 32 44 
294 378 268 182 156 131 
142 502 366 141 130 130 
297 757 229 149 113 75 
369 15 248 125 112 104 
231 195 239 36 66 121 
92 354 290 79 89 105 
156 750 200 205 12 39 
147 75 288 103 88 74 
181 249 293 96 104 117 
297 736 331 144 123 103 
267 172 278 91 43 32 
142 570 254 104 103 106 
180 224 323 37 46 70 
235 196 231 116 54 62 
301 334 352 170 170 177 
261 619 339 102 81 80 
261 825 234 245 183 153 
238 838 270 161 113 80 
313 670 309 91 127 161 
145 607 175 87 141 184 
128 172 290 107 88 69 
221 136 290 129 60 73 
257 230 211 107 80 98 
93 292 281 71 64 57 
155 902 283 123 78 50 
160 284 324 112 36 56 
143 507 200 123 141 168 
134 132 277 105 87 68 
102 631 288 124 81 78 
163 143 278 91 75 62 
282 434 255 68 98 145 
281 502 332 77 104 134 
98 260 295 104 58 20 
285 159 200 118 87 57 
215 149 307 55 82 104 
297 265 214 175 31 83 
237 194 228 117 69 78 
331 351 333 187 156 122 
221 200 267 98 79 77 
178 853 261 173 132 103 
222 933 348 173 126 101 
175 443 189 91 108 127 
219 724 343 198 183 174 
294 671 346 168 70 75 
156 637 349 118 129 151 
177 158 264 94 70 46 
404 652 270 55 89 116 
108 592 285 164 163 170 
115 618 334 161 181 217 
259 629 242 73 112 141 
153 604 176 87 145 193 
123 660 301 154 104 96 
159 626 353 108 139 190 
293 410 341 73 89 122 
298 319 252 179 176 179 
168 374 339 75 116 150 
90 779 250 96 75 134 
207 865 243 172 126 87 
237 499 203 80 103 127 
257 724 349 181 146 103 
375 727 309 109 99 152 
101 498 258 68 97 136 
110 389 261 128 85 29 
109 713 239 83 89 99 
253 413 227 106 123 183 
259 272 274 81 92 107 
340 619 335 66 82 96 
108 621 175 111 130 151 
226 939 255 80 60 45 
244 637 363 135 90 64 
321 725 235 164 125 132 
207 973 260 125 95 55 
162 808 281 92 119 143 
221 945 257 108 80 60 
266 221 273 57 82 103 
316 767 241 156 136 117 
97 380 317 103 42 64 
239 585 355 91 110 132 
222 275 238 161 158 164 
281 234 201 121 109 115 
268 489 345 99 116 142 
233 195 235 67 63 102 
234 192 233 111 50 59 
398 15 238 136 96 74 
235 192 232 111 50 60 
151 908 302 78 57 50 
322 208 239 151 55 82 
127 615 349 133 160 210 
266 568 261 72 90 107 
326 732 303 118 94 79 
164 902 272 101 79 56 
114 732 194 171 198 224 
245 364 303 65 92 116 
235 194 232 117 50 68 
121 564 361 135 117 97 
301 633 233 108 119 134 
256 387 312 98 105 117 
339 94 196 136 108 79 
257 678 359 146 131 131 
323 128 294 105 93 82 
312 406 345 156 39 76 
230 951 270 78 55 46 
372 25 195 109 91 71 
338 790 282 161 136 146 
288 825 248 239 179 140 
273 760 218 120 107 101 
304 259 278 165 165 172 
207 995 305 132 100 74 
40 679 238 18 38 125 
186 248 309 97 95 98 
61 723 199 95 117 199 
102 307 327 128 48 69 
232 195 238 32 64 119 
184 257 308 106 103 107 
281 158 287 86 43 57 
172 397 339 76 89 105 
330 244 331 85 121 151 
128 708 235 106 115 133 
161 229 293 44 27 25 
87 663 239 101 73 62 
167 342 296 123 55 82 
234 197 234 65 66 105 
149 448 352 108 129 151 
146 324 244 124 117 116 
235 198 233 68 61 97 
319 730 235 141 138 150 
302 353 303 162 44 77 
310 262 287 167 163 166 
323 206 238 145 28 69 
366 617 277 79 96 113 
303 224 311 88 63 69 
119 596 228 89 107 126 
315 679 308 130 44 55 
99 429 269 149 30 65 
146 733 316 155 161 186 
181 308 276 133 132 137 
80 291 277 102 65 30 
141 284 318 110 45 56 
359 97 223 142 111 85 
232 197 238 42 66 122 
264 418 322 24 55 87 
255 276 273 83 91 102 
301 309 291 154 123 95 
147 375 343 76 115 147 
219 392 200 87 112 142 
90 674 216 44 64 85 
237 388 209 93 133 200 
168 657 193 129 135 149 
318 753 305 171 146 120 
213 535 359 138 150 167 
233 199 238 45 73 120 
183 611 186 101 158 202 
178 344 278 91 103 119 
185 794 220 146 130 121 
237 493 211 75 101 125 
299 162 333 42 38 44 
350 104 200 154 120 91 
272 281 278 80 95 111 
226 445 323 121 130 145 
236 201 231 66 58 87 
183 856 337 115 79 65 
298 163 304 41 57 76 
285 434 347 67 91 129 
236 202 231 52 59 98 
316 385 345 160 111 86 
237 202 231 58 59 94 
378 22 247 185 168 165 
231 685 200 126 149 177 
261 389 318 64 85 114 
153 670 189 93 122 155 
311 208 332 51 52 74 
300 132 326 136 75 36 
392 660 290 53 71 89 
189 874 355 174 129 112 
134 588 360 105 129 187 
268 254 207 143 34 57 
184 384 199 65 94 118 
308 322 313 158 116 68 
142 472 197 107 123 142 
250 174 268 96 54 47 
207 604 201 186 181 186 
242 709 205 103 129 179 
298 646 227 90 108 127 
250 185 268 67 64 68 
285 413 355 44 77 132 
161 616 179 144 173 216 
211 587 196 197 192 196 
356 706 249 76 107 165 
228 869 323 154 108 78 
279 371 315 37 57 84 
327 94 198 148 111 70 
41 668 178 75 98 123 
413 670 272 193 199 214 
374 722 267 166 175 192 
114 646 172 172 175 190 
89 778 254 178 133 156 
239 207 230 46 54 95 
358 732 312 173 130 72 
250 516 333 22 44 66 
257 525 245 96 110 127 
235 201 233 41 58 102 
200 864 231 147 110 87 
82 438 304 155 156 163 
177 949 264 118 88 58 
192 839 324 123 97 72 
77 479 299 161 162 172 
235 202 233 39 53 97 
333 130 243 118 106 96 
167 987 276 151 115 92 
227 956 326 100 81 68 
327 625 343 129 140 181 
217 849 325 153 114 83 
235 203 234 30 45 91 
292 618 243 70 101 128 
90 320 299 92 63 49 
233 200 237 43 72 117 
250 572 227 135 151 174 
211 155 292 119 92 88 
232 200 238 46 76 121 
173 814 280 192 136 116 
121 583 209 94 113 133 
229 864 310 148 110 81 
191 261 276 143 141 143 
246 487 233 139 142 152 
171 66 261 125 103 79 
90 433 318 139 144 155 
232 202 239 46 74 109 
302 393 326 88 84 110 
364 741 267 149 102 115 
53 664 247 73 41 53 
253 908 326 147 120 95 
269 806 286 212 153 122 
288 445 335 113 131 155 
189 435 308 80 99 118 
212 413 311 68 91 113 
78 711 187 211 210 225 
117 366 330 82 90 114 
312 305 343 100 126 152 
327 628 338 84 108 148 
314 110 210 121 93 57 
314 67 210 90 72 52 
144 169 297 116 91 63 
109 591 201 103 120 140 
34 698 210 110 125 178 
129 659 293 137 91 84 
220 971 308 85 66 49 
211 811 294 184 119 103 
160 602 359 124 151 184 
231 888 332 170 124 94 
198 559 362 78 102 136 
245 495 231 126 134 146 
278 274 280 65 86 105 
199 756 331 200 174 153 
291 227 290 60 90 115 
293 681 216 123 129 145 
125 809 267 229 203 182 
324 171 314 87 87 91 
285 454 340 66 95 141 
90 380 265 104 117 134 
203 807 297 188 132 115 
239 639 221 124 127 133 
61 734 211 174 169 222 
310 326 300 203 167 125 
127 435 219 58 87 112 
130 781 218 47 23 51 
323 322 310 203 169 133 
64 737 214 209 209 223 
137 636 343 217 217 227 
103 658 176 217 205 212 
223 677 359 183 117 61 
214 506 182 93 107 122 
218 469 198 128 130 135 
72 289 262 125 110 97 
144 552 241 83 97 127 
321 352 345 198 167 135 
97 582 343 110 124 177 
180 549 181 107 117 130 
186 771 319 222 197 179 
318 224 287 142 38 70 
209 650 367 75 63 69 
319 584 318 125 106 88 
206 342 220 87 102 116 
118 599 231 97 112 130 
114 800 272 165 148 137 
240 942 279 110 87 65 
93 583 336 120 137 177 
296 375 341 53 79 108 
108 657 178 212 209 216 
332 259 321 84 124 158 
203 788 309 210 157 135 
224 192 242 61 58 86 
248 558 356 72 114 151 
121 582 206 83 104 126 
239 662 204 135 132 136 
200 604 196 122 72 93 
199 480 187 142 141 144 
220 681 360 188 79 71 
307 180 310 110 66 58 
247 731 346 178 158 141 
213 393 198 108 125 147 
295 158 325 92 35 37 
169 235 309 30 47 78 
80 518 307 128 117 113 
233 598 227 130 138 153 
287 717 219 172 112 119 
137 122 280 107 88 69 
104 322 314 54 37 61 
97 623 287 49 45 55 
191 206 329 42 48 77 
159 178 283 62 48 28 
292 350 297 122 31 56 
301 438 345 111 137 179 
203 575 361 119 143 174 
321 127 265 119 108 97 
357 65 195 147 120 93 
182 247 303 117 113 115 
350 712 247 140 165 192 
116 348 253 83 129 167 
206 522 186 67 95 122 
312 735 312 98 89 85 
289 438 341 99 117 143 
294 417 287 141 124 108 
254 563 237 90 107 127 
158 918 332 135 109 88 
311 65 205 78 67 56 
307 371 318 67 93 123 
159 380 339 85 127 161 
111 634 172 121 148 178 
167 866 302 138 109 81 
266 762 217 135 122 112 
253 524 234 103 120 141 
149 582 361 132 144 164 
240 160 265 102 53 53 
273 568 313 67 89 109 
229 192 240 36 59 121 
353 46 233 109 90 71 
327 641 234 87 110 133 
128 510 212 100 123 151 
353 753 305 147 114 104 
230 118 280 138 66 7 
155 568 361 112 137 187 
326 719 236 145 15 26 
237 864 287 160 115 87 
291 309 234 81 126 164 
327 246 333 78 110 139 
237 322 280 69 81 93 
321 58 195 119 93 79 
371 48 198 144 114 89 
140 293 321 103 51 65 
114 675 207 114 125 140 
281 141 287 78 41 39 
77 415 289 145 145 150 
229 198 241 34 52 93 
185 572 365 138 162 197 
213 534 359 140 151 168 
216 775 208 208 163 108 
288 456 303 174 171 176 
212 414 312 60 87 114 
156 907 317 96 76 63 
180 343 276 99 108 121 
163 948 326 119 97 84 
170 538 202 87 98 112 
324 783 299 126 135 147 
282 362 240 151 166 188 
332 290 334 134 150 170 
88 688 229 60 69 87 
218 307 239 108 113 121 
61 685 179 74 149 208 
276 119 280 131 57 14 
268 826 263 210 151 119 
225 966 279 136 110 84 
126 333 332 116 45 67 
143 560 201 75 97 117 
184 843 290 151 115 87 
203 898 240 87 64 49 
317 233 294 88 128 161 
407 665 288 85 112 137 
156 733 338 114 21 46 
315 115 219 96 79 58 
207 189 307 99 44 57 
214 695 199 148 162 192 
129 487 362 173 78 9 
147 699 190 167 162 180 
35 653 199 149 146 148 
325 174 288 73 46 67 
337 76 193 153 125 98 
244 115 264 109 71 48 
108 654 245 92 96 112 
375 53 215 113 91 67 
279 532 349 47 60 99 
134 135 267 96 80 65 
101 472 353 195 164 133 
239 624 353 64 53 60 
320 687 227 156 155 168 
420 676 293 198 204 220 
225 206 242 111 45 63 
202 142 284 106 92 80 
191 471 188 95 110 130 
151 553 209 63 89 112 
219 117 285 141 112 93 
257 140 218 104 95 88 
327 754 244 108 103 103 
412 676 314 96 121 192 
305 254 302 124 127 136 
232 688 200 154 168 191 
129 646 175 116 155 203 
338 787 289 147 137 142 
43 654 189 84 101 117 
292 375 260 182 156 130 
366 70 231 119 95 70 
306 241 279 109 76 78 
122 256 321 118 84 80 
172 762 206 137 128 125 
203 876 246 115 94 79 
282 778 307 199 137 107 
286 112 291 125 91 69 
345 638 242 115 125 139 
76 456 292 75 123 160 
33 682 226 85 113 161 
85 460 317 116 136 159 
171 320 288 144 104 52 
221 147 275 90 83 89 
304 429 348 87 118 183 
124 448 221 94 115 137 
246 802 299 210 143 123 
173 740 198 148 16 46 
318 810 285 208 143 115 
231 913 339 163 125 94 
228 453 326 99 116 141 
93 580 338 80 96 160 
136 257 240 118 86 68 
299 322 294 167 138 113 
88 376 290 90 94 105 
234 846 273 134 87 58 
154 88 300 126 103 81 
143 547 237 101 118 144 
261 641 222 47 81 111 
219 148 279 110 98 91 
254 295 277 67 73 81 
272 204 200 84 57 66 
302 259 262 84 131 167 
205 869 245 146 106 72 
144 216 310 137 59 7 
216 406 299 42 61 79 
280 397 246 138 119 111 
83 496 290 48 95 128 
210 869 343 139 101 80 
116 270 333 141 87 88 
158 436 193 56 86 113 
358 645 343 121 144 189 
252 492 239 156 156 164 
138 283 324 121 76 75 
179 846 281 148 108 81 
220 934 350 179 130 106 
253 629 351 51 50 68 
158 332 245 84 97 114 
329 756 303 159 135 116 
205 351 276 64 77 91 
230 502 342 106 119 134 
271 370 236 115 128 145 
218 497 187 96 107 120 
113 546 244 53 78 104 
243 405 222 97 111 166 
278 445 318 59 81 128 
290 437 315 153 156 165 
167 302 293 76 93 117 
165 500 353 136 140 151 
178 163 281 89 73 64 
152 649 193 93 117 142 
287 810 286 195 141 110 
137 734 195 166 47 64 
238 955 284 122 82 59 
84 472 322 136 143 156 
154 698 335 108 124 142 
224 913 348 173 132 105 
109 637 172 175 175 184 
127 485 211 100 113 130 
228 459 212 36 78 118 
364 628 294 68 80 93 
317 615 341 34 68 99 
171 440 329 59 81 107 
107 658 231 59 77 99 
235 732 340 163 141 124 
235 210 238 55 47 50 
159 911 330 161 123 95 
108 276 332 55 85 110 
253 565 234 86 102 125 
262 597 270 61 75 91 
331 613 329 100 77 62 
270 196 278 112 31 44 
275 538 314 84 114 154 
324 301 342 101 121 142 
94 667 181 170 111 119 
147 911 284 116 94 76 
246 780 214 165 139 113 
93 332 280 112 92 104 
160 936 268 89 71 52 
211 562 180 143 164 197 
171 939 344 160 121 102 
193 477 186 129 129 133 
275 244 203 71 112 145 
237 209 234 52 65 96 
111 696 220 79 94 119 
85 464 322 161 139 119 
237 210 234 48 53 87 
242 503 216 114 130 149 
179 796 221 160 132 116 
269 568 323 77 103 131 
138 719 193 106 106 110 
200 627 214 136 134 141 
171 177 281 90 78 67 
81 656 258 157 106 86 
228 110 288 124 91 69 
169 990 274 138 114 97 
168 563 359 145 164 188 
397 697 318 171 191 221 
380 735 280 169 35 35 
238 211 234 61 60 86 
94 660 177 83 172 225 
184 754 203 46 51 85 
128 378 335 64 75 86 
207 428 197 175 171 176 
241 580 230 176 170 172 
205 744 206 110 87 53 
222 530 359 131 145 164 
199 158 321 106 71 70 
297 376 338 55 86 114 
237 213 235 57 48 52 
311 439 338 109 136 182 
152 412 345 114 138 163 
167 433 327 76 91 119 
225 907 251 88 70 55 
195 230 314 94 41 70 
239 213 232 60 69 94 
321 612 327 73 57 54 
286 398 355 82 109 145 
269 588 344 158 111 100 
152 554 362 60 85 145 
216 919 356 173 132 106 
264 456 241 115 131 155 
170 174 278 83 70 60 
178 872 268 157 122 95 
160 584 359 84 106 153 
330 225 313 119 36 59 
278 191 199 61 87 110 
214 693 359 199 150 125 
83 532 318 117 134 151 
115 282 332 123 103 101 
158 950 316 92 75 62 
258 624 341 74 59 53 
261 194 273 76 42 39 
306 787 298 190 140 107 
313 615 340 68 90 112 
288 390 355 73 101 141 
258 705 208 147 149 165 
141 668 333 207 160 152 
304 258 320 84 77 88 
275 355 314 60 78 98 
195 493 184 115 131 155 
171 348 335 99 104 120 
326 687 307 133 60 63 
165 290 254 101 112 127 
317 170 309 75 62 56 
238 638 221 122 118 118 
275 697 210 71 72 82 
262 563 354 152 175 201 
136 401 216 95 106 120 
244 757 213 133 100 60 
239 690 201 111 122 174 
332 782 297 184 169 159 
289 426 344 78 93 126 
228 407 307 93 106 126 
317 127 263 121 110 101 
205 686 369 134 89 99 
167 336 311 103 72 94 
194 886 243 104 75 49 
204 545 361 116 124 138 
280 417 249 85 115 147 
268 493 336 92 109 130 
104 567 357 203 178 167 
304 360 330 89 93 112 
291 290 223 195 188 190 
234 220 238 122 39 37 
154 319 251 73 95 116 
190 579 361 153 160 174 
112 609 249 74 85 98 
235 221 238 124 34 33 
231 931 338 134 104 81 
208 531 182 94 110 130 
325 391 330 187 75 10 
301 312 259 116 131 150 
235 223 239 119 34 39 
191 403 302 54 72 92 
282 152 202 130 117 104 
264 871 310 179 148 116 
307 612 312 42 45 56 
174 750 332 158 125 118 
73 695 236 119 121 128 
305 582 326 154 113 95 
298 296 268 151 146 148 
138 349 332 102 103 109 
253 511 333 26 53 78 
225 126 291 119 95 80 
201 142 286 103 90 79 
221 612 355 166 157 155 
97 726 194 194 180 193 
229 265 230 160 156 159 
237 217 237 59 48 50 
331 158 301 122 94 82 
376 636 317 117 95 72 
210 420 317 123 137 155 
349 27 221 81 77 75 
195 939 356 160 123 109 
89 661 239 100 72 64 
127 663 327 184 125 121 
129 743 286 143 37 51 
91 678 215 42 64 86 
156 670 333 79 88 129 
256 623 341 124 106 97 
213 19 313 100 76 54 
123 392 236 90 103 119 
172 967 291 71 41 31 
153 452 354 119 98 71 
318 229 240 32 47 94 
237 221 237 122 47 49 
222 423 312 54 72 92 
266 377 321 68 89 115 
287 126 299 106 77 62 
270 661 212 103 117 134 
217 468 197 123 128 136 
378 36 200 152 114 93 
228 128 276 115 69 66 
260 547 235 196 197 209 
151 461 192 70 99 131 
299 341 345 110 123 139 
160 541 359 101 114 131 
239 220 236 62 41 42 
329 295 319 173 152 129 
315 171 306 63 54 55 
107 439 259 129 133 141 
189 973 322 118 98 79 
221 738 337 146 106 81 
122 668 186 133 156 187 
189 747 338 190 166 150 
322 234 302 105 137 165 
243 948 297 101 82 63 
224 208 242 111 38 57 
329 236 311 147 133 129 
144 365 227 112 118 127 
172 104 279 77 62 46 
299 278 224 176 159 152 
345 609 294 102 112 126 
76 438 288 125 124 138 
243 943 284 104 82 62 
226 208 242 117 47 51 
33 687 193 65 78 134 
270 158 278 90 34 43 
227 209 242 120 40 39 
220 412 202 81 112 145 
369 61 203 134 113 92 
307 387 351 119 102 93 
232 447 215 55 92 126 
180 334 232 134 105 68 
269 317 222 74 129 183 
334 678 312 108 128 150 
133 271 242 124 35 75 
177 283 285 139 134 134 
333 92 226 72 61 50 
304 614 318 37 49 63 
259 337 230 84 113 140 
224 128 292 112 110 110 
68 730 201 111 125 199 
96 781 268 94 49 119 
260 619 265 44 46 57 
306 282 299 128 127 133 
337 679 233 52 90 154 
73 293 258 139 108 90 
47 721 233 54 76 169 
226 215 242 119 41 36 
170 988 272 140 115 92 
131 738 278 74 84 95 
132 724 253 95 97 116 
240 843 266 194 140 110 
177 168 287 100 87 76 
282 465 261 70 100 138 
142 272 315 91 35 50 
164 494 354 161 158 162 
141 563 220 82 107 131 
229 211 242 116 41 34 
49 674 177 79 120 152 
119 717 189 205 212 232 
189 839 324 121 95 70 
155 940 281 113 88 59 
304 298 335 85 107 130 
214 273 268 79 99 120 
75 727 247 113 132 156 
142 686 309 70 103 151 
274 479 253 177 175 183 
197 647 363 51 84 111 
170 168 273 98 69 48 
189 459 189 163 156 155 
130 151 263 94 80 67 
306 767 313 70 81 96 
296 446 351 52 73 153 
81 430 301 158 158 166 
228 215 242 116 41 33 
152 682 189 87 123 192 
237 265 271 56 76 95 
272 154 279 80 39 45 
197 298 249 95 110 126 
271 547 262 104 119 137 
329 53 209 112 105 100 
230 215 241 119 42 33 
120 717 241 93 99 113 
289 323 296 83 97 111 
102 710 186 131 176 228 
91 313 308 78 60 67 
214 994 301 138 106 72 
180 855 259 176 135 107 
126 726 193 115 151 192 
280 420 248 111 130 155 
317 297 302 146 107 96 
147 661 266 107 113 141 
306 411 352 100 123 165 
314 366 309 197 151 100 
379 35 208 138 108 82 
216 837 233 218 154 118 
304 251 326 110 114 122 
161 938 268 90 70 50 
150 304 323 100 69 62 
200 392 294 75 93 116 
72 628 233 64 77 96 
226 218 242 118 53 37 
295 451 350 137 160 193 
101 320 321 85 26 43 
229 314 229 113 112 113 
224 220 241 52 53 77 
273 145 208 120 112 109 
228 501 191 77 101 123 
302 302 253 148 146 151 
310 403 317 197 67 18 
171 814 231 145 142 145 
400 696 283 112 128 176 
171 329 242 118 124 134 
57 729 206 185 185 205 
225 222 242 61 52 66 
179 275 284 67 108 138 
129 460 214 58 90 125 
296 615 324 63 73 84 
64 673 178 84 127 161 
289 130 239 119 108 104 
299 376 336 55 87 115 
164 206 288 76 40 23 
282 456 356 69 95 155 
304 618 242 87 108 129 
158 733 195 161 134 159 
129 723 192 213 215 235 
112 766 213 119 41 62 
270 251 276 110 110 116 
228 216 242 114 42 30 
235 630 362 63 59 70 
245 902 316 123 98 76 
116 602 235 74 99 122 
147 380 344 81 118 149 
228 218 242 115 44 28 
177 622 353 130 144 173 
103 288 259 48 99 140 
157 373 214 92 106 121 
117 508 227 82 108 139 
41 712 205 142 151 182 
124 487 363 188 160 128 
43 707 200 182 181 193 
231 218 241 113 37 29 
229 339 279 87 89 94 
261 655 356 192 146 88 
221 880 263 79 56 44 
388 688 327 136 149 191 
301 286 295 90 100 113 
132 812 261 211 178 146 
236 948 276 132 106 80 
218 125 283 163 131 113 
358 13 208 104 89 75 
160 549 233 88 94 103 
180 817 279 179 131 112 
149 745 324 110 89 61 
269 825 266 212 151 124 
239 598 233 147 150 160 
256 502 245 82 102 141 
127 804 244 160 145 136 
82 284 260 139 107 90 
305 262 299 95 111 129 
208 646 364 118 113 127 
289 332 245 181 175 177 
306 258 306 100 113 130 
230 223 242 113 51 41 
298 132 220 100 86 73 
243 339 292 65 83 101 
100 532 268 77 94 121 
205 345 218 99 45 39 
140 714 274 129 136 148 
339 757 304 171 155 149 
195 194 329 38 56 84 
185 577 365 196 201 214 
241 597 353 129 147 170 
146 664 284 44 48 69 
227 978 293 124 98 71 
192 798 301 190 141 120 
106 652 267 130 87 75 
274 458 358 94 118 154 
179 202 304 78 39 42 
325 176 205 128 115 105 
421 671 301 100 120 141 
248 497 235 145 145 152 
78 493 297 87 102 133 
57 708 232 122 122 129 
312 189 315 95 45 45 
319 705 230 164 169 182 
213 847 306 135 91 59 
291 376 304 164 140 117 
313 224 277 149 46 80 
114 601 347 172 191 222 
195 366 207 106 117 131 
294 402 272 159 135 113 
310 596 291 71 67 67 
181 445 331 63 88 116 
96 604 200 128 134 145 
82 747 212 151 165 224 
196 647 203 75 107 135 
240 797 304 213 148 127 
172 905 352 117 90 73 
284 462 355 88 111 167 
179 958 269 92 56 31 
201 908 361 182 142 117 
293 416 277 138 120 105 
252 641 361 114 82 52 
366 676 246 106 127 161 
93 494 340 149 23 69 
278 160 285 80 47 48 
88 341 266 131 37 28 
294 574 310 112 99 90 
232 223 241 113 45 33 
233 223 240 116 43 38 
319 783 301 167 152 143 
244 798 303 212 148 126 
298 148 308 125 67 51 
150 929 287 134 114 97 
290 328 243 147 158 177 
213 139 273 135 96 75 
133 631 344 130 154 207 
221 151 273 91 89 93 
344 55 193 119 94 64 
124 513 215 100 129 164 
196 969 333 89 67 47 
180 898 252 83 65 52 
138 393 217 49 78 103 
340 658 320 105 136 165 
271 393 317 35 53 82 
219 503 184 79 102 125 
219 652 371 118 105 153 
135 402 217 86 99 115 
90 644 172 174 166 166 
241 197 225 112 43 43 
166 157 262 115 85 68 
97 553 356 158 137 117 
82 439 280 137 84 101 
240 197 227 111 45 53 
139 674 298 136 92 83 
210 730 204 132 146 178 
241 198 225 108 33 31 
137 387 221 91 104 119 
135 502 204 143 149 164 
157 915 271 99 74 64 
240 199 226 115 55 50 
259 107 265 124 99 78 
317 290 301 115 127 147 
131 670 322 193 132 129 
288 598 283 65 100 129 
247 439 226 181 179 185 
161 661 338 134 133 141 
206 360 208 121 123 129 
136 567 220 94 116 141 
116 512 228 87 109 132 
282 595 292 81 77 75 
376 695 258 113 138 168 
208 774 209 202 170 138 
222 602 215 160 159 166 
140 534 367 187 188 198 
166 544 197 70 91 111 
295 372 305 163 140 117 
241 200 225 114 52 40 
238 517 347 91 123 155 
164 332 330 123 129 141 
380 701 322 168 193 221 
389 698 322 103 140 205 
199 241 274 110 100 102 
156 300 327 111 120 133 
233 861 279 156 111 83 
180 335 275 109 109 114 
191 252 279 129 125 128 
187 686 194 90 151 201 
241 203 227 112 46 31 
154 379 212 124 129 139 
226 333 275 59 69 80 
199 458 326 98 120 146 
125 595 258 79 88 107 
302 133 289 92 79 69 
163 884 332 165 123 99 
315 203 207 152 105 110 
204 486 331 125 139 159 
169 239 306 46 41 70 
221 429 318 55 79 109 
229 933 256 74 53 34 
248 590 245 99 114 132 
263 384 233 88 96 109 
182 548 361 120 141 169 
144 541 229 120 124 133 
258 375 218 126 130 139 
173 101 285 101 79 56 
241 206 227 72 51 73 
181 895 348 110 92 89 
148 548 362 129 134 144 
366 649 246 88 109 133 
345 730 250 112 29 42 
382 29 201 164 131 99 
149 716 337 104 112 139 
320 693 227 89 117 153 
217 952 345 103 83 70 
131 574 217 41 65 118 
54 638 216 75 81 89 
157 163 287 76 58 37 
301 160 332 46 38 39 
275 463 359 136 151 180 
203 873 222 136 110 91 
110 611 293 98 119 151 
230 564 194 132 141 174 
148 257 246 113 66 87 
323 709 305 108 58 74 
197 425 305 87 91 98 
174 258 326 79 48 60 
193 787 308 196 147 127 
105 360 325 93 60 80 
53 640 211 88 102 115 
273 620 249 59 91 118 
99 391 327 113 118 126 
107 621 292 131 138 151 
234 921 265 89 72 59 
145 219 311 133 56 1 
107 612 306 62 91 161 
296 139 304 105 74 57 
278 382 315 39 58 83 
90 553 342 123 106 95 
281 516 292 170 176 190 
218 851 240 191 134 90 
242 209 227 46 58 94 
297 637 232 114 121 132 
238 491 217 95 114 135 
334 171 220 116 130 147 
242 604 242 75 88 102 
305 218 203 83 122 155 
194 476 187 121 127 137 
157 209 287 68 37 21 
280 444 354 54 83 131 
208 165 304 138 84 60 
292 818 245 229 166 135 
110 573 357 116 115 169 
79 494 313 181 154 128 
146 502 198 144 152 169 
240 208 230 56 63 100 
205 588 192 191 188 196 
166 229 297 92 32 34 
266 405 321 34 58 90 
73 690 233 30 59 113 
398 667 325 173 180 193 
291 434 275 101 125 162 
233 537 354 104 122 147 
217 615 215 121 137 158 
108 582 283 162 156 156 
180 890 257 82 67 54 
248 806 222 168 120 81 
183 919 360 175 134 111 
232 490 203 148 145 149 
236 471 222 69 100 130 
184 158 264 104 91 81 
253 416 325 102 117 136 
235 279 230 114 130 149 
78 498 308 188 159 128 
241 213 229 41 58 98 
182 399 297 63 80 97 
179 472 338 70 88 130 
242 808 294 201 138 117 
419 677 300 217 222 246 
247 539 352 120 135 153 
136 411 352 88 115 140 
190 671 194 116 134 160 
298 218 324 81 64 80 
47 688 235 85 89 110 
291 358 300 125 14 55 
318 230 220 119 106 124 
247 486 332 115 125 140 
287 437 322 116 129 146 
84 770 242 189 81 104 
244 751 212 112 99 86 
243 212 228 51 60 97 
113 488 238 125 137 158 
180 855 258 177 135 106 
242 214 229 49 64 99 
306 741 322 207 169 130 
116 381 253 104 110 119 
308 606 254 81 105 128 
232 324 222 126 98 76 
163 329 301 129 52 87 
287 812 284 200 149 120 
115 777 220 183 23 38 
295 419 329 130 134 144 
255 829 235 248 187 155 
120 557 252 58 76 110 
244 210 225 59 55 80 
177 486 339 125 128 137 
177 290 253 132 141 155 
116 593 277 58 75 102 
108 797 267 88 121 150 
130 579 189 80 98 116 
192 935 252 96 73 47 
257 154 271 56 37 38 
236 571 206 133 149 175 
90 336 307 119 51 74 
261 624 252 62 96 127 
99 274 278 129 60 13 
144 307 247 97 102 109 
308 420 346 125 145 183 
151 755 203 185 136 65 
245 214 224 49 65 92 
242 404 311 106 113 124 
165 361 299 111 117 126 
293 402 341 85 97 119 
205 695 366 184 84 90 
325 122 201 122 97 67 
285 433 258 117 132 159 
162 407 328 92 103 126 
105 794 266 176 122 85 
239 429 218 150 156 171 
201 681 369 102 114 128 
316 163 304 67 54 48 
246 215 224 50 62 92 
156 164 287 79 60 38 
321 602 260 86 111 135 
108 354 254 86 111 135 
87 483 332 109 87 100 
206 953 351 94 75 56 
111 462 352 138 30 63 
162 446 354 153 137 131 
297 426 316 131 118 107 
223 817 289 188 126 108 
379 691 327 157 183 213 
358 746 306 194 174 158 
272 484 338 71 100 135 
265 483 329 78 93 123 
248 335 220 124 85 46 
302 628 343 71 100 144 
175 224 317 121 48 28 
128 211 309 89 67 39 
184 249 289 89 98 114 
172 302 252 82 108 134 
125 415 227 73 92 111 
135 284 243 166 68 0 
129 347 336 78 114 143 
97 654 262 136 94 78 
88 696 236 57 63 85 
403 651 268 112 121 133 
227 868 262 136 103 80 
137 791 286 141 125 111 
52 640 211 84 97 111 
94 536 280 145 143 147 
308 598 278 60 61 67 
319 200 278 102 77 103 
298 606 253 68 105 135 
281 383 247 140 123 106 
125 579 265 70 89 112 
231 324 275 84 87 92 
149 706 334 120 139 160 
270 129 251 144 130 121 
108 411 262 142 102 50 
206 831 231 199 143 106 
211 213 269 110 70 73 
294 708 340 133 132 139 
242 223 231 79 41 38 
273 209 200 134 54 65 
311 445 328 70 103 176 
229 632 225 76 100 129 
115 469 234 85 111 140 
98 326 285 129 43 80 
153 671 265 101 115 145 
309 804 246 171 123 90 
104 578 352 119 147 185 
324 93 218 63 53 42 
245 217 226 45 67 97 
245 218 225 42 56 90 
79 367 277 109 46 68 
295 188 320 92 35 41 
63 737 215 204 206 238 
254 528 355 114 137 173 
80 499 315 180 150 118 
246 216 224 51 63 93 
246 217 224 63 73 99 
321 197 290 158 93 72 
84 292 259 157 73 0 
295 383 340 58 77 110 
190 369 288 60 89 121 
77 727 249 65 85 146 
260 421 229 135 150 192 
386 23 243 157 123 112 
164 506 190 62 106 152 
112 283 335 115 78 82 
289 440 339 89 113 147 
194 680 194 76 132 179 
163 977 278 126 98 67 
211 398 197 46 94 138 
298 387 308 154 132 112 
83 620 212 76 104 129 
253 529 226 96 113 133 
115 258 316 107 93 82 
158 927 267 73 57 50 
114 642 311 151 109 97 
241 589 235 122 125 133 
206 644 208 73 101 126 
246 220 225 68 52 79 
218 509 183 94 102 112 
156 602 358 126 154 191 
247 220 224 90 68 93 
165 535 223 107 114 125 
141 496 199 123 139 160 
176 838 264 183 138 109 
246 223 224 101 67 76 
228 444 322 116 119 128 
414 665 286 101 124 150 
130 182 293 104 86 67 
285 764 316 175 126 94 
294 694 216 93 114 153 
231 480 207 79 97 116 
176 733 350 186 151 137 
103 302 330 151 82 73 
328 786 256 189 173 163 
128 467 214 84 106 133 
293 162 199 134 75 10 
102 387 326 100 104 112 
168 391 330 54 68 96 
248 319 286 116 86 44 
263 593 346 133 96 102 
173 309 251 82 105 127 
62 639 187 113 113 117 
197 222 310 87 46 68 
98 339 326 47 66 95 
254 801 220 157 111 68 
282 502 282 135 146 172 
266 571 331 110 128 148 
296 152 301 122 79 59 
157 897 291 180 127 109 
267 233 274 89 76 78 
184 600 360 90 143 185 
305 348 329 110 109 115 
250 517 233 90 115 141 
191 694 365 75 102 126 
225 793 218 101 129 166 
228 443 322 116 118 125 
267 688 207 65 80 100 
246 800 300 211 143 122 
235 273 230 134 141 154 
340 768 301 189 152 109 
231 679 200 114 136 164 
156 402 202 65 94 119 
244 191 267 51 68 83 
112 725 253 46 65 84 
285 469 307 149 160 179 
230 454 325 72 90 114 
261 708 209 158 170 188 
188 324 239 81 99 117 
35 687 188 190 185 188 
138 200 304 84 71 59 
260 512 337 65 93 119 
166 454 344 82 97 119 
257 622 260 60 66 75 
280 120 283 143 68 22 
211 730 343 191 170 153 
283 700 214 123 139 167 
353 55 192 138 109 81 
326 629 239 83 106 129 
275 473 344 77 98 138 
109 725 255 86 91 100 
225 980 277 120 97 72 
155 572 179 111 126 143 
140 563 205 97 110 125 
98 293 293 107 94 82 
200 532 183 99 111 127 
168 719 196 143 165 192 
224 988 280 118 88 67 
327 124 236 81 69 58 
259 663 360 142 91 46 
315 226 281 141 98 117 
224 410 306 102 112 126 
305 753 233 146 127 114 
227 860 318 152 107 77 
174 205 294 112 35 19 
167 421 343 59 73 102 
313 211 261 36 54 84 
191 542 364 79 97 132 
303 346 302 178 149 118 
190 628 200 156 152 160 
292 586 298 99 92 87 
179 614 185 166 98 127 
209 847 332 152 116 92 
416 679 289 200 210 231 
182 621 355 188 183 188 
149 102 297 122 100 78 
270 142 212 84 85 95 
162 326 330 137 135 141 
250 225 219 97 66 89 
307 325 350 155 154 158 
190 859 345 115 70 61 
303 241 323 94 100 113 
234 864 286 157 113 86 
240 487 223 93 112 134 
55 689 231 93 99 115 
248 110 268 107 63 11 
246 467 330 88 111 143 
274 641 351 123 106 90 
135 169 295 108 88 66 
355 610 279 85 97 111 
264 777 314 207 149 119 
153 650 343 57 73 144 
258 731 347 192 179 173 
241 410 220 116 124 144 
240 589 234 130 132 141 
175 954 268 102 73 49 
302 181 336 98 46 41 
177 853 286 151 114 88 
365 754 282 68 100 135 
249 227 221 95 37 53 
116 587 272 105 110 120 
189 847 335 134 106 81 
120 582 359 105 134 188 
76 325 268 64 98 127 
208 541 180 67 93 118 
89 388 267 131 88 58 
298 215 323 100 9 43 
115 458 234 85 109 135 
420 672 291 120 147 178 
233 871 307 147 112 82 
321 193 291 149 76 73 
97 625 289 118 127 140 
320 325 307 199 167 131 
302 280 346 136 142 154 
291 404 306 134 59 6 
322 701 229 50 55 103 
99 605 206 105 122 142 
139 263 321 75 77 96 
260 536 358 107 136 176 
99 609 181 107 124 142 
287 761 321 138 99 71 
249 230 221 106 20 35 
292 721 221 167 30 45 
90 552 306 89 106 139 
239 448 321 116 120 129 
184 247 306 102 95 99 
180 278 326 95 88 105 
216 626 356 72 113 145 
264 392 323 67 87 116 
167 423 349 106 99 97 
160 433 352 93 79 66 
250 697 204 167 165 175 
121 602 249 103 118 136 
175 384 342 131 123 127 
230 351 210 124 88 89 
329 152 275 121 79 83 
33 695 211 93 115 173 
333 279 329 156 158 168 
327 319 341 138 105 117 
198 270 248 83 127 163 
148 665 284 48 47 66 
297 616 344 64 92 118 
227 636 221 81 107 137 
31 664 217 90 104 151 
144 74 281 104 88 74 
287 616 332 70 79 91 
185 600 184 106 160 205 
124 744 281 53 51 82 
349 92 231 94 77 58 
388 647 314 111 92 71 
254 227 216 103 70 98 
233 792 217 135 128 127 
250 325 289 122 90 50 
152 498 361 98 107 140 
77 390 280 106 70 72 
148 919 288 102 83 70 
150 111 296 120 97 72 
109 605 222 78 104 128 
168 913 349 171 129 105 
140 578 249 83 90 100 
139 104 283 115 94 72 
97 624 176 138 140 148 
253 792 218 157 128 107 
298 288 228 183 177 179 
228 876 275 134 99 76 
238 736 209 169 22 32 
96 607 207 103 122 143 
297 288 271 151 148 152 
285 242 202 101 122 142 
254 230 217 117 77 97 
193 518 191 111 135 172 
311 627 237 98 113 130 
283 488 290 180 173 174 
255 231 216 107 66 80 
137 156 293 108 88 67 
230 582 211 103 141 180 
207 619 358 160 149 147 
235 785 313 209 150 127 
179 973 301 115 86 52 
248 233 223 101 33 42 
154 763 310 117 108 108 
287 326 240 131 148 172 
325 277 314 147 148 155 
239 247 270 78 49 54 
329 174 232 89 61 80 
155 593 176 142 147 164 
294 608 251 74 104 130 
158 819 261 155 154 159 
321 806 286 208 145 114 
133 771 300 145 113 97 
187 314 333 71 111 143 
132 738 287 96 122 145 
168 93 270 94 77 56 
274 686 209 86 118 164 
251 233 220 112 34 43 
183 181 299 105 68 48 
250 234 221 113 50 52 
250 235 221 103 36 37 
88 345 302 117 83 84 
112 394 332 140 140 146 
232 134 256 133 114 99 
251 235 221 103 40 39 
368 748 274 199 118 50 
378 37 220 128 93 73 
220 143 284 140 110 79 
270 830 246 249 188 152 
329 142 251 168 77 9 
154 809 274 118 113 115 
131 290 327 61 84 107 
51 725 210 60 83 110 
164 163 275 110 83 67 
292 400 304 131 51 5 
112 341 327 83 35 37 
143 313 246 109 113 119 
232 873 312 154 114 85 
307 373 325 59 90 117 
350 751 305 135 110 96 
316 427 329 73 102 164 
164 388 316 72 88 120 
273 588 342 153 100 92 
86 661 251 130 88 73 
277 559 282 118 125 137 
224 669 199 155 154 162 
97 349 323 52 60 89 
94 505 344 185 154 119 
229 893 336 175 131 103 
312 62 197 109 88 78 
303 229 304 90 48 58 
180 506 342 128 129 136 
331 131 273 126 106 84 
108 615 266 62 76 89 
184 530 194 91 111 131 
172 247 323 87 43 45 
303 249 330 78 94 118 
82 393 272 100 62 91 
146 702 321 102 116 132 
267 434 321 37 61 85 
88 686 226 54 64 84 
310 252 344 154 76 19 
334 602 297 87 90 96 
197 583 362 121 142 168 
297 448 324 149 169 201 
147 696 246 102 105 121 
332 165 230 101 109 125 
325 162 273 67 90 112 
320 81 213 80 67 53 
91 503 338 174 155 140 
281 179 199 97 70 71 
295 163 329 41 36 37 
181 628 354 184 179 183 
118 318 249 109 123 142 
116 624 327 195 202 215 
306 412 317 155 83 50 
236 620 244 70 69 71 
257 501 245 94 109 140 
107 675 183 171 171 183 
253 117 264 98 64 31 
127 807 271 110 89 82 
86 541 306 102 116 146 
300 289 235 165 162 166 
323 99 218 66 55 44 
216 892 346 132 98 85 
307 614 323 39 47 60 
234 942 266 96 76 61 
221 857 298 165 120 90 
240 496 336 55 77 99 
280 651 220 98 105 115 
392 715 308 157 186 217 
146 520 205 136 144 168 
164 210 287 67 54 45 
173 74 269 133 108 85 
265 562 348 94 124 176 
213 871 219 141 118 103 
173 913 254 106 88 72 
185 871 247 101 77 54 
82 532 315 143 138 136 
166 755 202 169 145 126 
129 789 222 61 68 81 
270 533 266 84 101 121 
249 240 223 146 54 41 
201 529 360 80 107 133 
215 484 190 82 105 126 
197 388 296 67 88 114 
224 906 348 172 137 114 
330 144 300 121 103 91 
234 717 343 96 81 73 
330 615 333 64 57 60 
206 151 295 112 96 90 
147 226 306 99 100 103 
276 164 201 140 59 1 
149 310 325 136 95 65 
73 624 197 91 109 128 
294 311 237 129 40 55 
328 663 311 100 123 146 
251 242 222 141 44 38 
137 652 272 164 160 165 
138 120 285 103 85 67 
141 208 310 107 94 85 
194 483 328 72 94 132 
172 964 316 125 102 81 
149 638 181 115 147 200 
115 433 245 124 130 142 
288 697 345 160 64 28 
178 649 198 139 139 146 
