ply
format ascii 1.0
comment Created by CloudCompare v2.11.1 (Anoia)
comment Created 2/28/22 9:44 PM
obj_info Generated by CloudCompare!
element vertex 2015
property float x
property float y
property float z
property uchar red
property uchar green
property uchar blue
end_header
187 269 332 92 138 174 
146 564 250 97 96 99 
104 552 271 74 95 121 
108 633 298 152 101 92 
220 398 201 61 97 156 
321 93 215 64 54 43 
243 140 223 130 115 106 
103 704 189 90 98 112 
93 583 339 98 114 177 
158 955 306 104 87 75 
183 291 277 100 118 139 
245 139 220 126 117 109 
198 762 326 209 189 177 
63 744 236 33 74 156 
342 134 228 117 96 74 
238 499 341 104 121 141 
96 451 335 147 14 68 
226 478 201 88 105 124 
371 731 272 170 31 34 
274 614 326 44 42 43 
378 634 287 89 116 147 
247 137 222 116 96 80 
332 786 292 107 125 149 
222 470 330 123 142 163 
226 952 324 99 80 67 
179 820 275 178 132 110 
86 552 331 113 99 87 
202 905 229 91 67 54 
358 739 309 149 142 146 
300 288 259 106 50 51 
231 284 232 102 120 139 
257 647 215 70 98 121 
319 164 309 81 65 54 
137 578 261 80 85 92 
254 289 221 145 125 105 
225 479 199 76 100 123 
285 421 351 46 77 126 
263 756 331 212 154 124 
359 56 232 114 93 71 
244 304 225 111 121 135 
245 356 301 48 85 112 
209 609 210 165 170 184 
81 519 322 181 151 119 
101 367 258 104 127 158 
144 678 330 187 139 133 
289 713 342 131 109 97 
147 815 259 134 139 149 
175 347 330 72 52 65 
95 531 271 149 142 143 
246 141 218 120 114 111 
285 682 346 182 90 35 
227 538 355 75 92 113 
92 506 346 184 151 115 
244 487 230 153 152 159 
198 960 256 76 62 48 
181 816 228 212 151 110 
287 370 313 50 73 101 
201 900 355 121 97 73 
316 249 294 159 159 165 
224 686 354 187 103 28 
237 340 290 124 120 121 
128 732 195 192 207 224 
262 676 355 77 67 70 
259 509 357 108 132 165 
299 668 221 112 123 141 
239 921 274 65 51 45 
168 65 256 138 109 79 
171 267 304 98 104 115 
319 804 258 180 126 94 
252 748 213 91 110 137 
143 378 346 78 120 153 
251 143 214 110 106 105 
172 874 277 143 114 85 
78 698 243 93 100 114 
228 587 220 171 169 175 
138 168 296 110 88 62 
288 424 317 125 129 139 
204 537 362 83 107 135 
218 843 288 166 118 91 
210 504 350 66 97 130 
263 552 252 182 185 197 
279 497 310 105 113 151 
166 183 279 81 65 50 
336 50 215 46 36 33 
282 741 337 141 134 133 
298 593 292 68 60 63 
198 392 294 72 91 116 
302 303 336 85 89 101 
253 773 320 206 148 116 
256 124 254 158 123 112 
205 522 190 93 114 135 
305 740 322 202 173 147 
390 655 329 146 163 187 
143 505 367 117 124 156 
255 143 213 108 104 102 
127 603 354 133 153 208 
194 686 195 77 138 187 
205 794 220 168 160 159 
94 398 317 87 74 87 
362 718 262 147 148 156 
200 186 282 102 87 96 
220 949 259 122 91 68 
277 619 243 81 103 124 
83 395 289 133 66 81 
199 177 299 111 42 61 
173 76 275 106 86 65 
324 776 251 159 129 105 
291 424 321 99 112 129 
245 922 297 73 58 49 
364 744 302 154 129 125 
96 764 273 65 75 119 
167 234 311 49 40 54 
195 292 249 127 128 132 
154 913 271 94 67 53 
249 138 220 114 97 81 
179 585 365 150 172 203 
283 481 285 109 122 156 
161 302 253 90 96 107 
97 735 263 107 116 129 
168 260 327 91 48 49 
160 391 327 72 89 115 
137 515 205 158 162 174 
118 257 241 143 112 75 
251 137 222 104 96 96 
95 579 347 139 142 188 
342 143 216 117 101 84 
248 140 217 113 108 105 
300 301 288 133 22 64 
270 513 272 113 127 148 
231 907 332 159 121 93 
278 362 241 150 167 194 
192 201 303 38 61 82 
174 381 199 82 100 117 
162 159 270 94 71 56 
202 516 194 112 129 154 
165 816 236 137 119 118 
174 581 365 79 115 172 
178 362 288 58 73 90 
292 595 277 75 109 137 
196 838 323 127 98 73 
326 793 259 110 94 84 
137 130 288 103 86 68 
308 215 206 122 130 144 
311 131 207 116 94 68 
316 110 217 96 77 54 
304 395 315 219 79 22 
97 557 287 82 101 134 
101 259 277 111 101 93 
113 361 256 159 149 147 
163 395 318 71 90 123 
219 567 366 137 150 170 
300 717 333 136 111 103 
110 269 312 132 56 4 
89 403 306 64 104 137 
191 613 361 163 170 186 
95 292 266 139 92 58 
143 102 266 109 90 70 
105 569 279 83 102 126 
83 617 215 77 105 130 
133 137 266 96 81 67 
253 137 221 97 97 103 
180 186 298 76 33 43 
97 343 325 41 57 97 
246 726 347 193 142 76 
253 136 223 98 96 102 
175 461 190 91 125 159 
203 270 272 88 109 131 
104 588 292 122 123 133 
382 12 242 130 113 104 
235 450 217 87 112 150 
303 180 317 98 47 50 
145 520 366 111 127 160 
304 232 306 114 113 119 
104 590 294 137 134 138 
210 411 309 65 81 106 
170 602 362 167 184 208 
393 709 286 116 128 165 
50 708 196 91 112 192 
112 626 314 58 72 126 
289 403 355 77 107 164 
314 216 272 98 54 53 
323 63 189 148 89 45 
119 660 205 57 83 121 
384 644 312 109 91 71 
38 709 207 141 151 177 
153 542 232 71 92 133 
285 812 235 205 151 113 
155 337 231 141 138 138 
224 571 196 125 146 181 
164 807 230 169 161 159 
82 537 311 69 98 151 
243 156 207 158 62 4 
67 709 190 116 154 208 
263 677 354 136 102 79 
291 817 243 227 166 132 
211 298 241 123 124 127 
131 752 203 119 48 63 
288 126 279 107 91 85 
286 463 282 117 132 157 
146 516 364 81 101 141 
82 479 328 135 39 80 
350 76 230 99 80 59 
197 843 298 107 79 50 
280 112 285 136 109 91 
238 454 221 133 145 167 
195 199 281 100 60 52 
262 660 355 173 133 83 
180 561 179 144 143 148 
153 481 359 110 118 135 
263 223 205 148 70 56 
178 246 289 91 103 121 
138 517 205 173 174 182 
330 111 228 92 77 60 
353 28 236 113 103 98 
137 136 258 110 89 67 
158 895 323 166 123 98 
245 159 207 161 62 5 
169 964 304 97 77 63 
144 563 367 98 126 179 
303 785 236 123 121 123 
177 411 190 109 122 139 
257 565 241 114 122 135 
174 165 278 95 77 66 
95 353 321 61 66 97 
275 537 353 71 101 169 
157 587 179 153 78 70 
195 897 354 150 116 92 
102 559 279 101 108 121 
311 255 234 151 57 93 
362 750 298 89 79 108 
192 924 236 77 60 45 
112 597 281 56 71 101 
141 521 207 164 163 171 
174 874 340 162 127 103 
356 52 233 122 100 80 
134 368 230 148 143 146 
54 701 236 105 126 155 
200 147 257 135 102 89 
148 320 333 146 93 68 
174 686 358 126 146 167 
251 150 206 132 109 88 
148 380 344 83 117 147 
161 393 323 61 79 117 
148 382 344 93 124 153 
109 272 247 102 95 96 
254 147 207 128 114 103 
307 273 310 83 45 66 
315 588 301 98 91 86 
216 402 300 42 63 80 
252 148 207 123 111 100 
291 274 215 200 190 189 
190 607 362 101 129 160 
253 148 206 127 111 97 
201 952 256 161 123 89 
87 482 334 132 130 132 
76 491 300 114 137 161 
283 270 281 113 114 120 
252 150 206 133 114 96 
126 721 193 157 171 218 
253 499 245 94 113 136 
156 947 289 123 99 80 
207 459 196 124 125 129 
250 327 221 99 113 129 
115 679 213 96 109 134 
343 655 329 71 101 157 
102 691 218 69 84 103 
315 276 337 109 115 127 
234 465 220 70 96 120 
196 247 274 88 80 79 
87 473 279 108 122 141 
91 525 276 80 99 134 
308 281 289 131 125 129 
227 721 343 148 131 118 
86 345 263 150 60 50 
168 362 341 123 145 170 
103 466 260 68 95 130 
218 232 269 105 107 114 
99 510 261 53 78 116 
252 686 204 116 136 163 
305 243 304 117 120 129 
358 734 263 138 58 88 
379 735 294 95 103 164 
103 380 261 98 115 140 
168 813 274 188 138 112 
43 716 207 146 157 206 
83 678 227 72 80 90 
117 511 363 181 70 11 
31 685 230 91 121 171 
187 447 191 197 190 193 
213 416 198 98 127 155 
158 420 193 63 95 124 
349 605 271 128 137 149 
95 275 294 70 47 36 
107 587 352 140 160 202 
227 923 342 170 131 106 
248 892 311 143 119 97 
237 581 227 163 164 173 
303 248 342 125 102 85 
199 528 189 65 95 123 
121 585 225 86 112 137 
125 760 210 125 3 33 
291 333 289 154 131 106 
31 695 225 126 142 202 
251 776 318 210 149 121 
246 507 210 140 143 151 
251 156 204 154 67 1 
219 585 363 148 163 186 
217 123 274 174 129 102 
285 154 293 116 39 22 
313 423 340 145 158 175 
142 730 196 115 130 148 
156 560 184 106 127 149 
344 115 230 120 94 67 
282 589 334 147 101 88 
300 284 293 93 107 125 
231 353 207 127 100 95 
98 381 325 72 64 72 
72 622 192 118 122 128 
161 932 261 97 80 69 
80 617 211 87 111 132 
139 752 204 168 10 30 
115 608 288 76 81 88 
334 65 188 139 108 71 
202 444 312 48 63 77 
199 882 352 183 129 116 
254 154 205 144 65 3 
140 393 219 52 85 115 
77 290 271 109 65 19 
300 295 257 160 154 155 
133 651 233 100 112 139 
295 811 241 208 149 112 
383 643 325 93 77 60 
97 330 319 81 28 40 
192 223 330 92 52 78 
295 653 345 80 88 110 
149 290 251 99 110 124 
253 157 204 149 64 0 
277 506 333 73 98 138 
204 840 331 155 118 97 
178 509 188 78 107 173 
253 159 204 143 64 0 
332 660 316 124 147 172 
312 249 243 141 9 64 
172 532 214 87 97 110 
222 811 292 193 128 110 
78 495 314 171 143 114 
180 967 314 103 75 59 
143 734 196 180 195 219 
322 182 316 72 74 80 
229 295 233 88 108 127 
243 145 211 140 123 108 
209 732 204 73 42 98 
96 566 294 133 140 154 
173 833 254 200 152 118 
175 65 306 121 93 69 
139 677 230 90 105 129 
228 215 268 119 114 115 
123 471 362 194 168 142 
264 824 266 214 152 123 
332 730 245 162 153 154 
326 656 232 33 65 127 
292 774 228 105 88 72 
173 566 362 119 135 163 
189 970 256 90 67 39 
126 648 283 74 75 103 
316 173 310 69 57 51 
99 344 325 57 77 108 
150 554 218 63 89 112 
325 376 327 205 175 144 
191 990 254 119 92 57 
105 595 343 177 188 210 
101 273 311 119 58 10 
160 897 330 170 129 103 
339 140 230 106 94 84 
242 144 214 141 125 112 
278 525 296 85 107 143 
126 616 350 177 196 222 
307 626 235 103 115 130 
253 204 269 95 39 49 
241 746 338 146 141 142 
176 285 284 135 134 138 
148 106 296 120 98 76 
237 512 193 116 122 132 
306 124 228 105 94 85 
176 536 195 63 92 119 
144 686 239 92 106 127 
112 565 360 145 126 106 
162 486 353 102 114 144 
240 151 209 162 69 13 
261 669 357 172 138 99 
227 763 326 205 157 130 
228 865 307 149 111 80 
274 202 198 76 56 69 
91 566 310 84 102 142 
289 305 287 111 28 54 
283 630 341 112 120 143 
244 796 219 157 109 72 
304 589 326 144 105 88 
226 738 336 178 164 156 
241 951 283 131 98 72 
60 724 238 90 111 142 
231 175 265 113 78 50 
404 658 315 73 67 62 
206 436 197 89 111 135 
267 335 299 85 97 110 
97 562 291 100 117 142 
360 759 280 137 94 67 
213 436 322 86 105 144 
327 360 334 193 162 130 
148 198 294 69 61 56 
253 310 283 122 94 61 
157 516 356 97 108 139 
342 608 300 64 66 69 
246 146 211 126 112 101 
178 217 322 34 55 89 
135 671 225 49 74 120 
256 738 213 159 22 34 
187 271 322 83 93 106 
269 636 225 28 52 79 
235 932 322 145 124 111 
169 944 264 83 61 50 
132 524 366 153 143 134 
136 756 305 78 52 43 
247 913 325 136 111 89 
258 328 294 108 72 25 
299 310 347 74 112 143 
208 137 268 165 95 63 
213 601 210 148 163 185 
247 145 212 133 120 109 
314 348 304 157 63 48 
183 317 333 67 112 146 
298 180 328 94 31 30 
203 505 341 123 129 139 
327 106 223 80 70 59 
303 122 316 121 99 76 
91 571 313 90 104 149 
93 576 347 185 48 91 
181 245 286 127 126 131 
164 117 270 109 85 53 
302 228 322 118 115 118 
234 538 353 65 99 138 
143 536 222 120 122 130 
222 395 298 71 86 105 
298 770 307 126 84 63 
204 994 302 132 103 76 
116 607 346 187 202 230 
339 624 246 80 107 131 
293 347 285 110 49 40 
333 603 297 76 78 83 
160 418 334 74 97 128 
166 104 273 89 70 47 
338 732 249 150 31 39 
274 654 215 130 125 125 
282 593 332 138 97 84 
380 640 316 113 92 69 
140 183 297 109 87 61 
237 952 306 79 62 52 
80 526 320 187 155 117 
254 639 360 122 89 64 
131 648 263 93 108 147 
331 710 305 113 83 68 
158 911 329 160 123 95 
145 108 292 115 94 73 
240 154 209 166 68 0 
240 155 209 167 69 0 
185 233 283 81 95 118 
241 155 209 166 68 4 
272 641 222 66 90 110 
77 487 306 103 132 162 
242 826 273 175 118 93 
242 153 208 165 68 1 
142 675 330 165 123 111 
275 536 353 96 119 167 
277 150 280 81 35 63 
114 478 239 119 129 144 
161 761 207 76 108 147 
97 564 291 84 105 135 
309 611 329 54 65 77 
147 556 219 84 101 120 
56 637 249 97 118 149 
148 665 264 83 89 125 
281 505 295 131 143 161 
263 239 272 115 112 115 
226 307 272 105 106 110 
96 486 349 147 20 61 
240 158 210 171 71 6 
198 200 277 125 53 71 
158 550 197 66 96 121 
149 391 211 98 109 122 
83 478 330 118 137 157 
242 157 208 169 68 4 
245 502 219 89 117 143 
89 671 183 168 165 173 
121 716 241 93 97 120 
155 447 355 134 119 108 
296 403 352 56 72 115 
287 431 267 132 144 165 
169 559 181 118 126 139 
230 527 188 152 157 196 
279 505 351 82 113 156 
199 32 291 124 105 90 
119 327 327 101 58 67 
147 916 289 82 68 55 
143 515 203 160 162 173 
211 991 265 162 137 112 
231 475 208 100 111 125 
136 633 346 199 210 230 
177 467 340 68 89 132 
206 684 368 178 149 116 
306 302 329 112 117 127 
191 478 190 159 159 164 
283 442 318 67 93 138 
235 905 322 105 78 61 
213 310 235 107 106 109 
65 748 234 101 128 197 
343 632 344 84 136 179 
228 678 355 113 74 61 
303 306 291 169 141 108 
303 137 208 106 87 67 
170 347 221 118 87 62 
89 271 305 105 94 86 
171 966 302 96 72 55 
316 88 198 111 89 66 
196 458 194 117 131 150 
292 276 218 171 165 168 
193 137 290 106 89 77 
165 433 328 59 84 112 
187 244 281 76 97 124 
131 444 358 189 163 138 
319 703 305 148 73 85 
241 293 227 102 98 100 
287 319 238 185 180 182 
250 145 212 117 107 98 
270 564 319 87 111 134 
251 144 213 114 105 97 
265 461 243 102 117 155 
250 914 325 129 100 77 
231 697 201 160 169 189 
294 412 352 74 92 132 
404 657 314 76 68 62 
193 274 250 84 107 134 
294 460 345 141 153 172 
250 148 208 114 105 96 
193 364 282 98 113 132 
348 711 317 137 82 82 
258 586 260 80 93 105 
41 648 234 103 123 146 
137 754 305 99 55 65 
223 911 346 170 127 102 
82 533 325 141 142 147 
318 141 305 100 46 10 
257 615 343 127 84 78 
89 627 284 75 145 195 
287 243 202 91 103 126 
198 602 363 115 141 169 
201 872 351 170 123 104 
355 698 318 120 146 176 
234 891 310 155 112 85 
154 718 345 136 56 75 
182 375 294 41 68 89 
204 867 243 149 109 70 
295 403 315 109 86 102 
305 594 278 57 60 67 
166 664 193 100 120 144 
152 724 196 112 126 142 
177 847 277 152 114 86 
158 936 267 98 77 55 
296 381 292 168 141 116 
54 707 234 133 133 141 
259 671 206 70 82 107 
321 399 324 161 98 33 
181 812 286 172 116 98 
298 336 302 125 78 84 
131 736 283 79 96 111 
77 699 185 227 223 229 
310 331 300 193 156 111 
165 930 257 80 65 57 
295 380 309 140 127 125 
206 15 292 108 95 85 
73 754 243 173 189 209 
114 607 256 88 107 128 
252 415 225 179 184 217 
181 283 317 86 89 98 
203 859 344 152 114 93 
175 615 190 199 191 189 
253 507 249 112 127 146 
168 201 286 80 67 63 
116 769 284 128 77 49 
199 396 305 52 77 108 
75 758 238 167 188 214 
254 266 270 98 97 100 
353 711 317 71 49 110 
300 737 228 145 120 89 
85 553 320 136 122 109 
263 534 237 121 131 147 
303 273 324 62 97 125 
99 308 322 92 56 63 
203 626 360 142 132 136 
275 387 242 127 65 46 
356 740 309 54 44 96 
91 295 265 125 72 35 
296 220 200 89 93 114 
82 723 255 86 107 136 
127 358 242 81 105 127 
173 786 217 159 125 95 
146 731 315 85 79 99 
255 454 233 146 158 180 
251 809 222 189 131 93 
147 319 248 98 86 83 
154 778 298 172 139 114 
302 120 319 132 104 68 
223 274 237 154 153 160 
228 143 224 152 134 118 
92 603 201 128 133 143 
137 521 208 175 172 177 
145 501 197 119 131 164 
227 875 276 130 96 76 
152 815 263 184 157 138 
160 316 246 83 104 123 
111 735 263 94 102 114 
115 383 254 102 109 120 
299 306 252 119 131 148 
230 371 295 76 90 106 
267 486 343 99 115 141 
153 904 273 102 73 51 
311 201 320 95 37 50 
94 578 309 71 98 149 
326 347 341 105 125 149 
299 339 303 112 83 87 
129 412 236 119 123 132 
233 351 208 119 82 82 
326 725 303 80 98 117 
323 606 252 30 73 107 
266 573 328 78 94 109 
187 351 279 122 127 137 
229 143 231 140 125 111 
93 487 340 141 3 54 
130 801 240 163 140 120 
82 396 288 125 66 80 
277 467 338 76 92 131 
338 631 341 37 73 135 
275 514 316 106 125 148 
194 842 312 113 84 56 
76 392 275 139 102 102 
140 682 307 114 80 87 
231 142 230 140 125 112 
136 563 211 115 123 136 
161 642 345 55 76 101 
273 810 278 193 137 107 
141 663 338 182 134 125 
323 214 327 127 85 70 
131 641 179 131 160 200 
275 167 281 89 45 41 
224 143 239 143 122 104 
62 698 185 170 162 178 
307 190 326 88 26 41 
233 403 211 88 120 173 
235 952 313 90 75 63 
230 219 269 109 107 110 
295 342 297 158 139 122 
310 807 249 180 129 94 
271 252 274 121 119 123 
293 426 335 115 125 142 
186 695 365 102 129 165 
170 277 254 150 147 151 
146 687 306 73 86 135 
272 347 236 185 177 180 
90 294 295 108 58 24 
113 762 211 197 21 32 
153 754 203 145 108 57 
314 705 307 135 88 45 
177 861 266 161 127 97 
380 720 274 170 179 195 
115 650 261 91 104 138 
180 776 312 99 103 113 
333 167 226 114 128 144 
266 124 260 155 113 100 
331 625 243 46 64 83 
231 413 311 124 130 141 
135 125 272 97 81 65 
227 309 273 84 89 96 
254 687 205 121 142 171 
340 87 195 131 107 80 
204 140 270 160 93 62 
188 312 241 123 125 131 
287 122 298 130 65 6 
206 12 327 108 92 82 
277 721 217 77 90 123 
158 121 296 124 94 71 
97 500 265 37 77 118 
303 226 314 113 111 114 
198 971 327 95 75 58 
315 181 257 132 48 63 
38 689 240 75 87 137 
176 291 253 110 118 129 
309 296 313 113 113 120 
99 620 286 119 114 114 
280 604 325 124 87 76 
353 14 212 89 76 62 
318 227 221 118 89 111 
197 389 193 64 94 121 
268 508 358 115 143 182 
348 770 293 172 153 138 
277 509 308 145 149 160 
81 403 273 147 13 53 
299 150 295 124 60 19 
245 833 236 242 179 145 
363 58 232 114 91 65 
289 370 250 178 127 74 
150 233 293 31 28 31 
252 510 248 125 132 145 
386 663 331 141 158 183 
228 141 237 138 121 106 
97 714 251 92 95 102 
264 683 353 120 90 71 
164 198 285 89 37 16 
47 710 199 130 141 187 
182 871 254 121 96 74 
172 289 327 156 155 161 
328 216 326 137 73 77 
199 954 350 111 88 73 
328 156 202 110 98 91 
284 203 197 108 82 95 
314 231 331 78 39 54 
373 659 252 103 125 158 
194 36 291 123 98 70 
133 197 303 96 79 60 
246 894 312 112 94 75 
281 220 199 159 80 86 
283 574 330 117 101 88 
64 628 197 119 124 132 
295 810 240 201 144 107 
414 678 304 163 179 223 
290 786 298 201 143 108 
347 80 228 111 91 70 
155 907 317 99 78 65 
336 648 330 97 129 174 
186 212 294 121 0 46 
239 135 235 149 121 90 
333 672 234 60 81 150 
295 709 222 143 155 173 
227 372 293 51 75 99 
198 550 364 93 113 146 
124 650 245 81 94 113 
110 650 264 113 100 108 
267 123 261 155 105 84 
373 12 230 119 106 98 
312 691 325 143 45 52 
156 768 210 171 147 130 
103 578 287 95 107 130 
239 133 237 127 89 7 
250 589 251 131 131 137 
294 353 343 138 136 139 
186 253 317 82 68 72 
241 943 302 115 95 77 
105 659 223 98 105 119 
285 498 337 69 93 136 
120 660 187 131 143 164 
377 16 201 110 108 109 
243 476 232 122 128 137 
305 261 312 66 98 125 
181 190 310 89 33 28 
157 548 203 65 90 114 
295 451 324 72 95 164 
294 155 315 85 28 30 
227 559 191 137 151 177 
62 629 240 69 61 56 
268 553 351 53 105 158 
157 365 338 95 92 115 
76 756 249 142 156 178 
176 209 317 35 37 40 
178 957 266 96 64 42 
232 142 227 145 128 114 
170 408 302 65 86 119 
319 703 232 136 150 168 
260 817 228 237 175 141 
183 676 363 128 154 180 
112 442 349 109 87 88 
202 875 242 115 98 83 
234 142 224 150 132 116 
198 829 232 208 144 106 
81 336 271 76 95 117 
295 812 286 202 145 111 
234 142 226 146 129 115 
274 435 319 64 80 106 
284 313 232 84 139 180 
335 769 300 111 73 60 
80 658 256 145 97 80 
313 649 319 105 131 157 
147 698 252 45 68 118 
313 398 316 205 82 20 
312 205 266 95 80 96 
140 93 273 95 79 63 
204 401 299 47 74 107 
81 665 181 87 153 208 
263 589 269 53 65 76 
214 580 364 111 132 179 
136 485 360 130 116 99 
287 453 316 98 117 148 
265 435 233 150 152 199 
235 140 228 145 129 116 
268 749 216 91 119 146 
310 659 226 90 113 143 
327 213 305 70 104 131 
257 649 362 140 105 101 
138 742 198 64 51 147 
168 259 253 116 95 107 
266 673 208 150 152 160 
89 567 339 137 124 116 
164 792 292 151 119 97 
353 13 225 95 85 76 
200 995 285 87 63 47 
28 683 215 173 164 164 
189 908 236 58 45 40 
98 266 309 93 83 74 
344 35 214 124 117 112 
260 560 357 92 130 177 
214 883 206 132 105 78 
295 762 319 183 154 128 
232 920 333 117 91 70 
157 527 209 99 110 127 
297 124 264 112 97 90 
236 138 231 141 125 113 
322 596 294 91 86 84 
189 871 240 143 109 85 
210 427 198 149 153 171 
301 138 209 104 90 78 
229 272 233 152 151 156 
280 417 251 112 131 156 
118 601 251 94 110 128 
92 655 241 90 68 64 
290 413 306 103 88 72 
275 195 280 118 25 34 
350 767 288 189 158 129 
189 729 353 147 152 167 
182 517 192 172 171 195 
70 680 236 69 90 150 
265 760 216 126 114 107 
59 742 233 45 78 157 
271 525 356 153 161 175 
195 856 341 104 73 67 
309 595 325 130 87 71 
171 453 342 86 101 119 
159 549 195 57 98 129 
207 293 272 74 103 128 
210 969 258 143 109 66 
124 305 327 60 96 123 
130 151 286 107 89 70 
315 183 270 106 40 50 
112 420 255 162 124 77 
268 372 237 106 111 119 
212 795 305 205 146 129 
116 370 256 132 129 131 
257 175 202 83 75 96 
292 382 340 59 79 108 
148 681 250 139 139 144 
110 658 216 125 128 136 
145 717 326 126 136 152 
103 268 284 112 59 17 
203 146 264 128 92 77 
212 645 368 80 63 67 
83 529 333 196 166 135 
242 647 363 152 102 53 
178 998 290 168 149 136 
304 394 315 216 92 34 
218 979 261 155 124 91 
395 701 314 160 165 209 
109 727 194 158 187 225 
149 797 224 167 143 125 
331 236 313 161 154 152 
271 549 260 129 146 169 
328 147 305 103 55 67 
324 380 331 189 92 12 
161 85 265 120 90 59 
143 532 216 102 109 122 
296 366 288 105 114 128 
142 146 296 113 90 65 
339 603 322 123 99 73 
234 501 196 83 104 125 
291 316 291 106 108 113 
320 325 307 201 169 134 
202 944 254 139 109 78 
280 720 217 137 150 165 
150 918 305 89 73 62 
357 38 234 125 104 83 
333 259 324 94 122 148 
189 150 302 122 66 17 
284 262 281 121 121 127 
326 181 235 97 88 102 
241 951 293 103 83 62 
263 355 307 48 78 106 
277 322 225 77 119 155 
313 338 303 202 165 121 
181 348 215 147 126 104 
219 649 371 100 101 142 
355 11 220 87 76 67 
353 116 218 145 113 84 
243 443 221 190 185 189 
356 744 307 140 148 165 
245 298 226 95 97 102 
70 626 189 118 120 126 
234 136 238 123 111 99 
88 701 241 74 77 83 
311 338 302 202 165 121 
82 467 325 176 153 131 
171 881 278 124 95 72 
170 954 267 163 129 91 
311 808 249 181 131 95 
316 196 285 146 73 71 
279 140 284 80 38 34 
208 654 203 86 44 30 
233 357 207 123 73 78 
129 477 211 135 135 140 
329 751 303 95 87 83 
307 629 233 100 114 130 
133 701 189 71 141 197 
167 97 299 126 98 75 
66 653 258 154 109 85 
269 764 321 205 145 114 
82 678 230 63 73 86 
275 113 283 128 60 8 
337 783 292 139 133 135 
174 834 257 191 145 113 
358 736 309 165 141 119 
301 140 208 107 90 73 
204 879 346 157 114 91 
139 561 367 79 113 171 
165 540 216 68 84 101 
254 256 219 156 134 107 
77 680 182 144 60 78 
227 127 267 115 94 74 
116 301 326 58 76 100 
231 232 268 81 92 106 
160 366 306 120 118 122 
161 717 352 162 31 44 
201 351 210 102 61 57 
372 738 303 176 67 81 
113 756 209 121 130 162 
211 234 269 122 104 94 
374 51 205 130 107 83 
305 181 326 92 37 34 
145 713 194 77 157 216 
126 406 343 84 104 125 
172 372 341 107 86 99 
219 122 270 173 107 40 
304 241 318 88 96 111 
157 895 292 168 108 91 
190 909 359 180 142 119 
229 135 244 136 114 93 
302 822 259 241 172 140 
174 710 195 146 174 203 
196 996 297 89 59 43 
228 135 246 136 113 91 
238 925 269 62 49 43 
172 956 328 123 102 83 
83 531 331 185 147 100 
200 771 211 178 149 120 
151 393 209 101 112 125 
230 132 247 148 121 97 
310 604 250 101 115 130 
353 609 267 137 148 163 
124 607 352 73 97 178 
144 403 212 107 113 123 
158 894 284 151 75 43 
33 695 202 158 164 197 
79 496 320 153 5 71 
150 763 208 95 105 116 
56 682 235 47 78 142 
269 550 342 45 68 104 
213 603 211 117 144 174 
144 181 295 107 85 60 
107 580 277 87 115 154 
224 131 254 131 109 99 
30 685 228 85 120 169 
276 574 304 71 69 71 
196 843 300 97 71 40 
132 794 282 199 176 161 
236 479 331 45 61 79 
270 583 343 132 103 83 
361 13 237 122 109 101 
212 992 267 225 194 167 
206 832 230 195 139 101 
172 869 284 142 111 84 
389 20 247 185 142 116 
306 181 314 103 58 57 
141 77 268 117 98 80 
262 268 272 78 95 113 
78 371 265 81 72 96 
270 379 321 55 75 98 
291 494 338 62 89 142 
119 679 214 101 116 137 
302 367 352 130 69 64 
237 530 192 117 131 172 
250 296 228 104 103 107 
259 744 342 145 139 142 
114 605 245 128 134 144 
340 47 213 55 47 39 
293 412 288 148 132 117 
167 474 349 154 152 157 
123 440 354 155 127 101 
174 863 335 146 116 87 
257 671 206 48 56 79 
382 32 216 157 116 89 
88 431 318 136 140 149 
322 702 233 34 42 64 
170 807 228 163 134 118 
73 686 235 78 87 122 
163 137 279 92 73 51 
103 606 224 83 106 130 
162 683 352 111 140 168 
258 726 349 205 165 124 
126 576 263 61 79 102 
306 305 319 123 119 120 
358 679 249 119 138 165 
359 744 265 179 123 107 
91 569 313 91 109 152 
186 153 279 80 71 64 
210 496 190 124 124 128 
158 384 323 60 80 114 
224 133 253 134 112 99 
175 184 286 121 56 6 
44 641 208 100 103 107 
33 662 229 94 120 151 
162 558 184 86 111 134 
226 132 252 150 129 111 
231 535 354 104 122 148 
292 406 341 79 93 118 
236 408 214 97 120 156 
137 568 230 87 105 126 
40 713 212 136 136 191 
232 823 280 177 124 99 
300 814 284 210 148 118 
198 918 358 185 146 123 
249 543 206 129 153 181 
139 233 316 46 70 92 
322 201 238 143 25 65 
398 686 282 127 145 191 
238 699 348 47 45 62 
377 12 232 126 112 103 
401 692 316 116 146 201 
231 128 251 128 97 52 
202 174 306 120 40 57 
128 734 195 180 194 219 
90 299 266 138 122 115 
209 798 302 192 134 115 
89 635 276 117 89 75 
306 215 204 79 125 161 
259 356 229 68 84 101 
250 912 320 103 78 63 
183 937 352 193 145 126 
284 871 301 133 119 109 
284 750 331 119 105 93 
325 127 265 123 110 98 
134 134 266 94 80 66 
228 128 254 104 87 79 
343 768 263 110 101 95 
168 506 189 105 136 182 
354 49 192 115 94 71 
192 970 254 103 81 55 
83 494 330 152 17 68 
169 963 277 78 52 36 
171 854 307 121 97 71 
182 666 194 118 133 156 
119 602 253 79 103 126 
78 715 249 150 151 161 
229 132 249 142 133 126 
93 551 354 164 145 130 
116 378 255 132 127 127 
100 579 350 218 213 216 
211 891 236 102 82 63 
360 719 260 133 4 22 
292 210 293 105 40 62 
321 204 323 91 77 76 
210 531 359 87 101 118 
216 479 332 78 104 150 
145 127 256 117 91 57 
172 169 279 85 76 67 
137 665 291 125 88 84 
165 396 197 54 87 117 
138 100 282 115 94 71 
257 431 330 63 88 116 
224 868 255 116 84 62 
246 440 323 102 107 117 
395 662 327 91 124 184 
182 732 350 188 191 210 
252 572 235 123 142 167 
250 219 268 81 67 67 
117 364 255 98 113 133 
313 190 261 136 54 59 
80 313 270 156 60 3 
121 366 246 121 119 123 
226 137 244 136 115 95 
126 338 335 109 61 80 
407 677 316 102 122 200 
79 376 281 94 88 104 
278 456 322 125 136 153 
297 411 326 121 122 129 
212 815 228 172 128 87 
266 456 242 121 136 162 
91 509 345 189 157 122 
332 274 327 159 160 169 
304 281 346 114 137 162 
224 141 241 139 118 99 
306 148 303 112 56 22 
383 643 318 115 94 72 
71 659 255 151 101 80 
272 828 252 241 184 148 
126 656 294 133 88 77 
183 905 244 79 64 51 
97 661 226 92 102 118 
328 226 306 110 103 112 
273 804 222 177 124 88 
277 526 307 119 139 163 
264 681 208 65 62 82 
171 662 346 60 50 76 
167 898 340 123 101 80 
139 507 201 118 133 165 
343 642 240 101 116 134 
113 649 274 117 78 70 
25 674 205 67 33 114 
163 748 330 130 128 141 
286 389 353 58 83 127 
242 840 245 234 173 137 
258 300 223 134 132 145 
283 225 284 70 97 119 
224 140 244 137 115 96 
146 505 197 173 178 189 
188 449 329 75 103 138 
151 919 309 73 57 48 
111 778 283 134 53 64 
118 294 325 92 83 98 
118 334 327 91 61 59 
88 564 334 119 102 84 
183 186 315 97 33 30 
25 660 204 144 144 151 
94 559 298 58 87 137 
209 478 332 92 119 147 
105 624 302 142 150 163 
293 292 288 101 18 41 
277 502 321 142 152 169 
230 137 240 132 115 100 
80 403 297 136 27 77 
204 391 194 50 97 134 
165 277 254 147 142 144 
135 419 355 179 155 132 
230 136 242 134 114 95 
38 669 244 76 121 161 
261 501 347 85 107 128 
180 677 360 136 152 173 
343 646 240 89 109 132 
240 551 353 40 71 99 
291 429 327 132 133 140 
175 479 338 149 144 146 
144 541 229 119 125 137 
297 274 220 141 54 65 
192 562 179 168 165 170 
255 824 233 244 179 145 
166 303 309 93 94 101 
275 371 316 39 61 85 
183 255 314 95 88 90 
321 754 241 161 124 96 
221 824 284 173 117 92 
95 317 286 104 75 50 
193 989 311 121 93 63 
269 407 229 45 86 128 
265 535 247 125 134 148 
176 78 298 114 87 66 
175 850 310 122 96 69 
328 65 219 92 79 68 
330 762 302 197 154 96 
188 866 241 123 90 60 
140 520 206 166 166 174 
255 513 336 60 78 110 
298 194 331 89 50 46 
127 320 333 150 103 81 
359 101 209 154 126 98 
212 289 243 128 130 135 
107 549 361 159 88 43 
163 247 311 45 35 38 
234 130 246 129 112 98 
194 510 343 65 86 106 
182 941 349 139 107 94 
289 368 252 188 162 137 
104 711 238 56 67 85 
348 113 204 151 119 87 
311 120 209 118 92 58 
170 328 317 96 64 82 
317 591 298 96 90 86 
285 232 283 57 87 113 
232 135 242 134 112 89 
213 275 270 77 101 123 
161 360 305 105 113 125 
216 119 279 162 136 119 
223 488 337 137 148 165 
233 893 283 112 77 52 
75 434 291 133 142 156 
236 555 356 87 110 139 
205 256 245 94 123 149 
186 450 330 60 87 127 
299 288 338 73 108 138 
168 705 358 83 123 156 
234 134 241 137 114 92 
285 613 327 50 62 76 
330 211 313 56 85 110 
134 130 271 100 84 68 
279 275 210 198 188 192 
102 392 325 123 123 127 
59 737 239 61 78 152 
298 676 343 61 70 135 
289 656 348 97 87 82 
242 756 334 206 151 127 
376 44 225 120 95 66 
147 693 301 39 42 97 
81 354 274 132 68 73 
237 757 332 199 148 125 
121 392 337 55 69 83 
198 694 196 136 82 94 
264 361 309 43 71 107 
160 283 328 138 94 107 
190 923 358 200 158 137 
99 592 311 88 104 155 
238 627 236 72 79 88 
347 666 327 125 150 177 
162 369 340 79 121 156 
133 380 231 145 144 150 
264 574 261 111 123 139 
34 670 237 80 112 167 
140 517 205 154 160 174 
239 591 236 115 124 138 
119 795 280 175 146 142 
236 129 247 70 80 90 
386 691 272 147 162 191 
237 128 247 72 102 128 
260 238 271 111 109 113 
94 695 187 196 196 218 
381 705 273 98 122 158 
165 291 305 98 102 113 
187 964 258 94 73 47 
213 547 184 127 140 157 
238 129 244 63 92 115 
112 616 285 75 83 93 
222 919 245 73 55 42 
200 140 317 112 84 60 
200 369 282 49 74 98 
206 892 235 93 72 50 
323 389 326 187 85 10 
296 332 299 123 44 59 
335 628 340 62 86 144 
124 588 236 86 110 133 
118 352 327 101 42 68 
270 799 291 211 150 116 
318 288 301 107 128 151 
232 690 350 140 111 90 
312 678 328 93 134 167 
125 741 278 71 84 102 
280 335 230 181 178 189 
132 291 244 169 65 0 
238 132 240 117 76 12 
176 990 293 158 120 86 
262 527 252 105 117 133 
335 697 309 104 88 103 
170 828 252 206 151 120 
122 783 221 108 48 43 
93 779 260 180 38 54 
82 395 295 132 56 76 
197 816 290 178 126 104 
216 721 203 164 13 60 
173 582 365 78 111 168 
376 43 206 127 103 77 
280 826 258 234 179 147 
178 602 186 103 164 212 
119 649 179 190 198 217 
257 164 202 124 72 31 
206 235 270 114 66 33 
310 812 286 213 149 123 
287 312 233 105 153 191 
166 619 355 106 128 156 
163 348 298 128 77 94 
333 731 245 166 123 123 
268 552 340 43 74 117 
143 686 312 96 117 159 
118 804 269 169 152 140 
228 863 295 166 121 90 
310 289 293 121 133 155 
214 402 198 76 109 145 
168 312 329 147 152 163 
118 431 247 118 123 133 
289 637 335 75 88 104 
398 700 314 164 181 219 
288 454 284 77 102 158 
318 179 290 140 49 76 
323 151 246 118 59 86 
191 618 200 100 149 190 
247 806 221 169 122 81 
305 575 323 125 106 89 
297 306 285 125 13 56 
305 379 309 216 183 146 
334 773 257 175 140 100 
297 351 275 150 14 66 
312 665 309 104 134 163 
98 616 251 92 99 108 
182 282 319 84 86 94 
236 711 204 134 163 193 
298 166 306 58 62 72 
321 612 335 44 69 99 
294 731 333 165 136 103 
401 670 323 128 146 173 
228 908 339 164 124 96 
302 385 328 108 110 124 
337 700 310 132 62 60 
173 644 201 122 126 136 
209 16 298 113 102 95 
190 210 284 116 39 60 
375 637 303 100 85 72 
121 601 253 86 110 133 
118 632 323 133 146 168 
296 479 334 103 134 174 
298 282 292 93 104 119 
201 926 247 96 77 60 
239 270 269 61 55 57 
322 188 297 135 49 61 
375 704 266 75 101 151 
246 273 270 104 101 102 
156 297 329 143 144 152 
147 689 303 80 89 119 
257 761 329 209 147 117 
237 525 191 187 181 182 
354 645 340 114 127 175 
305 267 232 83 131 170 
300 298 338 83 108 133 
158 363 338 95 85 100 
332 782 296 177 161 154 
269 647 217 128 126 128 
244 679 357 149 131 129 
244 134 231 122 102 87 
266 808 283 206 146 117 
239 810 292 198 136 114 
343 731 252 143 47 85 
299 743 229 64 48 89 
278 451 250 83 109 144 
197 721 200 154 135 170 
246 135 229 120 101 86 
198 291 248 123 124 129 
273 708 347 113 93 79 
407 683 313 221 221 230 
210 914 240 86 68 52 
244 580 240 157 154 163 
324 170 240 104 48 43 
108 330 328 61 90 122 
278 110 290 103 82 68 
123 454 358 168 145 122 
290 193 197 117 92 91 
217 636 219 78 80 87 
97 545 358 195 86 17 
223 501 344 76 94 116 
257 458 331 55 84 112 
240 283 230 81 106 130 
214 466 198 119 130 146 
412 682 301 110 121 183 
339 46 211 101 96 95 
290 612 343 58 82 109 
212 747 334 178 165 160 
133 528 369 152 95 124 
159 417 194 87 105 124 
163 742 339 130 91 97 
198 726 351 210 193 180 
141 679 300 118 82 83 
170 392 341 125 129 139 
185 998 292 143 114 83 
310 143 299 89 44 19 
327 762 247 165 151 144 
136 411 222 109 117 129 
291 823 271 219 159 132 
207 419 317 117 134 155 
266 334 232 94 89 95 
169 824 260 197 141 116 
205 451 319 94 104 116 
195 985 254 113 82 67 
139 650 255 106 119 152 
91 347 283 105 81 91 
120 301 325 46 75 100 
407 682 312 209 210 223 
195 679 365 84 107 128 
279 124 252 149 109 100 
214 948 346 92 73 59 
242 133 237 113 101 92 
220 904 239 65 51 40 
102 292 253 70 61 82 
149 762 208 95 76 78 
228 232 269 81 95 112 
295 390 308 154 132 110 
333 164 210 167 79 11 
86 670 219 39 55 79 
314 213 273 89 47 48 
143 434 351 179 146 118 
244 131 239 113 109 111 
202 832 231 186 131 94 
114 310 328 115 70 71 
168 462 188 107 124 156 
252 832 262 205 149 120 
102 624 298 138 145 158 
77 488 294 87 101 137 
300 327 351 159 160 168 
132 581 183 93 113 132 
302 278 242 82 129 165 
174 850 322 141 112 83 
99 585 347 138 138 172 
104 437 349 167 130 99 
184 983 257 137 103 70 
172 218 308 68 39 39 
170 828 246 212 153 123 
104 362 323 103 28 58 
212 263 242 88 124 156 
119 609 348 107 131 201 
326 651 232 25 74 115 
291 418 272 81 102 146 
300 224 300 63 85 105 
317 295 301 148 133 127 
307 321 316 156 114 60 
86 621 267 51 82 113 
140 514 203 174 173 180 
113 524 230 73 105 137 
282 817 274 205 153 125 
182 295 250 116 122 130 
85 354 296 56 84 108 
193 150 316 106 106 109 
366 741 304 191 157 124 
195 140 284 111 91 78 
308 273 287 107 128 152 
283 475 291 181 176 179 
396 700 285 163 169 183 
244 132 237 117 107 104 
163 428 346 66 78 108 
124 684 219 62 82 129 
98 706 239 45 58 78 
176 740 343 146 129 113 
158 889 288 137 65 27 
246 132 237 115 104 99 
301 612 337 72 89 107 
77 496 311 187 161 135 
284 466 277 113 133 159 
151 525 362 68 96 147 
300 770 234 136 112 86 
153 272 250 145 139 139 
187 153 265 89 79 71 
327 208 305 72 103 129 
179 337 226 142 113 91 
177 338 226 137 105 79 
89 423 310 105 52 66 
241 138 227 128 115 106 
251 119 256 154 85 12 
275 281 211 111 142 193 
372 744 287 176 63 73 
243 137 225 135 118 103 
362 626 292 118 128 143 
276 118 283 131 61 3 
154 557 240 73 82 93 
282 290 218 131 149 176 
172 170 280 88 78 69 
300 344 304 120 119 121 
294 142 315 39 45 63 
109 581 355 138 159 196 
102 581 291 100 108 122 
89 297 296 113 64 12 
241 136 229 137 121 106 
214 847 306 134 90 57 
159 259 320 80 34 31 
195 343 276 108 109 115 
168 431 189 90 111 138 
152 627 352 108 121 167 
131 342 243 92 113 133 
314 185 261 114 46 62 
338 682 317 108 135 160 
233 262 268 67 91 112 
89 512 277 76 101 132 
130 654 222 51 80 115 
91 550 297 161 158 163 
272 571 281 96 97 100 
238 272 233 82 98 114 
308 329 315 157 117 68 
260 615 265 50 64 79 
165 344 297 125 64 86 
298 254 210 174 92 94 
204 405 310 67 91 117 
113 256 333 123 115 110 
304 124 280 76 69 63 
95 318 284 93 84 88 
149 685 253 137 138 145 
283 475 292 177 174 179 
264 640 221 120 123 130 
245 137 225 122 100 79 
291 410 303 106 92 77 
291 335 289 153 130 106 
251 618 346 132 85 82 
200 187 308 92 39 50 
378 659 335 123 145 194 
310 725 232 90 38 56 
231 941 326 113 87 71 
167 358 289 101 107 119 
271 442 235 168 181 214 
303 143 205 105 90 74 
329 360 324 200 170 140 
183 369 292 46 74 97 
119 606 270 57 75 96 
315 803 290 203 142 114 
180 997 272 187 153 123 
186 512 187 171 176 194 
311 227 255 44 78 127 
140 652 260 88 100 140 
348 709 249 128 152 177 
278 323 227 86 111 132 
376 709 269 136 149 171 
160 901 274 112 76 58 
281 266 207 183 172 172 
202 493 335 90 112 136 
351 613 303 87 81 78 
41 643 227 32 54 101 
197 293 273 71 90 109 
221 466 203 125 128 135 
299 724 332 57 59 66 
206 164 280 72 83 97 
352 619 328 121 97 70 
165 448 188 124 138 155 
132 715 193 100 102 107 
346 735 255 165 125 85 
213 847 312 134 90 59 
77 656 259 155 105 83 
162 667 191 69 102 137 
96 465 342 176 145 110 
300 684 220 170 166 170 
248 135 229 119 101 89 
92 399 265 124 117 136 
140 126 259 114 91 63 
85 517 290 135 144 159 
285 332 241 136 140 151 
77 637 177 77 77 86 
274 672 211 56 93 137 
145 704 264 87 92 132 
276 511 317 124 136 155 
202 478 331 39 78 137 
251 133 231 115 102 95 
210 963 339 101 81 69 
326 777 300 175 155 141 
244 488 228 160 158 163 
80 348 272 133 70 69 
191 542 185 70 95 117 
275 274 278 73 88 105 
246 922 299 72 59 45 
261 322 230 129 150 176 
262 872 311 158 132 108 
246 907 302 140 92 67 
164 123 272 109 85 54 
138 665 335 181 132 124 
400 671 324 197 199 208 
74 625 230 85 81 79 
248 585 249 74 95 115 
248 310 226 89 106 123 
307 262 244 176 171 171 
260 389 217 57 97 129 
273 136 221 102 86 91 
254 135 224 97 95 102 
153 696 190 132 160 205 
83 444 276 157 80 98 
193 392 305 67 87 109 
415 675 290 213 216 231 
234 322 217 135 107 78 
75 460 299 119 110 106 
248 833 266 194 138 111 
76 444 297 102 124 148 
199 605 362 137 153 175 
261 508 256 94 112 135 
188 702 196 81 150 205 
209 605 362 178 173 176 
253 133 231 112 101 97 
221 834 283 165 113 86 
205 958 346 109 85 64 
148 668 253 130 135 149 
297 343 278 125 128 136 
146 662 338 110 83 94 
247 521 341 38 60 80 
168 696 356 90 130 162 
129 491 363 179 77 9 
290 441 300 140 147 167 
199 429 194 155 158 172 
275 532 354 95 103 122 
163 409 324 70 87 122 
234 199 266 72 32 52 
230 716 204 201 16 34 
199 212 274 122 27 61 
258 345 301 63 81 100 
162 622 356 136 166 202 
258 271 272 78 93 109 
146 576 182 131 134 141 
215 314 273 119 119 125 
245 916 305 79 62 49 
125 718 245 91 100 120 
269 222 201 158 73 68 
320 809 273 209 144 113 
283 473 301 128 142 164 
51 636 224 93 91 92 
209 803 225 149 108 66 
302 233 336 108 114 125 
205 334 277 89 99 111 
128 378 236 153 150 153 
271 559 318 91 114 137 
300 270 338 131 133 141 
128 595 268 72 78 85 
283 321 235 179 174 177 
119 371 338 77 112 142 
272 758 218 120 105 97 
198 723 201 172 67 101 
302 246 295 119 120 126 
299 386 352 66 74 102 
64 723 200 105 123 203 
243 671 203 155 155 163 
251 560 222 148 168 193 
175 461 189 100 124 154 
215 975 302 105 80 58 
177 74 299 113 87 63 
248 133 234 118 104 96 
136 121 272 98 83 66 
271 379 321 43 66 92 
250 132 233 117 103 96 
103 662 217 132 132 139 
59 687 233 129 131 140 
287 440 339 83 107 142 
111 748 205 214 64 69 
261 263 271 72 89 107 
225 967 301 84 65 52 
209 403 297 44 70 96 
183 156 267 84 72 64 
187 217 306 98 34 55 
140 351 232 90 102 116 
176 878 342 171 132 110 
304 249 298 125 127 133 
223 522 356 117 140 166 
102 621 288 124 129 138 
301 462 328 138 154 183 
217 697 199 175 176 189 
207 146 257 142 109 93 
253 129 239 136 113 102 
232 636 222 74 79 87 
109 632 301 158 107 94 
108 745 272 107 115 126 
253 130 237 129 109 100 
210 501 344 143 149 161 
202 430 311 50 69 87 
142 311 246 110 111 115 
146 665 245 127 132 152 
372 688 326 136 168 200 
277 366 315 45 63 82 
85 649 269 160 111 93 
207 358 204 119 124 131 
160 427 338 92 107 124 
115 652 320 152 107 100 
243 258 268 57 75 93 
290 482 333 146 159 181 
350 617 327 120 94 68 
93 513 270 105 121 139 
88 419 307 69 102 126 
255 130 238 136 112 100 
189 842 293 134 99 75 
258 158 203 146 66 0 
73 739 208 163 175 223 
252 133 232 114 102 96 
292 571 314 103 92 84 
223 841 238 201 147 111 
145 318 331 140 62 18 
175 452 188 142 151 184 
282 203 284 122 34 26 
175 543 190 69 99 125 
264 459 326 35 51 81 
122 463 228 116 128 145 
362 630 334 99 115 134 
287 264 282 117 117 123 
232 859 284 160 115 86 
147 349 228 134 135 140 
120 462 231 126 137 153 
256 195 207 72 42 53 
314 685 309 137 74 91 
295 571 315 99 90 84 
101 432 334 106 99 114 
93 367 323 118 39 79 
355 17 210 93 79 64 
306 281 304 111 122 137 
56 738 235 56 80 178 
201 479 331 66 101 146 
215 428 201 188 184 189 
150 555 243 106 105 107 
156 635 187 74 109 184 
154 569 182 108 123 141 
163 285 328 150 136 139 
241 129 243 80 104 126 
215 134 294 132 77 75 
188 239 316 55 68 77 
246 347 214 153 114 82 
189 735 204 109 19 31 
241 131 241 92 99 111 
207 686 367 170 136 108 
408 659 281 99 123 150 
234 454 323 111 118 131 
122 335 332 122 68 83 
332 176 221 56 92 123 
221 517 354 113 133 161 
243 128 243 69 97 123 
241 686 353 124 118 134 
271 533 341 46 51 72 
239 842 264 193 140 110 
195 369 282 77 97 118 
244 946 285 139 109 77 
382 733 287 116 39 51 
79 472 286 148 150 160 
146 363 342 91 100 116 
242 130 242 93 106 121 
371 651 338 86 105 159 
128 301 246 165 70 1 
299 117 307 109 95 84 
231 814 227 187 134 95 
305 457 332 115 144 194 
144 558 209 85 106 128 
317 185 314 64 52 52 
158 914 265 98 76 60 
226 387 299 90 105 123 
408 680 312 208 216 233 
114 492 360 182 154 127 
96 683 214 64 78 94 
164 133 284 85 66 47 
30 685 224 128 141 168 
155 747 330 128 140 164 
289 445 284 112 129 164 
165 357 215 139 114 94 
150 769 302 133 130 133 
129 634 339 120 136 174 
182 298 249 100 112 126 
304 636 230 110 121 137 
246 129 241 121 113 114 
266 226 203 151 84 51 
142 80 283 97 83 69 
215 398 296 39 60 81 
161 431 335 78 88 117 
246 129 242 122 115 117 
317 616 242 85 103 122 
247 128 243 129 119 118 
183 889 246 100 82 66 
133 665 221 69 92 121 
126 668 305 152 102 95 
270 574 277 75 77 81 
221 789 217 142 126 113 
43 688 241 85 91 114 
328 740 244 142 122 105 
146 565 250 97 96 100 
320 130 202 123 97 65 
141 258 317 36 47 66 
81 531 320 116 121 137 
81 477 324 154 143 136 
222 951 333 93 73 54 
80 397 286 126 57 79 
297 731 331 186 161 140 
311 611 339 52 78 99 
320 185 294 128 40 70 
350 111 204 154 123 92 
312 208 207 156 111 114 
242 791 218 94 68 65 
234 356 207 123 70 76 
296 296 290 105 88 99 
251 128 243 146 119 106 
268 549 339 65 95 127 
264 335 298 81 95 109 
212 117 288 136 111 93 
256 325 230 82 122 155 
297 601 254 68 101 129 
335 753 304 149 136 129 
182 289 321 85 92 102 
171 655 351 96 142 178 
309 349 319 120 116 117 
143 678 329 189 139 132 
156 654 194 110 128 149 
325 790 256 178 163 155 
306 274 317 61 99 127 
126 588 248 91 104 120 
269 408 240 37 66 96 
304 264 313 65 97 124 
216 609 360 186 176 175 
303 334 298 182 143 108 
291 792 294 192 141 108 
311 212 206 144 118 119 
89 473 333 129 69 37 
348 766 266 189 172 159 
137 718 193 68 49 50 
127 434 354 164 141 116 
299 572 317 95 87 82 
226 160 223 141 142 146 
226 161 223 136 122 117 
264 755 333 215 160 130 
343 37 213 121 114 110 
262 563 257 118 121 128 
226 162 223 128 79 64 
143 718 196 95 103 112 
92 638 174 170 168 174 
343 36 213 122 114 110 
367 736 270 170 33 45 
224 953 268 92 65 54 
108 730 197 181 175 196 
147 690 268 77 88 123 
243 392 208 66 123 175 
142 654 252 146 152 166 
173 245 328 133 41 25 
342 127 229 126 98 71 
298 180 197 87 47 58 
233 444 321 146 145 151 
271 566 315 73 97 120 
130 738 286 113 84 92 
187 789 219 175 159 147 
324 194 322 82 93 106 
172 897 344 91 66 67 
367 56 232 118 92 67 
291 787 228 115 113 115 
228 161 221 145 134 129 
76 485 306 117 143 171 
320 155 275 78 64 73 
310 153 304 94 55 28 
92 286 274 132 74 13 
97 297 311 92 60 72 
272 252 274 121 119 122 
274 236 275 60 82 102 
330 279 337 154 157 167 
193 965 335 111 91 74 
209 347 280 80 93 109 
196 153 319 55 63 76 
246 516 337 42 63 81 
304 290 328 62 74 92 
367 683 255 166 173 188 
272 427 318 42 62 83 
231 163 220 140 77 65 
176 484 337 129 131 139 
63 691 235 123 124 131 
248 512 232 124 132 146 
186 211 294 108 17 61 
202 525 191 120 132 150 
203 177 281 109 107 111 
282 253 204 83 84 109 
139 174 297 113 90 64 
118 608 347 127 149 206 
275 517 338 69 85 102 
212 19 327 112 86 59 
209 588 362 164 170 184 
164 626 352 49 65 97 
231 164 221 123 47 44 
170 521 352 137 143 155 
281 803 287 189 134 102 
134 729 267 91 108 126 
230 165 222 102 51 57 
169 310 289 111 93 76 
140 136 256 124 97 63 
291 374 298 148 125 102 
393 708 309 136 170 204 
358 654 245 133 145 163 
319 196 207 149 120 107 
284 473 314 146 156 174 
234 485 203 139 139 143 
349 660 333 78 104 150 
35 676 241 95 127 180 
224 839 237 204 149 110 
246 404 313 86 96 110 
213 777 317 213 159 134 
325 136 270 159 82 7 
265 573 263 103 115 130 
166 313 311 100 81 84 
250 614 266 60 61 64 
284 313 231 87 137 178 
253 467 333 71 94 121 
179 683 361 129 150 174 
175 287 254 146 145 150 
73 628 267 78 119 152 
160 929 334 134 106 86 
318 203 243 113 42 58 
192 644 362 47 75 99 
96 377 308 50 88 120 
38 704 228 114 142 184 
111 524 236 74 106 142 
282 279 212 198 189 193 
171 299 250 87 111 133 
175 549 185 103 115 128 
249 335 218 143 116 87 
113 323 250 162 155 154 
235 162 213 132 132 136 
147 636 183 92 129 195 
111 634 174 137 163 193 
100 632 174 166 166 173 
206 690 366 173 56 68 
201 185 317 112 37 46 
275 680 347 160 63 23 
130 389 342 141 143 152 
281 469 259 54 96 148 
82 621 184 107 110 115 
231 330 282 86 90 97 
340 89 195 132 106 78 
239 161 211 149 108 89 
249 338 296 124 121 123 
25 674 206 78 47 119 
71 730 202 57 98 201 
154 723 344 183 32 53 
398 708 302 146 155 212 
93 567 306 64 74 123 
186 382 298 61 79 97 
145 809 269 90 83 89 
242 670 357 149 72 53 
390 19 210 138 126 119 
227 979 288 121 93 70 
65 673 180 73 119 158 
176 693 361 113 142 169 
348 636 244 131 136 145 
108 266 322 133 60 16 
130 794 282 196 177 165 
227 512 186 73 97 120 
85 433 307 131 138 150 
132 774 297 144 124 125 
236 451 323 90 102 123 
134 660 289 111 77 76 
296 151 202 145 127 112 
257 320 229 112 149 180 
242 776 213 137 104 67 
299 774 305 163 116 89 
47 659 252 112 118 164 
302 734 326 174 150 127 
371 49 231 121 96 71 
210 218 269 123 65 24 
265 789 217 131 112 94 
263 422 224 162 177 216 
229 665 361 182 129 57 
106 345 324 104 63 57 
287 460 312 115 129 156 
190 487 330 124 134 147 
195 510 185 155 157 176 
238 164 212 141 137 138 
298 353 280 129 110 123 
320 217 289 62 72 98 
311 413 345 128 137 166 
263 387 320 66 84 117 
270 165 277 95 42 39 
156 547 235 85 93 106 
344 603 282 83 97 112 
219 772 209 164 137 111 
245 796 302 212 146 124 
180 191 306 86 34 25 
215 849 304 140 95 66 
264 391 222 51 91 123 
335 756 304 161 141 124 
157 448 356 134 120 109 
311 141 298 89 41 18 
165 962 293 94 69 50 
149 395 210 91 105 122 
167 280 300 74 92 118 
302 131 217 105 91 79 
256 793 218 125 95 73 
325 83 193 156 120 91 
91 522 277 135 138 148 
189 522 354 154 156 163 
216 181 268 115 85 78 
341 699 315 48 55 99 
244 900 292 181 124 96 
61 729 204 207 210 223 
327 645 234 42 76 109 
312 175 309 63 58 62 
292 612 344 61 90 115 
198 759 205 134 102 61 
160 391 343 134 138 148 
221 669 199 153 154 161 
233 165 219 129 47 50 
165 361 293 122 118 120 
100 596 303 117 125 151 
276 432 249 57 89 128 
200 515 193 89 99 169 
234 164 216 141 90 82 
352 612 306 92 83 77 
255 820 276 206 144 118 
126 265 241 159 67 86 
88 677 216 43 65 87 
319 227 328 90 33 49 
150 929 301 80 68 60 
374 645 336 105 128 155 
106 722 192 156 182 220 
281 501 278 96 128 171 
235 167 216 124 42 38 
263 146 208 117 111 107 
294 713 222 125 133 153 
319 775 248 198 164 127 
323 276 339 93 121 148 
81 461 314 150 156 167 
232 165 220 116 40 51 
176 334 228 115 102 91 
295 661 220 108 118 136 
155 302 253 135 129 128 
306 596 323 126 87 70 
235 907 269 69 55 44 
303 185 332 91 40 36 
154 369 340 103 130 156 
348 123 221 140 105 80 
317 60 207 97 92 90 
302 236 330 100 108 120 
122 600 254 104 120 139 
290 778 227 112 91 71 
375 49 206 129 106 81 
43 706 199 128 129 190 
135 153 292 108 89 68 
165 344 335 97 84 98 
221 699 200 148 160 187 
199 817 290 182 130 107 
317 658 228 56 101 142 
273 802 286 216 155 122 
349 95 196 139 110 81 
263 565 255 105 111 121 
163 375 207 116 120 129 
324 302 343 149 149 155 
274 789 220 114 115 120 
