ply
format ascii 1.0
comment Created by CloudCompare v2.11.1 (Anoia)
comment Created 2/28/22 9:44 PM
obj_info Generated by CloudCompare!
element vertex 2022
property float x
property float y
property float z
property uchar red
property uchar green
property uchar blue
end_header
126 633 339 179 185 201 
296 288 344 94 117 140 
268 385 241 117 93 73 
202 427 189 92 113 155 
250 317 227 98 48 68 
303 263 243 91 101 121 
89 740 207 164 168 185 
290 218 197 152 78 83 
227 128 267 95 72 59 
234 448 217 95 119 155 
199 10 309 114 103 96 
318 220 327 116 19 52 
360 626 292 86 104 122 
337 644 244 72 102 147 
300 779 233 127 116 110 
290 185 296 95 34 47 
300 313 299 168 129 76 
327 124 199 128 100 66 
209 983 296 105 75 53 
237 349 298 36 72 106 
215 604 229 162 159 165 
383 711 279 164 174 190 
338 607 327 126 100 72 
108 524 237 84 112 140 
211 628 361 49 65 84 
294 194 195 133 99 96 
169 147 265 90 74 61 
297 716 226 161 75 77 
179 60 305 123 93 70 
120 766 289 131 78 84 
165 509 190 84 113 173 
301 269 277 152 151 157 
129 262 315 53 26 30 
278 136 214 116 85 76 
84 526 285 132 139 151 
42 663 257 81 100 147 
296 435 349 143 157 175 
123 508 364 159 141 124 
113 297 247 158 79 40 
299 367 301 176 147 116 
312 115 217 113 91 68 
125 793 232 183 146 114 
152 914 313 90 72 57 
270 469 360 123 137 158 
131 292 319 60 36 33 
320 366 334 198 169 141 
223 773 211 223 190 177 
192 832 233 187 137 101 
182 882 342 174 132 114 
99 245 340 133 103 74 
99 245 341 135 100 67 
276 611 325 69 73 81 
315 227 275 149 76 101 
105 269 245 118 99 85 
254 524 362 107 129 156 
149 753 206 71 93 120 
99 247 341 144 83 30 
81 358 273 108 81 97 
80 332 249 92 108 139 
262 559 346 105 137 175 
349 52 228 89 75 61 
300 305 298 163 121 67 
133 428 239 83 99 117 
324 730 302 98 82 81 
68 735 211 200 201 238 
254 118 267 130 79 43 
164 949 322 95 75 61 
125 258 324 51 71 89 
160 872 300 144 110 82 
92 479 261 64 98 138 
294 449 331 76 101 165 
101 449 351 136 110 81 
83 509 281 82 108 134 
86 296 299 91 107 123 
80 350 267 104 93 105 
318 332 343 138 54 81 
253 133 266 31 65 101 
318 324 308 209 177 143 
100 247 341 151 80 13 
137 809 252 228 187 145 
254 441 326 102 110 124 
164 258 314 91 97 107 
196 561 364 113 137 166 
78 375 293 129 110 106 
87 414 314 73 117 154 
203 600 365 122 140 162 
265 436 337 48 64 90 
243 256 233 130 128 131 
104 324 249 162 156 158 
134 124 268 95 80 64 
310 416 339 125 95 131 
269 801 219 184 126 86 
237 271 234 69 89 108 
313 197 268 81 46 78 
78 750 261 150 166 186 
395 701 294 56 89 154 
97 250 336 138 93 45 
389 30 220 213 181 175 
239 110 256 204 82 17 
183 845 330 141 111 88 
297 265 340 112 122 136 
365 42 193 135 110 86 
251 124 267 112 53 33 
98 249 339 147 77 9 
76 438 301 150 151 158 
261 625 238 108 123 142 
138 678 298 58 68 99 
148 497 361 80 91 118 
116 673 187 50 99 145 
196 556 363 112 122 159 
141 103 290 115 95 74 
255 336 229 74 95 115 
99 249 340 154 62 9 
200 590 365 103 132 165 
92 335 312 112 32 54 
299 287 256 124 112 115 
348 26 221 95 93 96 
153 324 308 134 49 85 
134 511 367 137 101 102 
260 386 314 74 93 118 
270 538 308 174 165 162 
174 902 348 114 96 79 
271 464 253 69 76 142 
394 647 278 110 129 150 
243 681 357 137 105 103 
140 652 196 103 121 140 
174 663 347 44 51 105 
131 575 258 97 94 94 
230 101 260 173 156 144 
139 508 201 105 122 155 
173 942 254 111 82 52 
188 126 273 166 120 94 
255 586 352 191 137 136 
316 249 302 104 80 93 
228 748 334 145 144 149 
312 202 245 109 38 56 
186 816 228 217 152 112 
260 756 215 177 157 141 
298 586 327 139 97 81 
101 248 341 161 72 12 
219 258 234 97 80 93 
140 524 369 161 166 179 
221 442 324 122 123 129 
211 536 194 113 134 156 
171 147 282 92 80 74 
337 148 210 150 133 118 
73 633 275 87 79 112 
180 739 202 196 113 53 
181 621 357 199 192 196 
111 618 337 141 166 211 
156 733 340 131 59 67 
230 846 273 156 111 83 
177 581 194 123 92 97 
160 107 268 94 76 55 
298 267 269 151 151 157 
212 256 241 83 108 132 
103 250 342 158 74 9 
326 668 240 54 67 131 
198 253 273 112 121 134 
101 773 277 105 37 91 
153 305 314 115 92 85 
227 430 203 67 101 155 
114 357 328 124 125 134 
314 172 199 158 68 6 
281 775 306 199 136 107 
44 650 187 98 121 141 
265 505 240 90 112 134 
207 26 319 152 113 92 
271 303 220 106 63 69 
108 435 347 106 78 86 
325 784 257 168 170 178 
114 382 249 141 140 144 
144 685 301 33 45 102 
230 928 323 114 86 71 
346 749 261 106 127 149 
311 408 326 149 132 115 
309 332 351 197 166 133 
317 239 286 114 77 74 
85 321 296 49 68 90 
197 991 298 131 93 60 
98 430 343 139 15 61 
279 472 290 117 132 152 
85 344 255 148 66 69 
249 494 220 76 97 119 
73 485 309 115 141 167 
234 803 294 204 138 119 
249 100 267 134 116 102 
272 513 312 110 127 154 
213 583 364 111 133 161 
81 675 222 71 83 97 
262 581 276 71 83 94 
298 587 292 70 65 65 
249 195 265 88 47 46 
220 303 214 118 122 128 
93 352 309 138 79 63 
298 433 348 140 155 176 
151 346 318 93 106 122 
352 110 224 135 104 80 
213 114 275 151 74 10 
394 649 284 120 134 152 
297 248 299 98 111 127 
241 402 314 79 92 110 
85 329 269 114 86 108 
305 580 328 143 112 89 
107 242 340 139 63 4 
156 952 283 96 78 68 
313 178 283 140 53 68 
270 563 310 65 73 82 
219 516 358 89 110 146 
81 725 201 174 180 212 
298 303 260 162 156 156 
96 638 182 187 185 191 
90 453 336 143 13 61 
320 141 259 122 131 142 
354 637 251 138 144 162 
210 16 305 118 106 99 
286 406 271 163 142 123 
157 286 340 153 150 154 
194 250 275 98 106 118 
81 757 262 158 172 193 
366 16 201 154 128 102 
111 422 344 104 102 103 
141 681 296 33 43 85 
99 411 330 100 114 131 
218 969 292 83 63 44 
156 917 261 100 75 65 
136 664 191 61 90 118 
148 178 293 52 41 30 
281 130 224 125 98 88 
112 500 235 137 138 144 
269 225 274 64 92 115 
158 89 303 129 105 82 
281 574 306 104 100 98 
194 852 337 152 89 91 
116 720 196 108 121 136 
106 244 340 141 69 5 
180 360 206 159 132 102 
79 350 289 109 86 92 
295 189 315 83 35 48 
115 378 249 150 145 147 
203 516 196 81 95 135 
225 919 244 67 51 39 
87 520 275 53 80 127 
236 882 287 99 63 35 
253 640 364 92 65 49 
216 181 268 108 98 98 
264 405 241 34 65 91 
256 387 235 100 107 118 
89 463 267 99 115 136 
296 767 310 130 90 66 
282 445 275 129 141 162 
374 632 282 41 88 127 
232 846 258 197 148 117 
93 308 301 43 63 93 
195 648 207 80 106 132 
90 331 298 108 41 60 
106 521 363 185 78 12 
353 105 203 140 110 76 
289 722 335 144 131 121 
179 706 361 109 109 127 
219 940 249 97 69 47 
107 405 344 146 149 158 
59 742 234 22 64 173 
311 395 346 148 127 106 
312 126 203 111 91 68 
259 111 270 142 72 8 
283 155 282 84 38 52 
210 825 284 167 119 91 
154 120 260 89 71 50 
121 400 340 119 123 132 
214 613 231 136 134 139 
118 551 365 157 140 125 
276 417 253 55 80 115 
71 490 300 120 141 164 
107 251 338 145 63 9 
208 677 366 80 107 130 
279 191 280 94 39 33 
284 303 231 90 141 182 
214 145 271 94 95 102 
305 233 266 136 63 89 
278 486 290 106 129 159 
179 519 192 105 125 194 
104 250 341 152 65 7 
263 454 244 114 126 151 
309 652 316 102 131 158 
126 499 211 96 118 143 
84 301 242 197 91 20 
65 743 247 66 104 166 
397 651 284 89 114 141 
115 775 288 110 101 97 
109 742 205 196 94 110 
199 990 258 193 160 128 
290 640 228 84 105 127 
86 577 338 131 143 173 
161 976 273 129 96 67 
118 652 217 75 97 120 
294 201 319 69 31 29 
318 218 231 132 51 82 
196 578 207 175 172 179 
342 675 319 124 153 182 
168 422 336 46 72 95 
256 509 220 96 111 128 
203 900 348 109 89 68 
34 690 248 87 116 170 
236 593 248 82 102 121 
371 631 312 117 96 74 
297 351 353 141 110 82 
159 303 300 91 108 129 
296 387 324 123 115 118 
106 255 338 122 91 81 
264 714 211 189 57 61 
332 134 202 132 104 71 
37 711 207 203 195 196 
105 616 284 69 83 96 
191 350 200 132 83 90 
135 649 265 90 102 150 
159 236 329 95 39 29 
99 698 192 140 57 69 
298 627 343 99 112 151 
217 745 332 135 125 121 
87 495 343 148 23 68 
105 254 340 152 67 9 
370 79 219 129 102 72 
105 255 340 149 68 19 
147 375 327 70 78 103 
257 813 277 196 133 111 
182 324 282 81 98 116 
76 304 249 162 73 1 
171 216 317 29 42 67 
230 807 223 169 124 85 
195 755 205 93 76 60 
204 288 273 74 104 129 
150 574 363 92 123 181 
351 80 196 140 117 94 
172 664 362 117 130 147 
79 726 203 126 142 201 
250 500 355 115 126 144 
25 649 218 73 79 87 
151 627 195 142 165 195 
266 304 283 101 56 71 
268 606 330 76 56 43 
185 993 279 113 87 55 
175 881 256 77 61 49 
139 657 279 122 134 152 
315 155 270 68 85 110 
224 920 336 167 128 101 
241 124 266 79 73 86 
209 611 360 183 174 174 
244 501 340 74 88 108 
102 261 315 116 91 57 
118 270 328 106 88 107 
308 236 215 145 98 110 
153 321 345 102 102 116 
101 655 189 173 173 190 
162 273 319 87 98 111 
403 657 280 86 112 137 
95 497 261 69 95 122 
176 779 214 135 103 72 
319 277 303 89 121 149 
185 871 347 158 118 100 
180 499 187 130 140 165 
264 553 351 73 113 149 
246 362 207 116 114 114 
176 636 216 72 69 91 
268 507 248 125 136 151 
110 578 195 82 99 116 
138 551 224 59 72 96 
93 325 300 57 50 82 
199 11 315 107 96 90 
116 224 321 125 58 6 
244 814 282 195 135 110 
247 627 239 42 67 89 
212 223 268 76 75 76 
152 416 221 73 91 109 
261 499 361 66 86 134 
201 337 199 94 97 106 
181 383 306 78 92 108 
268 512 240 107 120 142 
103 743 207 143 109 138 
263 125 241 177 101 82 
230 484 342 113 129 149 
185 164 287 137 80 79 
111 650 252 71 86 112 
143 97 294 116 95 74 
196 410 187 27 80 129 
149 590 187 118 153 204 
186 566 188 188 187 198 
191 663 367 155 166 184 
218 397 192 83 116 155 
255 895 312 130 105 83 
204 841 313 134 92 61 
168 241 318 113 62 80 
163 899 336 142 117 91 
171 172 279 102 74 70 
294 362 298 123 29 50 
149 339 315 105 92 111 
274 641 351 75 87 99 
344 772 272 173 141 108 
213 882 338 179 131 107 
267 656 352 180 151 120 
119 228 321 129 58 3 
118 228 322 128 57 3 
355 62 193 150 123 100 
110 592 355 69 105 185 
340 89 195 132 107 78 
168 221 322 70 41 40 
245 487 219 59 86 110 
328 757 251 27 23 26 
169 155 272 81 72 62 
320 186 239 148 53 56 
181 849 245 168 129 96 
143 389 356 150 154 163 
114 744 275 93 105 119 
337 84 194 133 108 80 
260 366 234 106 111 120 
228 832 234 215 158 120 
296 239 306 115 117 125 
127 660 227 41 70 110 
277 264 277 109 110 116 
321 313 328 190 163 135 
144 909 284 111 93 74 
393 697 288 114 125 173 
94 280 256 137 104 86 
332 778 294 128 128 135 
145 604 359 113 132 166 
288 401 324 128 113 109 
146 726 324 169 20 34 
246 771 213 186 159 132 
165 51 309 112 89 67 
293 342 283 167 139 107 
307 294 344 143 150 162 
332 76 221 88 74 61 
269 506 271 96 115 135 
97 298 252 90 57 49 
222 525 197 145 154 200 
187 954 254 70 54 41 
225 669 362 207 149 61 
230 293 216 128 127 130 
275 809 228 209 153 118 
296 241 315 87 103 120 
314 162 316 70 59 65 
169 169 312 112 63 66 
85 496 274 62 89 128 
198 636 222 81 92 110 
382 644 281 83 106 130 
270 600 334 129 88 77 
269 544 354 134 167 203 
298 301 347 86 125 157 
112 329 250 166 158 158 
289 414 321 144 127 117 
377 12 242 134 120 112 
105 531 254 64 85 120 
231 589 240 115 134 157 
197 342 199 120 76 81 
379 703 320 181 193 212 
128 432 242 82 98 118 
186 777 212 217 178 130 
251 576 353 74 92 134 
223 694 352 185 102 36 
271 725 215 100 34 37 
197 724 351 205 181 162 
40 720 230 129 153 216 
141 803 270 197 177 162 
293 365 276 202 172 142 
60 736 245 59 107 165 
220 967 297 82 58 41 
89 399 314 95 71 76 
201 679 367 165 147 132 
69 669 187 80 119 150 
191 21 329 160 122 102 
384 29 208 183 154 135 
109 571 264 111 111 120 
296 263 296 108 122 138 
132 516 208 132 146 167 
122 256 326 62 66 84 
169 746 202 117 104 95 
116 239 324 92 103 114 
279 496 356 87 115 166 
118 739 272 94 108 124 
255 442 233 87 108 138 
269 808 224 207 150 113 
155 303 341 120 132 148 
295 310 269 141 136 138 
164 96 301 126 98 73 
329 763 253 151 134 120 
252 305 282 119 94 65 
232 611 250 83 83 87 
224 526 198 149 153 196 
217 885 245 86 67 50 
304 589 277 87 95 109 
173 148 304 83 85 93 
147 73 291 107 91 75 
244 297 224 73 87 101 
201 366 194 146 144 147 
202 187 273 141 107 79 
260 325 293 106 74 78 
320 59 210 77 68 60 
254 490 356 65 90 133 
132 143 259 101 85 68 
303 758 235 154 140 131 
61 636 184 78 111 140 
142 493 366 128 146 168 
276 516 300 99 117 159 
276 405 329 79 85 105 
347 628 248 87 114 146 
95 334 306 139 40 71 
287 380 354 73 93 138 
293 621 235 88 104 124 
126 663 334 193 137 133 
338 81 193 137 112 87 
234 354 299 49 86 115 
101 778 223 174 34 63 
33 686 191 217 207 210 
224 868 266 132 98 76 
122 229 321 119 81 64 
167 543 365 198 195 201 
233 502 201 61 93 118 
291 333 350 120 123 132 
94 545 276 140 135 137 
316 396 333 147 125 108 
72 671 186 102 60 76 
95 728 264 83 94 117 
156 538 201 60 93 121 
159 813 242 134 140 152 
123 231 321 116 107 110 
316 616 349 134 153 188 
159 663 338 122 131 144 
236 526 203 209 204 214 
178 356 297 60 78 98 
214 776 213 145 136 132 
37 713 239 67 109 176 
172 598 198 102 146 185 
180 874 246 78 61 47 
267 490 261 81 103 130 
121 233 322 119 115 118 
317 342 311 216 184 148 
357 83 201 143 118 93 
84 752 220 164 180 202 
216 987 268 106 79 69 
229 276 224 106 118 133 
215 978 293 108 82 55 
149 254 316 66 25 27 
302 255 259 92 123 154 
109 510 243 32 68 115 
174 572 187 202 197 205 
177 398 195 75 101 126 
145 271 327 98 48 63 
183 650 362 114 119 128 
65 698 245 85 97 132 
205 491 190 95 113 144 
260 385 230 79 94 112 
327 89 220 65 54 42 
248 337 297 79 88 99 
287 791 227 152 113 74 
102 773 279 127 31 56 
319 376 332 198 160 118 
317 252 313 81 118 149 
383 654 290 56 82 105 
194 569 364 116 130 158 
270 346 236 196 188 191 
277 498 279 117 129 167 
274 255 276 87 90 97 
240 224 264 115 111 112 
166 506 346 132 132 137 
291 693 338 160 127 123 
158 876 311 151 112 85 
293 417 359 145 160 185 
122 237 322 49 77 99 
355 621 329 123 98 70 
180 532 192 79 102 124 
246 289 224 106 117 133 
151 550 367 129 138 164 
337 734 252 172 140 103 
83 522 283 76 95 131 
311 621 343 117 124 174 
123 239 322 71 71 82 
220 307 212 105 115 127 
159 878 319 152 110 85 
385 14 218 135 121 114 
232 843 269 134 89 59 
339 598 318 118 98 77 
39 710 243 59 55 140 
193 974 311 99 77 54 
134 559 230 68 81 95 
188 785 216 117 95 82 
290 585 299 79 73 70 
195 621 229 61 59 61 
197 933 243 97 76 52 
221 922 340 176 135 108 
296 272 266 165 158 159 
267 133 220 110 79 77 
216 703 198 144 163 191 
98 270 331 131 122 115 
165 101 298 124 97 75 
270 513 248 106 125 147 
135 133 289 103 86 68 
295 409 359 135 153 176 
231 873 291 146 107 78 
300 373 315 72 95 121 
300 602 247 70 99 125 
102 554 265 19 51 97 
170 865 332 152 118 91 
116 704 239 66 85 111 
230 422 203 70 103 153 
308 249 239 149 34 79 
207 561 196 137 157 187 
339 83 194 137 112 88 
115 358 331 77 71 87 
188 552 369 45 73 141 
336 673 314 123 149 177 
294 404 305 122 60 24 
221 511 190 126 141 209 
112 245 325 63 67 76 
263 384 223 96 117 141 
309 704 306 94 36 53 
258 763 324 212 150 121 
155 775 214 117 108 107 
285 368 254 181 144 93 
23 663 191 83 132 173 
287 388 265 150 114 92 
187 13 327 118 102 92 
122 633 185 122 148 185 
173 387 311 43 69 91 
213 531 361 105 127 157 
169 266 289 72 102 128 
145 908 291 78 56 40 
291 336 259 98 129 166 
234 623 359 48 36 40 
263 758 326 210 152 120 
244 325 213 110 121 135 
254 313 224 99 125 161 
208 568 367 129 157 188 
291 197 304 116 25 22 
246 133 265 46 82 110 
292 124 275 142 111 90 
252 446 332 95 106 123 
101 561 271 114 127 144 
318 188 240 148 38 43 
40 663 257 130 145 183 
118 241 325 51 63 78 
124 647 261 116 124 144 
89 371 300 112 104 115 
409 661 298 39 74 99 
184 415 315 87 105 130 
310 302 295 198 165 129 
85 314 246 143 135 142 
133 580 185 179 176 183 
268 209 275 112 34 61 
183 222 280 95 106 120 
280 226 283 63 95 120 
212 194 268 110 94 99 
100 592 295 149 144 146 
116 247 325 92 64 60 
387 661 330 117 132 171 
236 264 267 61 68 76 
260 800 217 166 119 79 
135 117 276 101 84 66 
301 142 202 103 89 75 
292 285 287 139 114 86 
87 335 275 119 83 95 
252 414 318 76 90 109 
282 750 328 156 143 136 
116 592 255 87 101 119 
96 545 361 181 63 14 
154 733 200 133 33 28 
97 585 294 80 90 110 
260 447 240 113 127 152 
107 587 276 123 119 122 
91 431 331 81 105 128 
354 650 334 60 64 117 
17 667 218 73 126 166 
175 167 309 120 53 49 
217 250 268 127 125 127 
114 275 243 146 43 74 
357 704 316 127 100 117 
88 559 299 57 82 134 
89 307 298 95 67 58 
127 719 196 159 193 229 
245 498 213 77 95 116 
144 493 363 102 111 138 
300 279 281 111 122 137 
58 673 186 82 133 173 
259 243 269 121 120 123 
185 166 285 123 79 70 
259 762 215 147 129 115 
169 105 281 86 68 49 
313 714 235 124 130 141 
170 820 264 186 136 111 
113 254 326 96 70 56 
315 301 342 153 146 145 
232 138 265 53 78 99 
151 478 357 106 114 128 
192 993 276 124 95 66 
151 129 297 116 90 64 
291 207 302 95 26 45 
277 763 220 163 140 119 
310 207 264 40 75 110 
115 255 326 115 93 83 
254 311 224 103 129 162 
341 600 313 104 90 78 
93 448 342 166 139 113 
276 497 303 123 126 154 
117 248 326 100 75 58 
194 34 305 141 125 115 
251 894 298 145 108 81 
156 464 191 40 83 128 
117 250 326 108 85 74 
405 659 304 46 73 98 
75 524 318 186 152 111 
305 235 268 83 115 139 
102 560 261 76 100 143 
152 365 229 149 147 152 
185 144 263 134 106 92 
179 687 365 150 178 209 
360 653 339 85 119 175 
215 418 311 49 68 84 
119 251 326 106 77 64 
82 462 332 134 0 52 
264 571 272 93 96 101 
247 99 266 139 119 105 
188 612 210 106 148 183 
161 285 235 114 121 131 
224 634 228 75 101 133 
251 496 354 87 105 133 
119 296 246 164 64 3 
268 568 321 58 68 78 
235 588 356 151 151 163 
146 695 312 103 114 128 
340 697 312 50 58 96 
180 983 252 115 78 55 
253 900 310 137 105 81 
307 609 243 86 104 122 
143 503 366 121 136 160 
140 571 247 93 91 93 
118 438 248 92 107 125 
174 837 262 174 128 101 
70 696 247 102 109 123 
310 424 338 65 95 157 
187 125 291 118 104 97 
260 378 218 141 148 160 
242 485 217 77 98 121 
288 712 339 156 113 92 
171 589 366 191 200 216 
331 679 308 103 127 152 
169 565 365 87 113 158 
95 638 291 168 117 100 
156 587 188 93 159 212 
308 682 229 139 143 154 
210 698 196 146 160 193 
85 483 271 79 108 140 
120 242 324 76 56 65 
120 243 324 92 66 64 
67 653 266 160 110 89 
242 525 352 41 68 102 
298 275 322 61 96 124 
197 993 262 145 115 80 
114 799 259 170 154 137 
261 795 295 209 146 123 
154 458 352 90 100 115 
182 810 226 213 146 110 
112 648 274 105 111 142 
123 247 323 92 65 50 
308 627 235 95 113 133 
61 623 195 98 101 107 
257 373 228 93 99 108 
387 29 217 232 201 201 
269 556 311 97 112 130 
310 367 352 179 74 7 
231 871 293 151 111 81 
223 943 254 96 64 41 
265 491 257 128 134 147 
166 145 260 99 76 57 
159 125 263 98 77 50 
216 453 202 99 115 136 
272 518 283 146 150 159 
301 307 304 155 114 66 
196 397 319 135 143 156 
274 454 246 121 148 193 
275 771 220 179 153 127 
166 965 275 68 48 34 
395 678 323 99 121 183 
80 335 293 92 87 107 
239 487 213 93 110 130 
107 627 316 141 169 197 
375 12 240 132 118 110 
171 245 284 128 125 129 
209 711 351 164 85 58 
240 607 352 105 87 86 
320 372 330 196 166 137 
80 656 246 102 74 63 
197 473 189 95 114 153 
125 243 321 89 53 39 
43 644 255 66 90 114 
162 959 297 89 70 57 
405 681 296 130 151 182 
233 257 267 64 88 109 
232 850 264 126 78 55 
103 382 252 126 132 143 
184 412 187 112 123 139 
270 633 229 93 105 119 
76 460 282 142 66 100 
190 631 361 144 142 146 
323 790 290 182 166 153 
163 358 292 94 103 116 
246 455 328 93 101 114 
83 539 298 72 93 144 
319 800 259 188 136 103 
201 839 293 124 91 63 
232 344 294 76 90 112 
271 550 306 74 97 119 
74 523 312 174 101 38 
273 350 305 65 75 87 
147 923 272 88 70 53 
124 247 323 82 54 44 
125 246 322 63 42 40 
315 198 293 145 95 72 
204 619 232 58 64 73 
151 809 266 88 106 124 
169 880 336 176 134 114 
274 799 285 209 150 115 
77 359 258 163 45 74 
233 479 330 63 68 75 
296 609 326 47 59 73 
120 248 325 115 89 76 
83 506 278 49 80 129 
359 101 217 135 107 79 
291 610 332 77 84 94 
335 774 294 157 138 122 
261 388 317 86 101 119 
205 803 225 155 117 77 
266 558 323 82 108 133 
319 250 314 80 121 154 
389 650 305 81 73 66 
90 642 284 163 112 94 
81 655 186 89 154 202 
282 455 360 100 120 178 
96 552 277 76 90 118 
257 569 255 91 103 122 
292 790 230 151 113 75 
292 401 290 156 136 118 
136 772 214 93 102 112 
164 105 298 123 93 73 
121 734 199 202 100 114 
155 144 291 80 62 45 
182 623 218 151 153 163 
272 389 245 131 97 95 
107 651 243 69 84 101 
285 666 217 136 141 155 
348 608 284 51 88 118 
261 391 319 69 89 116 
98 256 259 115 62 69 
85 298 242 159 126 97 
300 631 233 99 112 130 
279 391 252 132 116 101 
171 217 317 31 41 68 
290 397 314 126 110 111 
117 439 356 169 147 126 
273 495 329 171 175 186 
123 253 324 64 82 101 
227 837 237 216 159 124 
205 577 364 127 147 173 
164 225 307 94 41 66 
178 67 277 108 89 70 
90 585 343 117 128 176 
249 639 222 40 76 107 
122 255 326 70 71 81 
87 762 268 178 19 42 
220 467 205 92 112 134 
227 813 225 191 138 100 
263 601 264 88 110 132 
165 267 326 65 95 120 
310 187 199 164 74 82 
142 792 221 236 217 214 
73 395 275 109 58 53 
297 320 267 183 155 124 
156 357 311 99 106 121 
227 906 249 74 56 45 
256 507 357 78 99 128 
126 249 320 55 72 88 
269 541 318 165 167 175 
171 211 312 36 51 86 
122 585 361 146 158 208 
78 513 295 51 81 133 
330 778 295 152 137 131 
295 263 337 111 119 132 
174 847 322 142 114 84 
328 777 296 200 178 160 
294 371 326 78 96 119 
116 282 327 107 91 99 
105 297 246 148 146 151 
206 817 226 163 120 83 
176 441 337 71 93 130 
318 683 303 75 113 141 
298 326 320 109 58 14 
164 868 326 148 109 84 
312 209 242 61 46 69 
148 752 205 146 131 121 
103 633 302 159 106 96 
261 414 329 81 96 115 
246 914 307 84 66 57 
237 617 259 86 85 90 
242 108 256 198 89 31 
281 138 278 109 41 28 
291 609 330 79 86 95 
316 286 340 133 141 153 
126 255 321 46 63 80 
102 256 315 124 109 94 
112 308 326 82 67 80 
182 812 226 214 148 109 
120 388 335 99 101 107 
158 954 279 90 71 60 
322 771 250 176 148 118 
297 343 352 127 124 125 
152 772 300 194 174 165 
220 525 358 76 103 133 
177 306 216 120 124 132 
34 710 230 48 105 186 
182 791 298 187 137 119 
100 593 188 125 130 139 
246 199 265 96 39 59 
157 351 224 153 151 156 
293 259 292 77 98 119 
131 394 242 99 120 144 
167 724 201 104 108 115 
87 327 253 109 57 53 
266 188 271 83 27 29 
228 364 297 53 79 104 
47 631 239 100 97 98 
112 405 339 73 82 92 
230 256 267 64 83 102 
160 315 328 86 27 46 
301 407 350 126 123 165 
208 760 207 106 90 74 
178 980 298 115 88 62 
313 195 268 84 68 78 
158 283 315 95 99 108 
124 323 331 119 63 67 
294 172 196 109 92 76 
264 497 362 93 116 166 
100 762 218 189 32 56 
100 630 302 143 97 88 
89 734 205 216 206 216 
176 355 296 64 78 93 
297 288 328 60 48 67 
118 609 352 131 150 206 
139 712 284 134 144 158 
274 367 244 126 138 159 
158 27 285 120 107 96 
263 515 228 136 146 162 
196 356 286 70 87 107 
89 661 188 159 159 171 
155 412 219 92 103 117 
196 695 195 174 171 180 
296 162 302 57 41 44 
161 303 323 93 84 95 
264 635 225 60 82 101 
246 704 203 144 166 190 
86 548 296 104 114 147 
252 267 217 166 68 5 
383 31 214 163 126 110 
150 597 189 116 150 195 
294 667 222 110 119 135 
309 699 309 132 40 58 
207 24 309 148 133 125 
26 694 213 113 134 186 
288 392 278 154 95 33 
249 411 317 77 91 106 
75 387 278 123 86 92 
172 191 294 33 58 85 
309 73 200 112 84 61 
250 111 267 148 70 8 
99 428 341 143 23 64 
86 601 222 82 111 137 
101 497 253 55 88 117 
261 397 215 77 110 140 
117 680 187 159 167 184 
379 12 230 130 112 101 
153 383 228 113 128 146 
125 647 289 67 48 67 
249 260 268 107 104 105 
157 29 285 116 105 96 
304 251 252 101 78 95 
226 862 266 133 93 70 
252 596 352 140 106 88 
240 732 208 179 83 38 
351 22 211 95 79 61 
221 862 251 121 82 58 
277 692 212 100 117 146 
297 794 234 161 117 80 
219 835 279 172 120 92 
388 13 238 130 99 84 
151 774 297 155 128 106 
145 111 295 115 94 71 
97 314 329 159 54 93 
276 395 355 51 79 129 
202 823 286 163 114 90 
149 466 195 70 98 125 
155 888 303 147 109 82 
151 939 283 74 58 49 
131 770 295 152 126 127 
120 493 366 181 71 13 
169 555 184 172 168 172 
190 356 287 90 105 122 
157 15 301 109 103 101 
149 637 350 41 43 75 
269 675 210 60 96 143 
227 483 204 73 96 118 
171 785 218 200 149 90 
159 13 302 104 97 93 
370 631 257 20 48 110 
101 784 244 214 126 86 
218 761 325 181 138 115 
237 327 209 130 95 52 
111 617 338 156 178 218 
159 14 301 105 98 94 
145 560 245 81 84 91 
256 211 203 148 49 48 
101 455 257 78 100 123 
309 733 306 47 42 47 
156 15 305 108 101 97 
146 584 185 90 149 198 
157 14 305 106 99 96 
142 701 191 92 159 210 
112 559 363 114 97 78 
111 500 364 166 75 18 
167 255 321 74 85 99 
178 710 361 160 45 58 
138 673 293 28 37 67 
247 523 356 110 135 168 
299 601 247 49 90 120 
128 376 337 73 103 128 
69 621 249 55 51 57 
142 549 199 78 107 131 
250 435 324 79 91 105 
139 385 237 143 142 147 
160 943 319 122 97 81 
116 622 184 189 189 199 
317 197 297 142 94 61 
82 641 280 154 110 90 
315 587 303 103 95 89 
320 98 200 149 115 75 
248 498 216 61 86 111 
320 350 339 191 164 139 
210 588 220 155 158 168 
275 592 272 68 91 112 
91 439 262 96 115 137 
158 13 309 102 95 90 
394 707 294 176 176 205 
362 710 318 110 102 137 
193 976 250 162 120 78 
158 13 310 101 94 90 
87 545 289 152 149 152 
150 939 305 70 54 47 
71 482 301 164 164 172 
151 891 279 160 104 79 
119 686 187 192 191 204 
162 814 239 100 106 113 
53 708 241 139 140 149 
192 622 361 197 188 189 
381 674 274 119 128 165 
221 715 201 157 166 180 
162 320 336 85 97 109 
133 705 192 75 154 217 
258 828 252 233 173 141 
159 15 313 104 97 92 
159 18 291 106 95 84 
159 19 290 106 93 82 
196 920 238 63 48 37 
157 17 295 112 105 102 
28 701 214 105 121 169 
134 557 369 102 134 186 
71 441 288 103 110 123 
157 19 294 116 108 104 
313 212 210 119 119 137 
290 198 293 120 31 17 
198 962 333 101 81 65 
184 436 316 106 115 129 
125 647 196 84 114 154 
245 402 205 108 134 168 
83 436 315 145 145 151 
244 763 213 201 162 115 
200 704 196 150 120 121 
233 839 267 146 96 70 
296 820 256 238 171 139 
258 190 268 82 35 37 
158 19 292 105 95 86 
158 19 293 110 101 95 
272 445 239 120 142 201 
232 737 207 159 125 105 
222 710 346 130 89 107 
329 149 233 167 78 6 
157 440 196 86 103 122 
83 691 189 214 207 217 
184 814 281 181 133 109 
255 171 264 119 50 36 
216 366 194 97 112 128 
96 651 269 115 80 69 
121 351 334 63 86 107 
243 772 318 215 155 126 
97 315 307 49 40 67 
123 647 245 63 79 109 
131 735 291 70 94 125 
81 442 328 141 144 152 
166 873 284 145 114 87 
135 448 359 156 100 72 
120 780 219 101 114 128 
159 22 289 110 98 87 
376 12 212 127 114 104 
84 712 194 174 195 222 
114 657 328 178 127 122 
350 22 233 116 107 102 
393 658 271 93 124 180 
179 325 281 86 102 118 
146 647 346 98 130 203 
171 266 247 86 106 130 
213 797 224 147 109 67 
262 329 230 78 129 169 
15 668 206 122 127 138 
182 131 275 157 124 108 
384 656 267 163 176 205 
113 645 292 150 93 83 
245 560 361 110 139 188 
156 22 293 100 94 90 
224 384 299 79 96 114 
298 810 284 207 147 116 
243 298 223 65 79 94 
86 291 266 100 62 23 
112 682 187 193 189 196 
319 229 305 154 151 151 
217 260 237 83 100 118 
153 397 329 73 87 127 
107 773 220 148 20 35 
179 785 302 106 135 161 
169 367 214 127 97 73 
332 127 240 127 114 103 
155 23 296 87 71 56 
276 367 309 40 58 82 
101 570 359 173 129 131 
179 916 237 85 71 58 
155 23 298 100 84 67 
230 223 263 115 111 112 
124 750 286 81 22 42 
296 275 342 102 121 141 
253 777 314 212 151 120 
155 20 303 90 77 63 
155 21 302 99 82 63 
274 604 249 71 96 119 
170 421 335 49 76 103 
157 773 302 151 121 103 
122 647 291 135 92 83 
292 396 290 182 82 12 
132 792 224 194 155 118 
121 611 352 171 192 220 
350 726 312 173 107 100 
154 23 302 113 91 72 
267 789 299 212 148 121 
241 104 257 150 139 137 
356 85 200 132 109 84 
263 508 231 119 129 144 
174 450 186 71 105 150 
241 261 235 104 112 123 
148 322 310 110 76 97 
199 601 215 164 166 175 
171 929 249 84 62 41 
96 432 258 146 96 103 
114 631 184 125 155 194 
265 348 306 96 105 117 
151 724 197 153 180 210 
377 638 308 108 90 72 
298 325 321 121 84 44 
175 341 209 172 131 86 
143 330 232 86 126 158 
200 432 189 98 118 162 
220 906 242 80 63 49 
320 369 339 198 168 137 
285 755 224 106 91 77 
284 439 280 58 88 145 
117 282 328 112 82 88 
206 903 350 105 86 67 
47 728 231 143 162 218 
182 125 295 110 111 115 
124 643 194 168 181 211 
260 108 272 141 68 6 
358 642 253 115 130 156 
377 13 219 128 113 101 
257 279 215 156 137 123 
259 638 357 58 47 101 
288 689 343 144 18 40 
297 821 260 245 171 140 
195 563 190 157 175 201 
315 234 234 47 65 107 
235 524 350 137 146 162 
255 628 353 65 66 74 
230 905 323 164 121 93 
308 217 259 32 70 117 
229 579 361 174 182 202 
240 926 305 81 64 54 
117 716 196 81 125 204 
231 769 321 211 156 128 
156 18 303 106 100 97 
165 151 293 88 68 33 
159 235 304 71 54 65 
208 686 362 215 181 146 
354 640 344 113 136 183 
195 316 208 97 45 38 
238 480 335 72 85 101 
156 20 298 73 70 68 
157 722 349 79 61 115 
332 721 305 85 97 123 
340 763 261 116 103 91 
132 676 233 119 124 135 
282 390 257 171 149 128 
197 957 249 76 63 49 
261 393 320 84 100 123 
29 702 225 140 155 210 
105 641 183 178 180 190 
136 123 286 103 87 70 
339 51 216 56 47 37 
340 663 247 115 130 149 
126 650 290 94 69 69 
216 464 333 120 139 162 
169 413 197 65 92 117 
194 507 187 99 130 166 
229 571 228 159 165 184 
62 624 250 70 89 106 
113 600 284 54 70 86 
181 141 272 127 100 86 
75 663 242 97 72 60 
360 100 213 134 107 80 
291 808 238 204 146 109 
246 570 359 58 78 145 
240 552 220 153 168 191 
315 122 265 125 114 105 
244 526 207 131 143 186 
168 660 341 67 84 129 
263 155 267 86 32 38 
174 188 309 98 44 58 
169 924 247 84 66 48 
395 656 300 54 71 87 
80 540 339 184 70 6 
120 762 211 169 47 52 
333 644 243 123 138 159 
361 652 256 72 101 157 
177 175 305 126 26 59 
337 604 302 78 75 75 
257 265 211 172 74 0 
376 673 333 135 151 195 
281 345 301 76 81 91 
384 687 326 120 132 187 
266 538 245 150 166 189 
273 519 282 117 131 149 
160 358 296 125 122 125 
207 937 344 173 124 102 
270 406 325 48 55 82 
80 320 289 86 66 51 
304 244 264 79 122 158 
219 532 361 105 134 162 
290 112 289 105 87 75 
228 900 256 66 52 43 
200 570 199 156 174 198 
227 842 242 219 162 127 
113 593 244 80 102 124 
306 402 317 203 78 17 
153 483 192 98 119 150 
166 893 264 74 60 45 
163 784 218 160 131 103 
154 29 293 97 83 70 
256 311 223 162 140 132 
90 527 359 210 177 143 
275 406 339 86 91 109 
219 305 277 104 106 112 
154 29 294 101 86 71 
306 690 322 154 39 52 
154 404 328 86 98 117 
329 722 304 66 64 66 
121 404 247 140 130 124 
71 607 204 97 108 122 
276 571 313 80 74 76 
302 315 308 160 118 67 
153 259 299 120 119 124 
263 540 339 96 118 154 
389 654 267 81 106 149 
109 641 300 166 110 96 
70 754 231 29 64 116 
295 316 338 129 128 133 
278 610 242 75 94 117 
269 824 254 232 177 144 
133 677 308 150 93 93 
246 574 257 66 89 112 
320 342 340 190 163 135 
289 326 291 126 65 80 
113 562 258 68 81 108 
175 714 196 162 194 225 
339 779 272 156 146 147 
196 14 334 122 91 68 
150 813 254 190 154 130 
72 753 251 151 162 183 
131 143 261 91 79 66 
72 485 304 107 133 159 
96 463 259 56 85 111 
94 514 359 176 145 109 
108 550 248 69 89 119 
326 666 308 107 131 155 
176 994 290 140 119 101 
207 889 229 107 83 64 
139 725 284 104 117 133 
247 374 310 90 100 113 
346 765 295 195 174 159 
162 291 323 102 104 111 
155 25 296 102 86 72 
195 640 364 56 94 127 
228 885 324 166 119 91 
102 554 269 106 116 131 
134 541 370 93 121 177 
125 803 250 242 224 215 
155 25 299 116 95 78 
96 332 251 135 139 148 
293 339 352 148 154 166 
311 141 199 123 97 65 
183 37 309 124 96 73 
378 661 267 184 186 202 
154 26 298 113 93 77 
254 683 204 108 126 147 
250 454 336 114 122 134 
127 797 275 189 160 144 
118 446 358 164 143 124 
318 153 284 113 81 68 
218 105 272 154 77 6 
202 601 365 138 148 165 
317 171 241 98 71 91 
373 670 335 137 155 200 
275 488 305 159 157 163 
349 709 257 156 163 176 
299 584 300 81 75 70 
318 122 247 130 119 109 
310 664 309 103 129 156 
220 869 255 130 93 69 
146 543 213 70 85 102 
178 965 314 88 72 57 
154 26 302 126 100 87 
225 635 227 74 96 119 
248 805 288 200 138 113 
286 147 283 115 35 23 
274 519 274 99 127 159 
245 656 364 167 134 102 
133 759 210 168 18 45 
228 710 346 110 111 123 
153 30 296 100 85 71 
100 613 317 87 112 176 
325 131 290 168 82 9 
161 783 296 198 183 176 
152 31 298 102 86 71 
363 699 265 83 115 149 
245 267 227 151 63 5 
281 214 196 150 54 71 
56 690 188 161 152 170 
146 291 247 92 108 126 
167 312 285 116 112 113 
120 763 287 136 42 49 
304 372 306 215 183 149 
211 111 275 154 75 5 
227 903 252 69 52 41 
105 297 332 107 94 115 
194 597 365 77 126 165 
233 549 211 168 172 185 
273 368 311 48 63 84 
179 170 291 124 49 68 
146 414 230 64 87 109 
365 11 210 117 97 76 
254 169 264 113 50 38 
294 627 341 125 129 157 
173 856 271 149 115 88 
215 770 318 210 153 131 
143 319 345 139 143 153 
257 581 352 147 108 94 
359 615 278 134 139 149 
301 625 345 102 122 166 
213 388 191 85 110 137 
286 387 261 147 123 94 
239 382 309 96 107 122 
313 590 328 152 113 87 
238 765 325 214 158 132 
102 728 263 80 90 105 
207 784 308 221 167 147 
154 28 303 124 98 84 
269 560 313 73 94 113 
151 110 260 108 83 48 
222 942 254 110 82 63 
97 764 220 183 24 49 
248 914 315 93 69 55 
157 412 328 50 76 112 
270 115 262 199 77 15 
179 145 295 86 97 109 
155 18 307 108 100 95 
240 723 206 154 167 182 
305 393 353 128 110 93 
113 477 361 171 144 116 
143 685 267 106 118 136 
174 537 365 107 132 165 
89 388 311 111 42 76 
99 307 248 142 139 143 
176 404 322 62 87 114 
217 866 247 123 94 72 
109 488 242 79 102 125 
141 619 355 107 137 202 
283 732 338 138 102 83 
333 51 197 118 105 93 
102 414 254 167 131 82 
306 432 333 93 122 177 
202 972 249 147 118 86 
151 532 207 107 112 122 
177 277 240 121 120 122 
91 658 234 87 100 115 
217 824 281 173 119 91 
199 993 289 99 72 53 
125 397 344 120 132 149 
318 798 287 207 145 115 
125 805 259 212 188 168 
272 706 349 139 107 86 
241 543 216 128 151 177 
118 281 328 114 78 81 
214 512 190 178 184 219 
399 692 294 88 113 168 
143 461 361 164 153 150 
174 731 200 125 42 71 
278 105 283 109 98 91 
197 443 318 43 63 84 
132 373 341 69 99 127 
220 518 357 71 94 126 
182 211 281 116 19 58 
102 260 313 93 83 77 
240 504 204 81 102 123 
208 689 360 159 107 80 
64 634 270 129 141 156 
156 18 307 116 109 105 
294 123 238 154 108 92 
315 183 268 105 48 44 
320 127 201 125 99 67 
80 768 246 140 88 104 
264 265 272 81 96 112 
130 756 296 130 72 65 
167 454 347 111 126 145 
161 431 339 90 96 106 
314 652 233 46 87 141 
278 497 293 108 121 155 
133 388 352 126 140 158 
234 376 197 108 124 147 
282 364 346 99 110 125 
324 754 247 154 138 128 
255 403 316 59 79 109 
140 592 185 82 147 201 
183 291 229 130 129 131 
167 74 259 143 112 86 
172 377 302 48 73 93 
378 681 331 123 143 208 
250 588 352 96 111 146 
197 512 356 82 111 141 
166 731 348 127 32 87 
131 700 242 74 89 123 
274 135 273 80 49 43 
237 503 203 62 101 130 
332 655 242 60 95 132 
209 964 323 101 81 67 
201 287 274 80 111 137 
284 219 197 153 70 74 
128 238 306 26 47 64 
269 553 273 103 125 149 
228 881 281 122 82 60 
152 325 318 107 60 81 
54 643 185 76 114 149 
230 955 303 82 59 50 
294 329 338 95 107 123 
90 397 258 155 123 87 
194 705 361 175 45 68 
322 347 321 156 38 72 
144 577 184 190 183 185 
339 776 266 193 161 126 
289 110 291 101 88 77 
159 16 314 114 106 101 
86 526 278 101 114 138 
138 796 230 192 167 146 
175 179 312 98 29 30 
116 528 227 62 89 124 
277 443 356 69 95 138 
375 45 225 120 95 68 
193 680 193 78 120 156 
178 849 250 172 129 99 
295 636 329 108 131 155 
365 81 205 141 114 87 
211 213 268 104 109 119 
314 189 287 139 69 65 
302 676 329 48 78 126 
259 694 205 164 162 169 
139 704 281 110 119 136 
186 140 265 143 110 92 
209 190 269 121 103 105 
336 696 246 131 138 158 
159 313 302 147 107 56 
266 328 229 124 154 183 
203 539 361 111 127 148 
159 20 315 139 123 112 
352 101 229 127 100 76 
95 590 219 89 112 135 
94 598 335 145 153 197 
378 36 203 142 109 87 
75 644 183 86 153 205 
248 615 267 84 91 100 
165 167 309 79 60 66 
197 840 308 114 84 53 
343 49 219 76 66 57 
175 952 333 83 68 59 
297 309 324 126 123 125 
294 449 332 75 103 166 
148 403 355 151 156 168 
270 160 201 131 61 0 
37 650 190 78 102 130 
214 371 291 48 69 87 
75 460 310 94 127 158 
288 435 305 154 166 184 
222 665 200 129 131 139 
381 650 286 87 112 135 
228 480 206 115 123 136 
138 748 301 129 52 57 
324 650 239 56 78 128 
392 670 279 160 174 195 
155 27 306 133 102 91 
199 17 286 150 131 116 
91 475 353 195 161 125 
196 939 247 134 104 70 
382 707 317 125 168 208 
110 645 320 158 113 102 
135 455 360 155 76 43 
366 27 242 180 161 159 
145 778 292 185 163 145 
138 619 354 125 152 208 
259 604 265 65 90 111 
353 21 207 105 93 80 
244 471 232 105 112 122 
201 642 365 106 132 157 
186 793 297 189 138 122 
168 615 200 182 177 182 
291 209 311 100 18 44 
154 30 305 119 95 76 
209 614 228 160 155 157 
133 469 361 155 136 114 
165 260 325 61 93 118 
359 682 261 121 141 165 
301 299 346 81 117 148 
158 775 301 186 155 131 
171 207 318 43 39 66 
279 694 214 145 148 158 
252 625 349 45 57 89 
143 615 357 164 176 197 
83 724 201 180 181 206 
293 121 250 168 96 66 
280 392 337 86 89 109 
292 338 331 99 99 104 
197 622 362 160 157 162 
156 27 309 140 102 94 
156 889 316 156 111 87 
102 678 187 114 145 179 
103 609 298 94 107 144 
260 226 269 64 94 117 
147 678 267 62 86 138 
249 905 306 107 78 62 
85 659 238 84 97 114 
158 27 311 128 90 79 
201 743 204 73 48 89 
246 791 217 149 106 69 
267 104 272 125 110 99 
258 750 214 157 122 78 
356 706 260 142 157 175 
282 439 268 102 118 153 
90 481 349 185 154 120 
240 548 355 139 149 164 
263 634 227 51 79 103 
181 46 308 121 92 64 
181 847 245 169 130 96 
73 443 298 109 130 153 
211 726 343 150 139 136 
74 686 241 85 100 125 
233 369 197 155 154 159 
153 262 297 111 115 124 
303 353 316 95 93 113 
190 242 275 103 112 125 
158 28 310 127 90 80 
411 662 305 71 88 104 
322 140 250 167 76 13 
341 680 249 110 126 154 
249 499 217 62 86 111 
148 188 295 65 41 33 
28 650 195 83 102 121 
160 495 353 144 144 151 
306 605 319 49 41 39 
185 993 288 119 95 73 
393 701 289 159 168 186 
146 741 315 123 32 30 
284 337 294 75 84 96 
192 652 368 151 165 183 
217 848 315 153 112 80 
107 631 309 158 110 99 
148 408 342 68 95 124 
190 511 350 68 88 107 
272 773 219 120 106 99 
339 771 262 148 128 111 
294 676 340 70 72 117 
222 829 277 175 124 99 
143 55 266 105 75 63 
140 685 308 83 87 119 
83 422 268 110 113 132 
257 199 267 106 34 46 
290 314 247 136 158 185 
229 336 290 98 106 119 
90 536 277 131 130 136 
280 803 283 187 132 99 
155 108 300 125 100 76 
254 580 266 77 90 103 
165 157 300 86 55 49 
306 711 230 106 108 125 
177 741 203 108 8 31 
86 321 273 110 97 105 
98 587 294 91 101 117 
305 768 309 91 123 152 
153 321 319 109 42 65 
138 59 263 116 79 62 
170 38 310 119 92 65 
121 468 230 96 106 119 
209 979 249 146 107 71 
332 674 311 117 143 169 
139 60 257 115 76 61 
226 524 354 73 100 131 
155 395 326 69 86 121 
140 357 351 133 142 156 
145 85 294 107 90 73 
257 169 199 101 59 55 
241 700 350 84 74 63 
255 359 306 51 81 103 
169 458 187 97 120 156 
132 648 244 115 129 151 
238 686 352 152 134 123 
156 614 358 94 126 186 
239 301 217 130 130 136 
193 993 283 104 75 54 
295 461 348 76 109 164 
317 804 262 203 141 111 
169 867 279 140 109 83 
216 851 295 162 117 86 
294 212 197 127 88 73 
320 281 309 105 127 149 
287 218 288 67 98 124 
177 623 212 139 154 175 
108 669 188 85 118 149 
255 888 310 138 116 97 
260 464 243 110 126 153 
72 493 306 165 155 149 
158 652 346 97 117 163 
127 666 190 61 94 124 
263 509 362 108 134 170 
120 598 356 104 135 194 
152 544 194 76 110 139 
276 799 285 199 143 107 
300 762 314 147 138 134 
134 728 198 164 141 152 
148 758 309 156 128 116 
276 671 213 136 140 153 
277 581 296 103 95 90 
187 696 360 104 76 91 
285 594 259 81 115 142 
152 751 322 123 119 127 
230 871 286 152 112 82 
198 311 279 122 122 127 
323 105 221 79 68 58 
213 112 262 203 95 33 
143 57 259 114 84 67 
206 806 293 194 137 119 
310 786 296 194 139 111 
228 181 264 86 92 102 
143 58 256 116 86 67 
255 355 221 98 113 130 
144 685 282 48 64 120 
139 331 234 86 92 118 
209 870 231 121 103 89 
264 169 268 72 49 50 
377 637 312 110 91 72 
139 345 341 106 119 136 
285 290 224 149 164 185 
352 728 260 104 24 33 
158 912 330 161 125 97 
209 405 189 49 93 144 
95 434 334 105 106 118 
337 780 284 187 176 172 
72 612 194 114 115 119 
179 353 207 167 140 111 
253 158 265 95 33 39 
180 149 294 113 100 96 
142 57 260 112 81 66 
137 707 274 126 133 146 
326 635 241 61 90 137 
232 101 258 159 147 137 
314 206 242 84 26 48 
199 426 318 86 106 130 
192 983 244 142 112 78 
142 57 262 110 79 65 
166 571 365 164 179 199 
351 614 324 121 98 73 
372 73 215 128 106 83 
344 749 260 111 124 139 
215 631 233 65 76 92 
158 400 221 66 88 109 
334 626 245 136 146 161 
220 985 279 133 104 81 
314 740 303 45 37 37 
280 378 344 64 81 106 
102 495 253 70 93 120 
267 125 239 173 100 82 
338 130 232 126 107 86 
215 937 340 152 111 89 
129 733 288 101 128 154 
238 419 318 116 119 128 
241 626 353 102 59 38 
146 249 303 32 36 51 
152 252 331 121 32 35 
64 698 191 153 147 160 
139 58 269 106 66 60 
228 653 207 124 123 127 
276 492 273 106 114 150 
165 108 275 95 74 48 
272 505 314 166 163 168 
139 59 271 111 87 70 
359 92 203 117 98 78 
128 574 366 105 127 177 
159 384 223 91 107 126 
219 390 299 34 58 84 
134 383 350 93 70 83 
135 627 350 88 123 194 
186 36 308 128 97 75 
150 936 282 78 62 50 
71 491 298 81 100 129 
247 288 223 127 132 141 
138 63 264 122 91 74 
145 155 296 113 88 62 
213 846 308 136 92 62 
303 111 305 111 100 93 
199 738 342 60 59 59 
60 692 189 226 220 226 
213 827 284 167 116 87 
263 717 351 167 150 138 
162 697 359 132 164 195 
168 915 246 73 59 48 
185 589 364 81 134 173 
150 157 293 78 59 40 
204 220 270 136 63 5 
238 742 338 119 133 150 
139 61 270 112 92 70 
94 341 307 140 34 76 
333 767 257 176 147 117 
138 629 190 95 130 186 
123 737 280 62 56 81 
185 575 364 128 139 159 
205 974 247 144 112 76 
189 630 227 62 97 127 
267 427 334 51 66 93 
109 306 248 113 105 100 
173 189 312 90 25 35 
152 273 301 92 102 116 
140 57 265 109 75 62 
248 759 213 146 130 117 
87 511 349 192 161 128 
93 597 331 185 189 203 
315 669 304 122 149 176 
188 666 196 113 123 137 
261 569 333 136 138 146 
206 25 296 104 94 86 
304 380 355 148 128 111 
167 631 348 93 88 96 
307 130 207 115 94 70 
202 449 191 155 159 171 
107 670 187 92 119 148 
143 668 273 113 119 135 
261 387 231 74 94 115 
284 271 280 101 109 122 
71 740 253 134 150 175 
366 684 266 81 119 158 
133 716 261 74 93 117 
260 764 322 208 148 117 
198 806 225 172 125 87 
286 792 292 193 142 106 
282 139 279 118 39 18 
140 57 270 100 65 55 
140 57 271 103 68 59 
142 679 292 60 71 109 
282 390 355 91 114 157 
175 529 196 48 86 126 
290 323 290 132 81 88 
153 787 287 148 125 108 
256 574 269 71 73 78 
176 607 202 99 150 192 
119 348 334 72 109 138 
281 587 291 85 78 73 
99 619 182 89 124 157 
207 464 195 89 119 159 
137 683 240 105 117 133 
203 113 269 198 91 22 
165 160 290 92 66 50 
236 257 239 112 113 118 
381 21 199 161 145 132 
373 38 195 132 108 83 
143 55 272 97 63 53 
233 925 321 105 83 73 
255 212 267 64 92 114 
268 552 270 117 140 165 
248 442 325 103 106 114 
178 947 339 96 78 69 
217 913 238 68 55 43 
351 751 302 127 104 98 
218 518 358 109 133 159 
330 156 205 111 100 91 
256 340 300 76 90 105 
232 124 266 68 82 102 
113 793 276 149 125 112 
169 679 191 179 168 167 
301 330 313 155 112 55 
176 605 361 191 186 189 
275 483 308 165 162 167 
252 365 230 80 93 107 
139 61 273 112 94 79 
360 692 262 84 115 151 
243 256 267 58 79 98 
230 890 270 72 59 48 
130 671 231 110 116 130 
236 478 216 71 99 124 
85 403 301 60 100 131 
209 991 272 135 110 87 
23 659 231 99 116 155 
95 510 359 178 148 115 
289 664 346 114 92 104 
259 628 233 36 75 105 
173 828 243 208 152 122 
156 324 323 100 41 58 
286 816 273 215 160 132 
232 931 317 150 131 119 
142 403 235 124 132 145 
157 107 264 91 73 52 
102 406 333 143 144 151 
318 149 313 101 51 47 
224 766 322 205 152 125 
140 655 264 115 119 138 
325 142 300 122 126 132 
142 56 272 100 66 57 
316 643 320 100 128 155 
310 226 248 82 99 123 
142 56 275 105 87 69 
315 171 243 96 76 99 
233 750 211 124 104 88 
202 851 234 194 126 69 
274 406 350 71 90 119 
174 989 283 156 124 92 
222 964 303 84 67 56 
103 437 255 112 115 129 
182 516 190 177 185 207 
244 754 212 120 114 114 
391 654 301 69 69 72 
309 356 353 194 163 130 
353 621 332 99 83 69 
176 663 195 98 112 128 
103 595 187 113 124 138 
216 889 337 161 124 102 
393 648 273 132 137 146 
204 14 290 119 104 91 
231 106 267 159 74 6 
291 204 303 75 33 37 
328 791 281 178 162 151 
154 175 289 58 48 39 
340 777 269 202 178 160 
297 627 233 109 118 133 
303 283 344 100 126 151 
177 419 332 61 88 122 
130 475 211 102 111 125 
110 329 251 158 152 153 
405 660 280 142 147 158 
182 994 290 137 107 73 
338 58 222 86 75 65 
78 741 210 188 196 226 
298 163 307 34 35 37 
45 723 218 153 153 202 
260 217 201 154 76 62 
209 108 266 194 99 52 
148 636 205 81 109 137 
258 418 330 85 102 123 
26 648 202 73 59 45 
150 719 342 189 89 94 
285 733 336 201 168 134 
241 198 263 69 53 68 
241 920 280 68 54 43 
141 62 277 116 98 82 
38 667 253 74 102 157 
292 438 323 107 129 169 
199 974 250 165 132 95 
257 144 265 41 44 59 
240 429 213 151 156 166 
290 478 344 91 119 158 
163 238 308 74 72 93 
298 330 322 105 67 34 
239 154 263 92 45 56 
161 304 223 90 111 133 
342 610 296 56 69 83 
143 56 281 112 95 79 
31 671 187 83 145 192 
139 415 236 131 132 139 
293 219 325 117 88 92 
297 449 334 89 121 181 
220 338 284 68 80 93 
182 372 304 66 89 111 
184 878 240 124 102 85 
278 823 250 241 183 144 
165 960 276 83 58 45 
249 616 266 78 86 96 
143 59 283 115 98 83 
218 299 275 108 109 113 
159 938 325 123 96 78 
301 801 292 200 148 117 
260 112 257 212 84 12 
198 262 245 66 54 71 
143 61 281 117 99 84 
293 370 327 70 92 117 
28 672 188 112 136 163 
143 61 282 115 98 83 
365 57 197 141 116 90 
197 789 218 136 117 107 
216 340 284 94 102 112 
123 582 266 71 79 92 
236 808 288 197 134 111 
143 62 282 113 97 82 
351 607 279 92 108 125 
308 322 349 146 28 61 
129 654 232 84 108 132 
269 713 212 121 113 120 
216 274 234 126 126 130 
86 501 273 84 102 122 
353 669 331 120 158 193 
268 877 310 142 120 98 
227 531 202 119 135 179 
274 430 356 65 94 147 
350 80 229 106 84 62 
158 39 269 120 105 91 
242 284 272 112 110 113 
263 384 238 84 71 72 
182 637 217 74 110 145 
337 131 232 140 123 107 
253 483 234 122 127 136 
154 344 226 146 144 149 
252 613 345 117 76 71 
289 709 340 143 118 128 
291 263 289 48 83 112 
122 685 229 119 126 139 
333 649 323 167 178 197 
230 960 288 91 72 57 
298 216 328 90 79 86 
205 939 246 93 68 45 
159 882 289 133 68 33 
294 272 333 77 67 84 
324 700 303 78 25 36 
118 370 337 61 67 80 
239 516 346 45 71 92 
147 699 329 101 118 137 
291 186 302 115 29 21 
294 390 297 166 72 8 
39 644 249 110 129 150 
302 616 238 79 105 129 
23 687 227 78 113 164 
316 803 285 208 146 119 
282 281 279 116 58 71 
347 767 289 179 153 129 
287 107 293 101 90 81 
190 773 314 176 165 160 
91 523 268 74 86 114 
355 106 205 153 122 89 
224 638 373 63 60 123 
120 680 225 76 93 131 
243 126 265 91 72 85 
266 262 205 178 168 165 
292 651 344 97 97 118 
293 220 296 66 81 98 
365 694 324 139 165 194 
215 646 372 122 134 165 
223 608 356 152 112 102 
253 559 360 57 95 173 
126 557 242 113 118 128 
142 778 215 161 130 105 
147 288 304 94 103 116 
76 531 311 81 111 143 
153 47 267 110 96 84 
212 536 195 117 135 155 
104 769 219 172 20 36 
273 411 348 64 89 122 
235 640 220 118 122 130 
388 23 244 175 129 108 
294 365 289 171 147 124 
205 917 352 177 130 105 
154 47 264 120 105 91 
158 332 304 126 64 88 
138 450 216 36 74 105 
170 879 336 177 136 115 
161 266 291 72 103 128 
101 632 301 153 104 95 
113 363 328 111 99 106 
155 573 364 107 137 185 
152 45 269 109 97 88 
161 928 333 167 129 105 
308 681 229 145 147 155 
275 693 349 166 62 25 
198 434 189 177 174 177 
157 421 206 92 105 120 
171 202 318 84 40 41 
100 562 277 108 118 133 
151 704 347 127 148 172 
40 637 212 116 118 123 
237 315 211 136 137 143 
206 726 201 166 163 176 
180 374 302 64 86 106 
246 700 354 181 153 125 
319 690 235 54 63 89 
