ply
format ascii 1.0
comment Created by CloudCompare v2.11.1 (Anoia)
comment Created 2/28/22 9:44 PM
obj_info Generated by CloudCompare!
element vertex 2020
property float x
property float y
property float z
property uchar red
property uchar green
property uchar blue
end_header
215 413 192 61 96 139 
144 297 301 91 105 122 
317 727 241 163 122 68 
43 657 192 131 124 125 
243 603 272 60 56 56 
224 571 244 113 117 131 
188 565 365 164 166 175 
185 920 348 196 152 131 
224 503 353 84 110 146 
211 259 266 69 87 104 
64 636 278 107 79 70 
249 213 216 103 56 81 
49 717 243 83 97 144 
193 460 333 80 99 125 
166 118 273 121 89 67 
77 614 263 89 98 109 
324 784 257 132 140 152 
165 222 288 120 102 103 
141 365 352 74 118 154 
167 948 255 115 92 69 
156 90 260 120 94 61 
309 212 298 53 76 105 
172 904 239 77 62 47 
238 255 269 71 79 87 
156 732 202 144 37 43 
251 217 214 101 71 93 
301 687 306 94 99 121 
160 948 315 92 74 59 
40 652 266 102 131 174 
144 309 314 107 21 46 
27 702 212 196 188 189 
138 107 287 109 89 69 
30 686 254 106 138 176 
251 220 214 104 83 104 
262 523 275 83 101 125 
376 708 274 149 162 179 
228 466 203 52 89 119 
261 553 269 100 123 148 
139 302 324 95 109 125 
86 453 348 180 150 116 
124 784 283 190 170 153 
244 702 345 105 90 94 
179 947 335 86 71 63 
299 153 199 118 106 98 
192 25 323 140 94 103 
308 243 220 173 82 84 
365 88 221 137 107 80 
240 572 258 48 73 96 
241 693 346 94 102 116 
314 231 225 119 110 126 
228 888 301 142 98 71 
216 778 212 123 134 154 
75 437 324 124 132 145 
147 334 234 92 128 158 
225 761 323 211 160 134 
220 308 275 67 81 95 
81 331 244 48 91 140 
106 712 251 62 76 100 
75 546 319 73 98 147 
362 617 272 103 116 133 
354 654 253 109 128 156 
191 990 260 130 97 60 
225 433 200 71 105 140 
106 622 330 171 182 201 
256 546 243 136 150 174 
85 381 305 65 100 129 
311 123 302 123 90 59 
300 340 299 196 169 144 
326 125 239 95 83 72 
338 650 325 80 110 162 
243 321 291 122 89 48 
96 670 220 97 107 127 
309 124 245 133 119 107 
156 891 270 104 81 53 
269 573 340 134 108 89 
271 732 342 214 193 178 
173 926 241 94 69 46 
244 819 227 234 170 135 
297 238 340 115 92 94 
208 669 368 183 154 123 
303 428 348 66 99 172 
154 262 235 89 86 86 
18 674 238 94 127 159 
118 606 357 81 109 179 
151 541 197 103 125 148 
244 829 252 210 155 124 
195 776 311 215 163 137 
260 245 274 118 116 119 
169 116 277 122 85 61 
96 269 336 155 87 93 
110 711 248 87 98 119 
183 489 339 140 140 145 
139 366 328 76 93 111 
184 907 349 187 148 123 
30 640 246 42 71 106 
82 386 316 97 34 67 
286 418 290 177 132 126 
271 471 258 142 153 185 
90 305 238 202 83 0 
155 520 199 95 116 175 
24 642 208 114 114 117 
213 910 341 178 135 109 
284 276 345 129 133 146 
155 160 301 83 74 71 
193 760 323 150 136 128 
175 833 277 151 110 84 
169 62 258 144 114 77 
193 359 310 48 80 112 
358 613 287 102 118 136 
248 352 230 110 109 113 
234 291 219 106 122 139 
298 402 324 193 80 15 
161 190 309 88 36 41 
322 174 238 110 90 103 
305 201 326 145 119 111 
73 625 289 66 111 146 
249 220 218 100 69 95 
243 132 264 38 67 98 
149 890 283 173 116 97 
291 236 317 72 92 112 
163 797 285 107 125 144 
246 398 317 87 96 109 
72 494 291 82 117 148 
315 155 277 68 91 114 
287 286 328 81 88 104 
182 146 273 112 114 121 
119 366 329 59 74 89 
295 728 319 85 91 100 
134 688 290 57 55 86 
250 222 216 102 77 102 
180 595 212 91 134 169 
113 398 338 98 109 124 
241 446 219 128 137 152 
321 146 278 52 98 131 
201 426 314 86 100 130 
251 223 217 104 72 90 
162 539 194 117 124 135 
108 433 241 109 113 121 
250 445 338 72 95 123 
347 753 296 130 131 146 
152 337 341 100 115 134 
81 376 297 120 95 96 
210 601 363 180 170 168 
377 638 319 115 94 71 
124 267 325 82 38 47 
180 362 216 145 116 85 
173 591 209 89 131 166 
163 810 265 183 130 109 
197 565 202 179 185 200 
228 264 227 84 102 121 
313 369 332 213 182 151 
227 192 230 100 52 80 
316 722 299 99 98 104 
175 174 279 111 52 62 
215 787 220 147 103 70 
287 176 324 83 27 36 
230 539 201 76 102 177 
157 813 243 120 90 71 
120 575 265 91 90 93 
223 490 351 105 128 157 
125 528 221 99 107 119 
258 553 261 119 142 168 
246 391 315 102 105 113 
290 253 325 114 115 121 
172 873 334 168 128 106 
160 408 210 73 95 115 
213 586 364 97 121 146 
134 697 256 111 114 124 
160 535 363 135 141 153 
209 274 267 67 87 104 
230 607 261 65 66 69 
78 410 325 78 74 81 
268 821 244 243 186 147 
90 591 314 107 115 157 
85 589 218 104 119 137 
79 692 241 72 76 85 
259 197 206 132 57 68 
185 956 329 109 90 76 
285 267 285 81 103 124 
71 594 208 120 131 146 
274 759 314 194 141 109 
198 723 349 130 119 117 
194 502 354 73 105 137 
136 290 239 92 106 122 
200 148 264 106 95 99 
148 406 356 135 141 154 
239 627 234 60 63 67 
341 622 346 59 99 140 
116 574 265 84 89 98 
122 609 192 181 180 190 
293 736 228 84 63 51 
311 178 278 104 32 51 
216 636 371 108 87 117 
298 325 261 184 157 131 
161 147 296 65 90 111 
374 13 248 137 124 116 
82 565 354 180 18 86 
230 197 229 55 66 108 
279 809 274 212 160 132 
237 475 209 98 113 132 
25 655 194 82 106 129 
258 118 270 128 63 19 
294 392 308 180 80 16 
188 860 228 150 116 85 
217 597 237 135 136 143 
220 345 287 69 80 94 
178 843 291 117 90 62 
148 588 201 78 107 134 
384 660 271 174 191 224 
132 271 300 53 25 28 
81 587 213 102 118 138 
148 353 356 113 134 159 
224 506 354 115 138 162 
274 416 256 91 113 141 
266 153 207 125 65 4 
231 361 202 114 34 41 
30 635 240 73 96 116 
268 425 245 29 71 129 
302 206 331 146 107 79 
200 720 350 159 145 135 
314 159 269 44 61 92 
202 810 285 173 107 90 
182 821 230 182 133 99 
309 809 270 210 145 119 
173 42 279 84 73 61 
184 862 230 139 111 90 
132 678 316 112 75 86 
232 891 275 110 61 37 
271 429 241 63 98 141 
92 272 297 103 88 72 
153 308 301 114 99 91 
157 395 220 80 95 113 
360 664 333 22 69 163 
227 576 361 176 184 199 
92 297 238 135 120 112 
214 348 285 74 82 92 
259 488 254 161 166 179 
226 196 233 51 73 124 
167 938 334 145 109 96 
84 308 291 88 54 58 
227 197 232 48 70 120 
269 400 348 41 75 130 
77 478 279 80 101 129 
226 197 234 41 71 124 
230 217 264 105 104 107 
253 671 207 88 100 126 
128 728 283 94 110 127 
192 731 347 166 149 143 
283 272 345 123 135 151 
45 627 225 66 82 98 
229 523 190 219 218 227 
346 616 256 129 134 143 
263 585 287 89 81 74 
77 767 252 173 189 210 
145 232 312 66 26 29 
178 480 335 55 80 122 
279 459 303 103 121 152 
190 937 242 115 85 46 
64 647 274 161 114 93 
299 626 338 111 127 172 
194 724 350 202 189 182 
96 600 300 136 146 163 
278 660 354 156 118 84 
190 322 283 88 102 119 
193 507 185 128 138 174 
293 345 348 179 148 114 
318 343 344 196 166 134 
133 711 200 98 111 125 
176 139 285 88 84 91 
152 319 231 82 123 157 
167 659 349 69 63 87 
378 35 203 139 106 85 
199 681 367 127 125 133 
398 668 321 161 180 206 
245 288 277 84 92 103 
158 555 190 174 172 178 
143 485 362 101 112 134 
160 271 283 72 98 120 
161 382 223 107 117 131 
206 577 229 98 115 138 
165 882 265 94 75 54 
308 175 283 130 55 71 
225 200 236 46 62 91 
319 342 334 162 47 80 
209 680 200 176 172 177 
175 621 227 97 93 92 
137 438 366 170 158 151 
348 605 271 117 121 129 
127 635 202 169 178 208 
153 879 293 141 107 81 
83 578 323 110 122 159 
97 287 310 64 70 83 
179 376 319 86 107 128 
179 460 335 73 96 128 
86 405 257 171 125 63 
227 929 316 108 84 68 
274 281 214 123 147 186 
193 746 207 129 104 79 
179 421 319 87 104 123 
244 388 315 58 76 101 
116 732 203 143 7 27 
215 443 341 100 119 154 
83 309 275 108 56 7 
261 470 355 101 121 147 
150 734 334 160 121 84 
188 557 192 117 143 206 
318 285 331 128 142 159 
308 173 299 123 55 80 
80 290 277 99 91 84 
219 940 321 128 93 78 
229 933 311 107 81 67 
259 798 216 195 137 97 
150 329 311 124 36 70 
215 695 201 138 162 193 
225 904 321 161 122 91 
228 623 239 127 125 127 
104 300 244 139 96 87 
194 592 219 96 126 158 
198 941 338 140 108 95 
244 830 244 237 175 139 
71 482 289 76 94 129 
208 885 236 71 55 43 
240 165 265 90 45 29 
169 135 256 111 88 72 
101 754 214 171 51 54 
175 77 289 93 74 51 
226 388 309 99 106 118 
285 220 325 110 106 108 
181 49 282 118 100 82 
317 321 323 186 156 123 
273 501 287 160 173 193 
353 744 299 167 166 173 
122 381 338 86 50 55 
227 911 249 61 45 37 
331 632 332 94 122 159 
160 461 336 100 112 129 
131 324 235 142 139 141 
385 650 284 58 85 109 
154 625 357 120 143 188 
106 489 230 81 106 133 
334 628 334 85 115 156 
225 179 261 89 82 91 
217 854 278 166 119 92 
235 744 211 162 124 82 
281 720 221 135 30 35 
221 906 239 100 74 52 
254 646 364 168 127 103 
179 53 281 105 89 73 
288 787 227 152 114 75 
294 708 225 119 14 18 
308 604 322 73 54 48 
105 735 205 161 184 214 
120 554 222 111 121 135 
277 428 264 125 140 167 
93 632 188 157 163 178 
172 688 197 70 133 189 
177 51 309 119 93 66 
225 900 322 172 129 99 
237 366 204 147 153 166 
173 390 320 61 87 126 
132 387 347 107 125 144 
55 730 216 187 181 212 
202 278 268 76 95 114 
267 388 322 77 68 82 
380 702 278 150 153 164 
215 220 261 67 75 84 
163 425 327 57 84 125 
123 516 213 115 131 157 
287 799 230 183 132 94 
88 342 309 104 39 61 
128 440 220 65 93 118 
316 794 255 178 129 93 
277 475 314 133 148 176 
141 388 337 92 105 129 
342 65 226 104 86 69 
197 184 260 125 95 89 
281 636 336 98 90 104 
370 628 279 88 106 125 
170 964 279 112 89 64 
232 196 226 132 62 69 
209 552 365 108 137 172 
169 724 202 74 33 51 
173 82 282 96 78 58 
85 294 242 128 114 103 
212 204 258 95 30 48 
144 761 304 114 110 121 
96 300 245 129 113 98 
235 196 224 119 47 37 
254 512 235 100 122 147 
167 72 308 126 98 74 
235 197 225 117 49 33 
131 570 370 86 120 184 
101 789 264 123 132 142 
259 645 362 151 122 92 
84 344 293 117 60 68 
337 775 276 192 171 156 
325 98 217 66 56 46 
241 550 223 64 103 182 
164 569 197 199 198 208 
287 344 294 95 98 112 
235 198 226 102 53 49 
351 26 234 122 113 108 
191 835 230 182 133 99 
210 342 281 53 68 83 
223 721 340 160 141 127 
232 197 228 73 54 88 
233 323 288 91 103 117 
287 605 313 49 63 77 
167 846 309 138 108 79 
288 397 304 166 72 14 
224 460 339 55 72 106 
169 521 360 105 120 138 
285 148 310 91 36 36 
205 476 186 149 149 155 
161 956 300 96 76 61 
110 787 240 118 129 142 
47 653 266 155 110 89 
49 627 261 113 115 120 
277 142 300 77 43 49 
317 152 290 117 89 74 
84 682 229 54 67 90 
126 385 237 161 158 163 
307 223 275 109 83 92 
235 201 227 60 58 99 
374 51 226 123 99 73 
283 414 282 136 50 76 
183 985 243 114 84 70 
233 201 229 43 52 93 
248 454 338 118 127 139 
152 541 365 151 152 160 
370 728 297 215 119 126 
146 547 195 104 121 139 
316 121 285 123 106 95 
272 355 334 95 86 99 
86 624 302 151 165 183 
257 891 292 153 124 100 
298 257 262 79 115 145 
241 575 357 73 77 108 
206 486 352 92 113 141 
218 898 241 94 73 55 
224 121 256 156 169 184 
137 646 346 120 145 202 
185 893 344 146 113 91 
244 458 335 109 117 129 
146 390 230 102 114 129 
274 324 231 139 139 145 
223 117 269 124 105 90 
285 809 236 220 162 124 
401 656 304 46 72 94 
318 282 315 136 31 58 
279 421 267 110 131 158 
252 354 233 112 113 119 
192 324 215 121 31 37 
118 556 204 95 112 130 
366 26 243 173 155 154 
317 221 223 142 54 84 
90 561 289 107 117 132 
221 322 279 79 86 95 
265 407 246 56 76 105 
149 109 260 111 84 49 
197 783 216 139 142 150 
108 640 331 139 104 93 
127 629 350 189 206 229 
203 949 244 160 133 108 
220 696 350 155 64 27 
203 568 366 125 156 187 
161 854 306 145 111 82 
289 235 203 161 117 115 
118 513 216 116 131 153 
266 556 298 110 111 116 
71 647 190 91 155 207 
352 617 303 91 82 74 
258 201 207 106 35 44 
247 471 225 130 133 142 
133 408 360 126 145 166 
292 358 284 139 134 146 
381 704 313 154 176 202 
378 639 317 112 91 70 
206 682 362 212 177 139 
260 568 329 43 58 72 
68 447 287 95 117 133 
193 368 316 81 100 127 
168 716 201 202 6 29 
238 202 224 72 54 90 
239 702 205 143 164 188 
274 429 352 78 104 146 
71 379 277 88 81 97 
176 45 309 124 97 71 
327 689 303 91 117 141 
155 64 304 109 91 75 
161 818 247 211 155 123 
274 239 281 69 45 60 
168 576 369 67 106 164 
140 505 366 86 98 123 
114 344 329 75 67 67 
246 281 274 72 86 101 
342 624 249 87 108 130 
104 594 191 112 57 79 
184 358 215 113 77 75 
231 395 313 111 114 123 
273 274 276 96 103 111 
252 905 300 140 106 85 
144 416 364 113 104 102 
180 216 265 124 98 74 
302 124 242 140 115 100 
201 264 212 92 63 59 
108 517 226 127 141 162 
135 725 292 109 28 41 
271 476 358 153 168 189 
86 580 315 142 147 164 
149 749 207 84 51 106 
229 527 191 125 139 167 
178 523 361 117 131 148 
311 336 317 202 169 132 
140 713 327 116 136 157 
199 422 315 63 82 121 
170 916 345 177 134 114 
90 459 253 95 115 136 
114 360 239 112 130 150 
145 732 322 96 29 47 
91 407 254 171 136 95 
251 521 217 99 118 144 
259 508 270 131 143 164 
56 660 262 152 101 81 
31 680 193 199 186 190 
137 344 336 100 110 123 
240 450 218 140 148 161 
215 608 359 143 123 125 
181 981 299 134 99 66 
281 565 314 106 93 85 
240 899 297 120 95 75 
130 789 226 187 177 175 
321 604 253 17 50 99 
111 563 202 114 124 137 
204 939 240 105 79 56 
225 208 236 83 41 31 
384 650 266 75 102 133 
88 606 242 103 114 129 
309 374 355 178 75 6 
168 375 330 57 87 124 
218 554 202 181 186 202 
64 662 255 122 81 68 
188 334 300 113 116 123 
305 202 325 141 110 104 
231 477 330 65 70 77 
235 425 210 72 103 151 
226 210 236 105 46 45 
156 409 338 62 85 120 
300 172 197 119 128 139 
139 354 340 105 121 139 
364 674 330 127 152 194 
349 617 329 123 97 70 
300 355 302 153 35 76 
311 120 284 114 96 87 
112 381 240 155 151 155 
89 480 255 77 101 149 
223 406 314 63 76 89 
58 622 234 98 106 117 
314 707 236 121 13 23 
176 751 328 194 169 148 
100 649 219 95 98 108 
187 216 262 142 122 100 
171 880 255 76 60 48 
289 212 337 104 54 75 
163 377 224 92 109 127 
267 190 200 54 58 85 
199 489 350 131 145 162 
153 519 199 112 135 174 
183 775 310 126 131 145 
73 447 279 155 98 103 
99 277 307 128 58 13 
265 704 351 154 124 108 
86 307 235 206 69 21 
96 571 363 137 86 126 
135 525 371 105 127 172 
329 607 254 98 113 129 
203 263 267 69 59 61 
354 750 283 120 91 94 
227 926 319 124 99 83 
218 681 356 184 106 39 
237 235 267 117 113 114 
180 959 321 111 91 76 
151 316 349 86 125 156 
194 980 245 105 66 48 
158 815 250 195 152 125 
129 367 337 76 105 129 
324 774 295 147 133 128 
220 557 206 209 199 200 
347 755 292 138 116 104 
344 608 293 84 103 125 
135 540 371 120 145 176 
268 719 347 172 152 140 
314 188 248 126 77 72 
230 211 236 84 40 40 
198 212 260 99 105 115 
57 662 192 78 120 154 
153 894 319 174 132 107 
104 664 220 91 102 129 
276 648 352 83 115 142 
138 395 233 117 121 129 
313 174 258 109 48 60 
217 853 278 165 119 90 
143 900 273 115 79 53 
247 259 221 154 77 7 
175 45 279 87 75 63 
241 524 197 117 130 152 
228 213 236 110 43 34 
313 153 313 128 85 70 
93 672 193 117 145 175 
215 904 339 171 138 114 
228 214 236 107 45 29 
132 789 223 141 129 137 
146 491 195 96 119 146 
260 533 251 85 112 142 
274 463 328 80 101 155 
184 304 275 121 121 127 
158 307 228 86 129 165 
350 122 215 149 112 83 
244 515 204 150 149 153 
171 913 236 74 58 43 
187 979 301 119 87 63 
295 343 356 189 160 131 
190 186 263 136 100 73 
145 217 310 52 31 36 
197 401 331 90 118 153 
258 523 245 93 114 137 
180 405 195 97 118 139 
157 797 225 145 138 138 
238 927 271 83 65 51 
310 681 299 122 140 161 
179 165 274 72 84 99 
146 713 342 201 95 105 
227 431 322 62 76 90 
65 653 192 93 149 194 
227 219 237 98 51 27 
321 664 236 37 81 146 
224 223 235 55 52 55 
242 601 268 42 48 55 
181 517 190 67 90 167 
73 438 306 147 150 160 
295 228 204 147 85 100 
116 645 226 44 75 101 
376 30 236 199 177 176 
178 483 336 93 110 131 
137 708 293 126 141 161 
345 32 210 100 84 67 
73 461 330 170 147 124 
322 158 241 102 40 43 
185 538 370 117 140 165 
246 109 266 144 70 7 
301 271 285 116 132 150 
131 507 205 89 115 154 
160 414 207 60 91 117 
27 688 243 96 123 178 
144 257 316 58 31 34 
230 880 290 163 113 86 
268 357 348 124 87 107 
72 378 281 92 91 102 
272 715 348 181 162 151 
141 295 322 118 116 119 
228 216 237 107 41 38 
371 725 303 194 168 180 
207 941 243 136 101 60 
102 517 237 95 114 138 
310 223 304 120 33 67 
260 533 252 84 109 139 
265 743 337 156 153 158 
327 185 223 59 107 142 
214 292 271 105 104 108 
266 348 305 56 71 89 
257 597 269 78 97 117 
304 280 294 129 88 113 
91 677 193 139 163 192 
279 130 231 141 117 113 
231 218 236 104 51 29 
240 781 307 214 152 126 
301 212 202 67 116 153 
226 891 266 75 60 45 
228 221 236 101 50 38 
192 866 342 140 98 80 
194 259 213 87 109 135 
112 724 262 61 85 107 
295 310 296 164 127 75 
19 690 236 125 133 201 
290 152 201 98 90 86 
284 126 248 166 93 58 
264 798 216 191 131 92 
238 615 258 111 117 126 
94 639 189 189 186 193 
83 508 272 63 87 128 
108 686 230 129 132 141 
203 335 210 112 73 74 
349 102 196 150 112 84 
200 839 301 112 84 51 
302 711 304 102 83 85 
140 367 353 85 128 163 
239 208 227 44 55 97 
115 677 193 164 164 176 
129 290 305 48 37 33 
276 598 321 78 53 53 
376 682 274 96 118 156 
160 305 227 94 134 168 
308 799 245 172 123 90 
221 945 256 82 60 42 
236 467 329 39 55 69 
288 649 342 139 116 103 
279 318 291 85 90 98 
113 288 244 177 151 123 
89 564 363 210 183 157 
139 740 312 92 34 38 
195 488 183 132 137 158 
237 616 256 112 118 127 
254 443 237 137 155 197 
238 209 230 39 54 79 
143 482 196 79 104 134 
268 518 311 106 123 155 
77 294 279 112 99 89 
218 851 274 165 117 88 
113 289 327 61 82 110 
165 409 322 96 110 135 
218 979 266 134 106 81 
269 740 337 149 158 171 
160 627 216 113 123 138 
86 752 218 178 192 212 
390 654 296 65 84 102 
239 212 231 52 49 54 
392 670 325 206 204 213 
261 679 354 131 110 96 
367 713 313 163 52 51 
173 278 281 76 107 133 
380 644 265 100 114 133 
245 663 351 146 95 69 
236 562 229 122 135 163 
196 727 348 148 120 113 
70 527 321 172 70 29 
232 209 235 48 46 50 
142 293 233 97 106 118 
233 580 249 127 134 147 
326 765 253 192 152 101 
282 346 318 111 96 93 
223 462 342 66 82 121 
236 487 203 78 104 129 
170 965 247 126 99 68 
268 194 200 79 60 81 
345 668 249 122 135 154 
112 670 193 98 128 169 
235 208 232 53 49 60 
27 641 242 90 115 147 
161 502 188 90 120 166 
67 410 279 162 159 158 
274 462 275 122 132 158 
193 265 214 85 116 144 
184 674 198 87 136 178 
241 490 209 65 97 125 
248 106 257 179 124 91 
278 601 248 68 100 127 
355 75 195 131 106 80 
129 709 258 83 87 113 
332 96 222 70 60 50 
163 38 309 116 94 70 
130 131 281 104 87 70 
315 268 330 146 144 149 
258 582 281 54 66 78 
157 871 313 147 105 82 
165 115 278 101 79 57 
218 390 303 39 59 75 
163 387 333 74 96 133 
235 213 234 71 46 49 
156 488 351 62 82 120 
113 632 333 143 155 175 
148 619 201 95 123 183 
138 550 196 69 109 140 
82 554 304 159 158 163 
141 342 324 97 84 96 
128 269 302 57 28 26 
129 309 309 54 38 39 
295 713 226 141 65 69 
182 509 186 187 186 197 
151 921 254 77 60 51 
230 569 250 96 115 141 
92 285 250 101 91 83 
256 511 248 101 120 141 
205 297 272 101 97 97 
154 589 203 81 122 154 
78 410 326 127 113 115 
209 101 267 138 115 101 
366 676 332 157 181 211 
285 248 333 92 96 105 
172 685 363 130 163 195 
69 442 302 147 151 162 
96 610 312 78 98 147 
101 459 238 81 117 147 
126 430 362 172 150 129 
47 627 230 62 82 103 
231 857 276 163 118 89 
158 963 263 110 84 57 
269 464 251 95 119 176 
404 657 288 76 102 127 
75 604 193 66 100 129 
219 354 200 122 89 82 
185 51 302 111 85 63 
302 212 332 134 43 76 
225 502 353 67 98 140 
75 521 297 106 123 146 
194 500 183 140 151 175 
305 704 300 124 84 58 
163 775 302 214 190 170 
151 623 358 98 132 180 
234 216 235 105 47 38 
154 435 339 69 89 121 
252 117 257 194 86 8 
153 634 354 72 83 105 
226 704 346 111 81 96 
290 273 325 69 102 129 
256 407 218 105 127 152 
264 140 214 110 103 98 
345 763 278 199 173 151 
153 127 294 119 91 66 
110 417 345 130 120 113 
259 653 212 87 104 123 
295 261 309 68 102 130 
291 603 245 85 107 128 
159 679 361 148 169 194 
105 283 326 74 99 122 
312 390 348 130 111 91 
141 528 368 51 78 131 
166 823 244 206 150 118 
89 506 258 52 75 120 
193 699 363 76 63 124 
298 672 316 79 121 152 
89 340 306 124 41 65 
366 19 246 152 138 131 
146 679 339 132 165 198 
315 369 334 206 175 143 
178 205 272 111 8 48 
277 186 291 54 43 58 
193 245 265 103 105 110 
203 412 325 78 95 125 
182 948 249 121 85 61 
259 611 337 65 50 44 
237 614 261 112 116 125 
264 753 326 213 157 127 
210 280 268 80 94 107 
245 645 214 74 101 124 
231 644 366 179 141 109 
335 700 247 160 166 179 
234 603 259 70 75 82 
139 71 259 123 93 74 
94 486 250 69 99 140 
237 218 234 109 40 42 
93 525 257 73 93 121 
338 773 281 233 181 129 
317 332 346 151 21 61 
270 605 320 35 35 36 
236 908 305 106 85 64 
112 440 232 65 98 126 
91 773 236 186 58 71 
146 924 301 83 65 54 
227 830 232 225 167 130 
220 132 265 63 79 95 
355 729 307 163 110 77 
372 44 197 148 122 98 
281 424 363 103 126 169 
113 444 230 62 97 126 
168 191 290 43 65 91 
127 305 308 41 32 37 
157 240 304 67 96 120 
331 174 216 73 47 89 
123 362 238 84 122 153 
71 721 258 85 98 147 
301 690 309 72 37 89 
314 320 349 143 113 119 
194 276 213 111 96 88 
319 712 239 99 103 109 
171 515 356 90 107 129 
111 535 236 87 100 119 
75 330 280 102 70 60 
333 59 189 110 79 50 
107 337 242 134 129 128 
144 721 334 65 74 132 
77 559 331 135 122 114 
130 317 235 137 136 140 
316 369 337 206 175 143 
92 293 237 151 133 119 
177 547 190 127 147 172 
118 663 307 144 96 92 
137 486 200 113 130 150 
311 70 196 115 80 41 
124 642 344 102 87 81 
94 380 250 153 149 152 
179 607 212 112 146 177 
173 647 360 137 138 146 
314 120 226 108 96 85 
201 702 356 168 90 87 
19 664 194 74 121 162 
110 314 326 104 96 107 
192 373 304 57 83 123 
198 133 270 134 101 81 
296 287 310 129 126 130 
147 940 295 79 63 55 
173 732 203 213 145 65 
236 767 319 216 155 129 
232 913 262 68 55 50 
203 387 196 86 103 120 
240 209 227 56 61 98 
95 675 222 100 116 136 
244 508 209 154 151 153 
153 315 340 115 103 103 
173 836 249 180 136 104 
232 286 273 102 101 105 
210 534 193 93 117 190 
174 984 250 138 110 86 
97 623 188 121 147 182 
41 651 266 100 125 176 
64 712 201 139 165 201 
316 187 204 149 118 126 
144 722 332 127 165 197 
141 509 365 45 61 100 
285 608 242 85 105 126 
359 622 325 122 98 70 
62 618 229 120 127 139 
130 315 314 57 50 49 
296 706 226 134 26 28 
129 376 339 66 96 122 
117 790 238 188 146 111 
73 457 331 164 140 114 
166 374 222 88 68 54 
312 308 349 131 127 137 
50 731 244 74 104 174 
279 741 220 138 133 135 
321 210 224 169 75 90 
76 695 194 170 182 202 
162 917 337 174 135 110 
260 757 324 211 153 121 
348 28 218 136 127 122 
326 596 266 8 60 115 
211 734 337 197 174 156 
243 460 222 73 101 128 
242 215 227 56 40 49 
199 705 357 173 109 76 
313 620 336 105 125 166 
243 215 227 60 42 51 
298 688 315 153 64 73 
141 438 213 68 93 117 
266 156 281 82 45 60 
136 566 371 64 100 176 
241 213 229 48 48 56 
254 477 239 156 160 172 
284 760 316 141 100 75 
395 651 315 80 69 59 
184 515 355 66 83 106 
243 437 324 91 97 108 
141 715 200 112 124 139 
140 682 295 59 55 121 
229 499 192 126 129 138 
313 244 320 74 104 131 
339 637 244 134 144 159 
402 670 316 114 141 206 
113 629 337 140 149 191 
152 353 346 132 133 142 
223 145 263 52 46 60 
59 723 248 87 107 159 
331 675 242 129 142 161 
145 215 312 55 32 45 
184 321 220 143 133 128 
369 733 291 158 60 63 
298 311 268 81 105 128 
307 160 317 80 56 52 
288 428 304 90 92 138 
216 379 197 73 98 124 
311 184 263 137 60 58 
173 763 315 133 105 76 
121 346 237 110 128 149 
131 350 333 135 129 129 
316 213 216 167 94 105 
129 391 347 132 139 150 
192 380 323 98 118 142 
328 592 278 120 123 130 
252 755 213 145 126 111 
201 838 293 117 82 49 
161 741 332 215 193 179 
189 406 324 103 118 137 
241 217 230 68 33 41 
353 115 215 146 113 81 
212 659 369 182 156 131 
135 662 247 92 103 130 
91 773 229 136 61 94 
193 832 285 155 114 88 
241 219 230 88 46 43 
304 582 299 99 90 84 
179 373 212 139 106 74 
90 590 312 70 91 149 
109 711 249 88 98 116 
135 703 288 105 127 150 
98 584 280 105 111 121 
235 790 216 149 111 70 
287 666 327 111 138 168 
143 314 308 104 96 96 
107 569 266 120 118 122 
274 433 261 56 81 130 
108 646 270 114 120 142 
225 934 249 81 60 43 
387 25 240 113 60 64 
303 202 201 104 111 123 
265 265 209 112 130 152 
235 651 209 49 60 72 
285 744 224 166 133 95 
285 424 305 158 80 97 
234 655 357 179 118 39 
158 377 226 89 109 129 
93 737 269 118 126 138 
243 221 229 93 39 30 
147 385 345 69 81 98 
99 387 340 98 43 53 
310 732 237 91 40 42 
304 226 272 132 26 72 
151 811 249 164 159 160 
359 614 280 126 132 142 
225 423 319 51 67 83 
68 510 307 52 90 135 
75 306 289 106 97 101 
300 608 322 60 76 92 
333 718 305 129 112 94 
153 928 318 112 86 70 
228 485 347 90 114 144 
215 577 366 166 170 184 
267 815 231 231 174 138 
79 321 260 124 81 65 
241 829 235 235 174 136 
308 370 326 213 183 151 
124 292 309 52 37 38 
115 762 214 137 13 55 
340 698 312 89 97 109 
232 462 208 64 94 122 
106 303 244 144 69 9 
164 87 303 135 104 84 
100 695 236 40 57 103 
151 648 202 120 124 132 
129 756 304 76 58 95 
118 358 322 81 79 78 
329 55 212 80 69 58 
246 527 361 88 118 159 
101 752 213 191 14 36 
196 864 234 125 104 85 
97 362 320 76 63 75 
275 154 206 125 60 4 
239 916 310 109 88 68 
337 54 191 102 87 71 
245 223 225 90 34 30 
132 301 236 96 105 117 
88 623 305 141 150 164 
277 704 217 136 19 29 
135 549 371 122 150 190 
258 452 245 140 151 201 
265 722 348 160 134 116 
166 477 336 142 142 148 
122 675 232 130 132 141 
280 146 206 120 106 95 
246 223 224 98 34 33 
78 323 249 111 123 138 
286 653 324 98 139 177 
184 16 330 129 117 111 
215 483 346 104 118 138 
152 879 294 143 110 82 
210 963 249 119 92 61 
164 948 321 99 78 66 
208 529 361 102 122 155 
215 386 299 43 61 76 
181 785 300 186 140 121 
280 582 332 141 100 84 
189 393 198 53 79 106 
147 402 345 71 88 117 
293 259 214 178 23 89 
189 905 348 180 142 118 
180 344 317 86 99 117 
235 776 311 218 156 130 
256 421 347 59 86 127 
61 701 196 206 211 228 
136 383 354 105 61 69 
238 194 266 87 46 43 
118 316 240 117 102 89 
129 677 238 93 107 126 
315 179 251 146 54 49 
224 251 222 120 117 119 
162 36 309 123 98 77 
167 594 367 147 174 205 
94 567 274 86 105 144 
223 845 246 210 159 124 
323 144 267 132 146 163 
224 253 223 126 123 124 
235 889 291 141 93 72 
271 370 312 73 87 105 
301 724 231 155 88 29 
147 100 297 119 98 76 
255 515 361 91 113 148 
250 515 362 110 134 168 
180 607 365 132 150 175 
147 362 339 104 46 64 
208 334 208 116 87 84 
160 893 329 135 110 85 
246 225 223 99 40 41 
285 233 333 101 77 61 
345 637 336 54 68 146 
158 237 300 74 83 98 
324 178 207 139 107 118 
144 104 260 128 97 61 
329 591 318 118 98 79 
276 462 278 104 124 152 
213 903 233 60 50 42 
187 901 224 59 47 38 
212 383 297 21 49 70 
41 683 242 125 127 137 
371 643 260 153 157 168 
350 698 315 89 111 147 
207 556 198 138 149 185 
110 656 321 160 113 106 
106 561 260 71 86 113 
236 444 214 117 135 159 
115 797 249 182 134 93 
142 771 296 185 165 155 
227 460 329 76 83 94 
70 609 225 81 108 134 
112 644 284 54 43 110 
247 203 269 87 79 86 
80 421 331 120 125 135 
261 338 301 84 90 99 
206 389 195 96 109 125 
116 321 332 137 69 76 
164 136 258 103 76 60 
142 75 285 103 89 76 
307 397 352 130 114 98 
340 644 334 26 67 147 
273 318 293 94 46 57 
311 74 204 102 78 56 
318 153 295 115 68 75 
226 687 349 133 94 57 
266 503 343 92 116 138 
394 692 309 140 156 186 
98 394 247 156 134 111 
241 635 221 57 85 109 
199 477 185 115 128 146 
220 685 353 192 118 35 
321 95 196 158 121 92 
188 637 366 89 146 189 
218 390 195 63 96 127 
149 921 313 101 80 66 
253 227 213 103 78 83 
201 777 310 212 153 130 
105 384 342 109 119 133 
308 263 295 129 148 171 
221 967 276 127 104 82 
253 226 214 99 75 82 
238 290 227 106 110 117 
290 674 324 138 80 88 
223 887 254 76 58 47 
265 325 297 104 64 75 
146 360 357 82 126 162 
93 575 213 116 126 140 
255 227 212 94 81 88 
84 618 293 64 102 135 
275 590 330 128 91 76 
335 667 243 104 127 156 
88 569 297 160 151 147 
253 228 213 108 69 65 
167 423 197 99 107 119 
191 196 262 119 54 69 
326 624 335 117 136 171 
130 392 347 142 145 154 
226 918 323 125 98 79 
97 404 347 154 155 163 
163 395 327 57 86 130 
327 170 232 109 61 70 
132 366 339 70 98 124 
318 779 250 150 119 98 
234 586 253 58 79 97 
289 296 229 122 148 175 
298 701 317 128 24 57 
227 315 206 91 112 133 
291 114 289 92 84 78 
111 429 351 118 10 54 
313 591 263 22 67 100 
182 683 362 83 132 170 
296 353 275 163 43 82 
199 896 342 106 83 60 
233 358 203 146 103 58 
126 556 370 66 100 168 
255 231 212 99 41 40 
95 510 362 175 146 114 
270 317 294 104 41 64 
275 491 284 140 151 169 
106 646 268 107 113 135 
129 144 287 104 87 69 
386 669 328 99 121 178 
269 468 360 113 131 175 
156 247 327 120 112 107 
74 317 281 88 76 77 
320 148 272 86 80 110 
170 706 361 172 41 56 
335 127 236 77 60 44 
336 659 315 115 140 165 
72 614 191 118 126 139 
205 918 345 180 132 106 
234 438 211 118 131 148 
124 793 235 146 120 110 
304 583 329 155 112 90 
100 634 233 55 79 102 
74 349 253 136 89 58 
272 482 304 175 170 173 
242 376 206 67 98 133 
193 843 231 178 130 93 
216 748 207 153 118 90 
318 353 338 196 166 138 
241 192 266 85 48 43 
85 405 258 178 136 76 
132 621 195 61 108 180 
314 239 296 114 34 45 
189 961 324 99 79 66 
268 504 314 166 162 167 
167 803 281 181 127 108 
248 227 220 112 36 47 
207 108 275 154 79 9 
313 117 204 120 96 67 
85 528 364 207 175 140 
260 895 296 141 112 88 
314 708 236 107 19 32 
246 587 352 99 115 154 
202 701 357 164 37 53 
87 649 276 137 91 73 
297 312 288 153 106 88 
251 228 216 101 32 31 
272 108 277 107 90 77 
314 181 201 157 75 74 
333 685 243 158 162 175 
256 583 277 47 62 76 
288 253 330 110 113 120 
74 521 341 150 155 166 
215 567 216 168 176 195 
177 984 295 146 115 90 
321 750 246 155 143 136 
193 370 311 65 89 118 
264 538 272 114 128 147 
108 602 286 54 67 82 
87 363 308 74 100 124 
382 651 284 81 104 127 
230 575 359 97 118 141 
304 717 303 129 127 129 
87 315 239 201 73 0 
89 540 273 79 102 130 
249 228 220 110 44 51 
212 142 263 57 82 104 
257 825 246 234 176 139 
72 463 319 105 126 149 
216 870 249 110 78 59 
216 587 235 145 146 155 
284 219 334 90 94 103 
216 853 318 156 112 81 
249 231 221 104 29 27 
314 301 346 137 49 54 
171 92 296 119 91 69 
321 795 272 207 148 116 
183 749 203 129 104 75 
157 233 310 89 66 77 
64 657 265 146 99 79 
164 765 310 158 132 109 
377 714 278 180 194 214 
312 224 284 148 43 82 
352 619 255 111 120 133 
255 235 211 102 56 37 
121 644 260 131 136 149 
155 808 236 141 138 140 
137 113 267 91 77 63 
267 362 347 101 111 130 
270 141 289 115 36 19 
143 686 318 133 149 170 
274 475 264 119 138 170 
157 162 303 100 72 69 
255 883 292 144 117 93 
254 232 213 95 43 33 
285 594 254 84 112 138 
254 233 213 99 50 44 
222 600 242 100 101 105 
277 352 241 138 145 161 
167 783 297 171 118 113 
257 622 236 127 132 141 
251 633 224 124 128 135 
254 235 213 95 41 38 
332 622 348 87 131 166 
148 578 200 98 164 213 
176 468 334 138 138 143 
249 373 211 129 132 140 
178 576 213 117 139 168 
290 660 320 75 127 165 
321 146 296 87 45 87 
252 237 215 104 40 33 
255 362 220 113 121 135 
194 255 266 79 95 112 
253 238 213 106 58 45 
144 542 368 82 111 154 
302 266 249 82 123 156 
375 693 323 157 181 211 
183 867 229 123 105 90 
253 238 214 115 52 40 
69 430 299 138 144 156 
270 340 345 109 102 101 
83 285 276 96 62 22 
235 739 338 159 139 132 
78 411 320 70 102 129 
311 238 236 116 62 69 
311 68 204 86 67 41 
163 680 361 146 168 193 
175 969 247 148 116 81 
125 659 234 69 88 125 
64 748 227 71 94 129 
114 769 217 195 130 111 
113 310 243 122 108 96 
151 289 344 161 159 163 
168 398 209 79 98 118 
268 526 304 86 117 153 
94 268 257 86 86 89 
221 447 330 74 87 108 
251 232 217 102 52 44 
72 533 312 53 94 141 
321 117 201 111 89 64 
274 482 300 70 85 146 
363 40 235 131 104 77 
148 365 343 104 84 92 
79 302 255 121 107 96 
232 779 309 214 155 129 
146 489 361 93 108 128 
202 312 273 107 107 110 
82 745 269 151 171 196 
143 619 198 142 167 198 
110 761 214 148 6 25 
98 593 350 157 174 206 
198 816 224 165 121 81 
177 453 333 79 101 125 
86 550 287 108 115 129 
209 899 233 61 51 46 
312 207 248 58 42 61 
369 722 306 105 105 153 
360 733 304 157 63 68 
226 479 348 139 151 169 
249 233 221 121 38 36 
268 721 215 138 40 57 
233 909 267 70 56 47 
179 139 280 118 99 91 
86 540 280 132 134 142 
110 485 225 78 104 128 
196 630 365 91 132 164 
326 57 210 81 74 69 
67 754 238 160 173 192 
275 817 256 230 177 148 
205 877 237 98 80 62 
175 796 289 177 129 111 
266 563 306 77 76 77 
259 321 228 94 133 170 
250 236 217 120 39 39 
257 616 246 79 105 128 
220 315 206 84 100 116 
251 236 217 117 36 34 
201 913 347 180 132 107 
251 237 217 126 35 36 
255 535 343 54 70 94 
287 460 356 69 105 167 
163 439 328 81 103 133 
264 656 362 195 141 66 
121 304 316 44 44 48 
206 877 335 187 140 117 
249 321 293 123 96 65 
235 375 203 84 107 138 
177 777 305 187 171 164 
136 150 297 112 90 65 
68 515 311 75 94 125 
312 234 235 128 92 90 
245 160 267 89 40 30 
205 402 192 122 131 142 
197 896 343 117 93 68 
140 690 195 106 139 187 
221 184 259 64 82 99 
103 789 269 66 44 100 
235 493 341 40 50 64 
113 388 333 97 99 105 
248 463 343 89 103 129 
157 314 298 136 102 62 
93 275 254 101 92 84 
304 291 351 115 131 150 
308 574 319 114 99 86 
129 660 343 195 144 142 
23 654 245 108 126 153 
297 756 313 178 139 131 
358 23 201 117 102 86 
98 387 327 100 84 85 
141 76 281 96 82 68 
169 958 311 99 78 65 
302 154 317 83 52 62 
248 239 223 130 35 44 
182 126 270 169 151 151 
98 715 257 74 81 90 
343 662 247 124 141 165 
110 644 293 128 78 85 
147 738 328 105 53 50 
237 303 281 114 91 65 
276 819 248 232 176 139 
215 153 260 110 47 61 
131 647 267 115 121 155 
41 709 207 161 162 214 
218 861 320 159 115 85 
79 449 336 133 88 68 
74 455 326 94 119 144 
176 489 338 132 135 143 
242 601 354 187 135 127 
311 182 266 112 55 49 
218 194 258 48 62 77 
90 515 259 66 95 125 
301 620 337 86 105 147 
299 374 308 208 180 152 
325 674 304 85 114 140 
356 62 193 149 124 101 
150 936 308 92 74 62 
252 826 242 243 180 142 
69 500 319 195 166 136 
171 174 286 106 42 63 
235 664 204 122 133 148 
164 345 229 137 142 153 
287 160 201 139 71 0 
306 350 314 164 39 82 
247 253 222 106 113 122 
203 603 366 174 168 170 
227 756 327 185 140 118 
198 208 261 88 75 82 
92 271 318 107 79 54 
212 214 260 108 104 104 
168 246 273 125 122 124 
79 537 294 111 123 149 
286 615 237 84 103 124 
229 399 198 143 149 162 
95 282 303 131 64 3 
350 46 229 99 84 71 
133 696 303 142 151 167 
172 993 268 167 142 119 
329 151 232 158 85 34 
187 939 246 131 98 59 
279 452 284 110 127 156 
269 492 339 77 100 134 
134 679 300 49 70 114 
196 960 327 90 73 61 
264 301 286 105 46 69 
229 295 208 147 146 150 
321 87 212 76 64 51 
153 878 295 145 112 83 
170 560 191 201 195 202 
113 276 327 103 86 100 
292 584 276 66 75 86 
129 646 258 157 158 166 
159 858 302 144 112 84 
155 262 235 89 98 106 
385 15 212 130 120 114 
345 122 227 131 102 76 
179 839 323 150 117 96 
327 125 292 131 115 102 
132 678 243 99 112 129 
237 633 363 120 73 50 
380 642 282 71 97 121 
152 331 309 118 58 75 
47 627 197 77 91 107 
274 323 342 135 137 146 
174 475 185 111 129 155 
283 798 228 182 134 94 
235 621 359 106 66 51 
252 327 296 87 78 73 
380 701 278 135 142 155 
232 760 325 213 159 133 
280 292 281 105 23 48 
90 565 290 127 131 141 
253 247 214 115 95 106 
141 584 364 73 100 152 
227 889 315 166 118 90 
254 245 213 138 44 64 
291 589 322 138 97 78 
189 262 268 97 110 127 
354 749 284 170 123 125 
232 618 356 69 54 59 
224 845 248 213 162 128 
48 648 192 160 104 109 
128 547 229 69 79 94 
216 731 337 150 118 94 
226 608 356 156 113 99 
374 705 274 142 149 161 
145 387 362 150 155 166 
334 603 262 50 80 107 
318 211 236 130 41 71 
67 662 193 88 110 129 
238 347 302 40 75 102 
261 158 206 131 52 7 
76 503 342 86 110 134 
75 440 324 139 144 155 
32 680 255 113 133 162 
250 240 219 118 31 38 
230 344 296 72 92 115 
155 250 288 118 118 123 
66 419 283 164 161 165 
75 616 268 90 87 89 
247 767 318 211 151 121 
68 441 286 142 135 138 
362 629 255 104 123 148 
205 403 307 52 75 103 
235 514 351 45 68 93 
173 325 225 126 130 139 
186 862 339 170 132 111 
280 486 356 69 100 163 
202 682 199 136 155 181 
263 898 296 151 121 95 
286 633 229 86 104 124 
243 680 204 153 159 172 
181 330 303 108 113 123 
268 780 300 210 149 119 
313 642 308 103 129 154 
135 302 316 67 31 43 
122 644 238 45 69 115 
218 674 358 167 90 50 
181 584 213 148 148 154 
267 374 336 69 85 110 
92 771 222 186 42 83 
221 823 274 173 121 97 
134 576 192 83 155 204 
297 318 339 138 125 115 
96 473 356 132 36 46 
155 423 207 63 95 122 
150 249 334 113 30 65 
308 198 292 111 92 87 
153 364 328 71 81 95 
210 875 334 186 137 112 
344 673 318 122 142 164 
237 335 208 149 107 60 
150 342 318 107 33 63 
213 447 341 111 127 157 
149 388 351 128 137 151 
77 557 332 148 131 126 
177 293 277 130 128 131 
20 645 208 111 107 106 
140 527 210 118 129 148 
91 453 252 78 102 131 
266 783 215 133 97 54 
193 351 299 81 95 113 
112 589 273 33 47 60 
326 769 296 206 183 166 
149 731 331 161 115 115 
235 699 346 99 89 112 
267 512 319 85 105 149 
284 819 250 238 175 137 
184 540 370 115 142 172 
166 567 194 199 193 201 
271 786 218 147 110 68 
225 713 343 194 170 155 
259 145 273 79 48 63 
248 244 223 105 81 87 
139 653 344 90 78 135 
240 483 212 94 116 143 
293 386 283 186 86 18 
149 916 312 97 78 64 
362 668 261 130 146 171 
366 726 271 76 69 81 
200 336 283 48 73 96 
83 312 266 133 65 0 
119 767 294 113 106 128 
269 129 238 141 101 92 
207 192 258 54 74 91 
146 745 205 123 124 130 
301 752 234 46 52 58 
204 965 314 94 69 53 
385 667 277 205 198 201 
115 500 370 129 91 38 
152 595 200 175 167 168 
286 333 248 144 162 186 
109 555 256 61 86 128 
232 485 199 76 103 132 
309 758 302 194 175 160 
168 165 290 132 66 72 
111 357 240 91 126 156 
314 803 260 199 135 105 
222 378 198 57 86 118 
218 539 362 117 143 171 
128 685 240 126 129 137 
59 674 247 72 94 148 
114 559 207 74 96 116 
74 651 275 158 107 89 
92 431 349 151 12 62 
238 887 281 139 93 69 
79 316 257 152 70 2 
197 436 187 165 164 171 
339 770 285 187 159 129 
200 621 236 82 74 71 
272 811 231 226 169 134 
164 588 368 114 144 186 
173 932 244 113 86 61 
271 344 347 122 105 102 
68 513 319 190 158 122 
193 752 204 51 47 45 
194 793 297 194 141 124 
270 260 277 117 117 121 
167 106 291 119 88 68 
169 373 329 68 100 131 
189 733 205 108 81 41 
160 70 307 118 96 74 
173 517 192 90 121 176 
233 678 349 115 86 66 
161 685 361 148 172 200 
147 297 300 85 102 121 
267 129 240 145 99 87 
282 702 219 131 142 157 
252 705 347 102 99 100 
321 120 230 88 74 60 
327 126 290 130 116 104 
257 447 336 80 97 127 
270 303 224 100 132 162 
212 713 345 130 84 88 
223 883 259 71 55 45 
184 523 362 87 118 148 
202 861 237 138 106 76 
255 563 346 121 142 166 
109 597 358 124 145 198 
151 706 352 138 163 188 
193 686 365 80 83 107 
331 669 309 130 153 182 
252 487 239 178 177 184 
94 419 349 161 112 85 
251 251 216 157 114 76 
29 707 230 91 121 195 
68 492 315 183 157 131 
308 372 327 216 185 153 
210 844 287 166 123 91 
246 338 229 99 102 108 
277 702 349 102 105 112 
143 364 326 90 93 111 
140 89 272 121 101 82 
157 373 335 61 84 109 
153 653 345 110 122 157 
224 871 311 157 108 81 
238 100 261 150 136 125 
141 697 319 86 108 130 
259 524 255 167 170 181 
94 631 188 157 162 176 
261 479 254 125 138 158 
262 249 275 108 108 113 
270 609 335 101 99 101 
225 308 207 93 111 131 
305 205 203 79 125 161 
138 480 201 58 90 121 
260 653 213 81 98 119 
175 887 240 81 67 56 
251 253 217 182 151 115 
266 414 249 69 91 113 
227 501 352 44 83 138 
267 793 216 163 117 78 
181 579 366 185 178 178 
150 527 361 75 96 125 
392 648 320 78 68 58 
74 728 262 76 100 144 
173 745 203 96 110 125 
65 627 283 108 85 117 
154 935 316 107 84 68 
274 276 212 113 141 186 
242 564 241 96 113 133 
51 626 242 68 87 105 
354 76 195 134 109 83 
121 408 238 112 118 130 
302 182 325 65 52 64 
75 393 296 143 47 87 
209 146 262 101 64 74 
334 741 253 134 112 92 
345 611 327 121 97 71 
298 166 198 135 60 1 
336 654 315 118 145 171 
108 494 366 147 75 16 
115 561 199 106 128 149 
295 799 236 185 134 95 
261 175 201 62 91 118 
276 314 341 125 125 130 
85 578 316 80 106 149 
211 371 293 35 56 74 
252 253 216 179 146 109 
214 505 184 120 135 151 
252 254 217 188 158 125 
101 489 362 182 151 124 
80 427 265 149 38 76 
124 606 358 136 162 213 
318 296 335 143 30 68 
222 448 330 78 90 110 
94 268 319 120 60 5 
69 615 234 74 98 120 
110 754 212 161 61 83 
224 227 234 46 53 60 
166 974 274 130 107 84 
326 137 273 166 75 7 
221 916 332 172 133 106 
315 169 200 167 72 7 
129 653 198 115 124 138 
374 26 195 129 103 71 
100 587 358 204 210 222 
194 359 295 70 92 121 
370 12 230 119 106 98 
308 247 335 85 113 137 
162 670 362 158 176 201 
265 700 353 141 109 130 
154 942 308 106 85 71 
222 389 306 67 78 92 
219 893 243 89 69 50 
225 229 234 60 50 54 
178 904 228 85 67 55 
255 598 345 135 90 84 
197 522 196 54 75 110 
301 235 269 87 132 165 
151 890 275 144 73 36 
230 727 207 95 35 40 
88 579 302 156 154 159 
187 578 217 109 126 149 
288 183 197 109 88 75 
149 241 330 82 33 37 
107 618 341 152 174 221 
149 290 295 106 113 125 
201 145 264 103 101 107 
393 695 296 99 119 181 
153 493 358 112 124 140 
316 588 283 84 97 111 
163 743 202 78 60 69 
169 855 272 146 112 83 
166 801 225 126 106 95 
228 225 235 69 50 49 
182 409 320 84 101 125 
356 52 191 128 103 78 
152 449 199 50 82 115 
277 586 277 69 109 141 
334 626 346 67 129 174 
234 509 350 58 82 115 
183 51 306 112 84 60 
144 64 284 103 87 71 
129 254 303 52 25 27 
273 480 337 60 87 127 
231 381 309 86 99 119 
176 660 367 171 185 206 
194 38 291 131 105 77 
134 664 293 64 49 75 
157 228 318 104 17 31 
272 143 209 126 111 102 
167 918 342 179 138 116 
295 279 308 90 107 126 
298 610 333 83 94 107 
356 623 299 84 77 73 
248 809 278 201 141 118 
50 623 222 76 102 127 
257 559 276 66 70 77 
390 643 280 124 137 154 
364 88 205 132 106 79 
233 400 201 96 123 152 
315 228 228 116 96 123 
299 675 310 96 104 133 
250 659 208 119 124 134 
354 113 213 147 113 84 
250 336 230 100 102 108 
309 584 300 96 89 86 
148 337 314 121 56 81 
73 357 268 125 73 86 
214 876 331 180 134 107 
128 508 208 143 149 164 
96 272 299 130 68 17 
91 636 298 172 120 105 
156 239 321 113 29 64 
252 689 349 90 77 94 
374 34 195 144 115 90 
45 686 193 231 214 221 
298 288 349 137 143 155 
154 328 304 115 63 69 
173 568 199 198 195 203 
49 734 241 76 104 192 
162 396 329 65 93 131 
233 769 209 96 90 88 
225 234 230 100 45 46 
124 308 239 129 124 123 
287 295 327 125 120 121 
182 360 320 70 104 136 
111 604 355 172 199 230 
84 482 350 157 93 64 
285 681 345 178 81 31 
134 470 366 147 129 113 
105 271 325 141 89 82 
299 381 310 216 187 158 
148 430 211 76 96 116 
186 260 269 127 127 133 
170 524 201 84 101 129 
195 134 271 138 95 79 
237 767 210 105 91 76 
171 853 325 141 114 88 
216 973 257 151 122 93 
219 843 270 165 117 87 
73 505 338 188 157 124 
208 113 260 191 94 47 
260 657 212 99 114 131 
158 107 268 96 78 57 
141 901 275 120 80 58 
252 491 354 83 100 130 
158 916 333 169 129 104 
196 413 331 109 128 157 
262 445 238 122 139 208 
223 372 300 50 77 99 
300 263 281 161 159 164 
267 720 348 185 162 147 
131 452 214 39 79 115 
156 811 239 121 138 157 
308 360 322 193 147 107 
73 435 279 141 89 107 
203 837 317 139 99 72 
228 236 231 108 43 54 
252 768 213 104 95 89 
216 917 235 89 66 45 
69 635 188 131 64 84 
215 345 284 72 79 89 
193 640 364 45 74 99 
162 224 295 105 46 65 
333 154 207 150 133 117 
193 361 310 49 81 113 
216 714 344 119 108 117 
224 232 232 88 46 49 
122 678 193 138 154 181 
152 422 344 76 96 123 
242 110 266 150 77 8 
288 745 226 122 107 101 
200 615 238 49 67 84 
227 232 232 88 42 50 
110 737 206 154 181 208 
170 829 253 187 141 111 
11 667 204 183 174 174 
303 124 229 137 121 110 
176 125 286 120 113 115 
224 343 289 61 76 96 
67 682 244 62 78 118 
290 177 198 119 82 69 
307 187 291 134 40 60 
290 279 341 82 91 114 
106 783 236 150 104 94 
308 236 285 155 148 146 
140 326 234 91 130 164 
133 688 280 83 102 127 
148 438 207 87 104 122 
222 963 277 88 66 45 
237 500 345 52 69 91 
223 497 352 92 115 143 
149 409 220 92 103 117 
86 648 283 158 108 90 
129 419 229 92 104 118 
45 629 198 67 76 87 
388 26 207 180 160 148 
264 263 209 140 151 167 
167 765 211 141 119 98 
118 670 322 174 111 106 
85 314 319 154 22 72 
174 796 220 88 125 155 
118 645 265 138 142 153 
187 306 275 129 128 131 
150 467 195 76 103 129 
108 410 341 84 102 122 
140 127 294 106 86 65 
319 634 328 112 131 171 
275 158 204 128 60 2 
171 801 285 175 126 107 
311 228 305 92 121 145 
78 514 346 188 158 125 
256 598 344 128 82 79 
392 673 284 132 148 182 
202 930 343 193 139 115 
138 696 196 81 144 191 
235 224 235 120 34 20 
281 334 247 137 144 160 
276 341 329 125 101 80 
234 227 235 133 42 29 
116 762 290 129 100 95 
235 227 235 137 46 24 
275 245 280 121 119 121 
191 422 322 106 113 126 
233 224 236 112 43 29 
257 519 360 147 154 170 
99 577 362 114 138 187 
234 224 236 119 43 31 
29 669 257 62 81 155 
170 715 359 103 42 56 
277 458 323 104 132 186 
259 502 267 103 116 149 
317 73 188 168 105 74 
330 127 270 131 117 105 
179 126 271 154 152 155 
263 798 281 215 153 119 
173 926 345 201 151 133 
321 731 243 152 122 109 
160 896 258 76 61 50 
138 122 261 109 90 69 
202 711 352 47 31 67 
253 441 342 81 103 132 
187 689 198 185 183 189 
37 649 264 118 141 166 
230 817 273 189 133 109 
65 656 266 148 100 80 
144 404 226 71 93 113 
285 642 341 99 70 87 
200 21 331 159 114 96 
308 216 273 103 51 65 
302 639 313 98 123 147 
168 529 363 95 116 138 
139 770 215 163 116 79 
144 725 327 188 46 69 
160 209 306 27 58 98 
261 495 264 154 158 173 
113 313 243 104 92 80 
160 956 270 93 66 51 
191 844 231 172 125 89 
84 475 350 182 153 121 
151 730 338 111 25 47 
238 226 234 138 26 22 
238 226 235 139 32 25 
242 614 350 127 91 92 
172 606 362 188 184 190 
171 953 253 89 67 42 
150 262 339 71 101 130 
236 228 235 138 47 18 
236 229 235 137 46 22 
268 489 338 85 106 136 
157 482 188 58 96 136 
154 257 295 112 113 120 
371 725 302 198 116 119 
362 720 267 167 34 54 
237 231 235 131 36 19 
268 435 236 182 182 191 
307 238 284 125 116 119 
268 367 243 149 126 113 
197 533 360 102 113 130 
323 57 196 115 92 78 
149 287 310 119 117 120 
223 867 289 153 112 84 
186 989 292 87 62 39 
132 668 298 138 99 92 
277 581 335 146 105 89 
47 709 204 184 187 217 
77 300 279 111 91 63 
124 282 322 77 27 33 
183 555 370 167 185 209 
285 296 330 120 116 117 
295 330 312 154 108 70 
172 449 187 122 132 151 
307 124 243 133 118 105 
141 573 192 83 148 200 
293 124 251 169 87 37 
140 784 219 202 181 165 
224 651 208 124 123 127 
173 473 334 114 121 133 
342 63 226 101 85 69 
141 336 322 95 83 93 
151 291 315 122 118 120 
95 609 327 138 144 191 
116 652 226 58 84 121 
124 709 253 99 108 121 
97 294 327 122 102 128 
140 359 345 91 103 128 
85 766 223 174 80 104 
232 237 233 106 46 46 
266 361 309 53 68 86 
92 414 344 104 124 146 
324 621 346 74 89 155 
164 963 251 113 88 58 
99 491 241 64 93 125 
329 649 313 136 156 180 
279 336 242 157 154 158 
166 744 331 167 119 112 
268 590 267 90 120 148 
278 123 263 172 85 28 
47 625 200 94 91 91 
265 741 338 137 150 165 
67 420 281 145 144 151 
195 672 199 162 165 174 
210 614 246 47 66 83 
218 515 357 57 75 104 
110 699 198 142 62 57 
235 239 233 108 69 78 
140 700 326 100 118 138 
150 665 196 98 129 160 
79 650 277 155 106 89 
108 414 343 76 97 119 
198 297 212 141 142 147 
105 604 280 56 80 103 
202 27 314 186 157 156 
247 333 226 96 100 108 
205 308 272 105 106 110 
258 445 239 129 149 209 
116 789 279 164 151 162 
322 145 299 95 68 96 
244 251 269 82 96 111 
217 943 321 110 80 64 
279 459 320 175 183 198 
141 732 314 130 36 48 
239 235 233 130 36 29 
86 365 254 138 136 141 
111 654 313 166 113 103 
47 627 239 70 86 104 
388 29 227 144 130 126 
198 772 314 198 153 130 
176 335 223 144 121 97 
285 763 223 128 102 71 
225 797 294 211 144 122 
328 127 250 143 131 120 
133 426 224 62 90 116 
110 536 236 82 97 119 
170 824 240 206 149 118 
58 741 246 116 145 181 
65 739 221 211 203 209 
79 543 353 187 71 8 
208 765 320 190 143 118 
294 186 328 72 40 44 
260 773 214 76 61 50 
263 535 271 114 130 150 
158 723 201 133 26 33 
177 588 211 95 89 102 
208 783 216 171 160 153 
165 265 224 89 112 136 
