ply
format ascii 1.0
comment Created by CloudCompare v2.11.1 (Anoia)
comment Created 2/28/22 9:45 PM
obj_info Generated by CloudCompare!
element vertex 2033
property float x
property float y
property float z
property uchar red
property uchar green
property uchar blue
end_header
290 422 319 148 72 87 
216 259 275 100 97 98 
107 398 343 112 113 120 
346 131 232 123 97 72 
104 595 287 43 57 73 
123 452 370 130 101 83 
177 963 302 142 102 71 
264 629 224 126 128 135 
106 705 248 94 96 122 
210 652 367 159 134 108 
236 498 209 107 120 137 
167 956 310 85 71 64 
251 330 357 102 119 137 
40 731 237 97 122 202 
295 165 312 98 93 98 
207 763 316 211 160 134 
230 333 307 118 121 129 
273 465 357 54 96 164 
77 249 273 104 95 87 
247 809 221 236 169 134 
322 195 305 112 91 84 
270 470 290 125 135 170 
206 593 365 184 177 179 
173 987 265 158 127 91 
161 614 218 157 169 190 
238 682 348 80 77 90 
317 316 328 203 172 140 
244 614 347 84 71 73 
99 475 239 140 146 159 
282 445 309 178 179 192 
333 93 199 142 111 76 
40 639 276 101 122 153 
281 250 225 144 57 85 
312 271 291 141 142 149 
170 826 266 163 120 92 
282 583 302 59 51 63 
245 521 217 97 116 142 
129 487 371 133 138 157 
124 668 308 146 91 84 
314 136 213 127 99 63 
255 528 348 68 76 87 
243 472 250 137 140 149 
93 721 264 85 93 104 
159 672 366 153 172 195 
313 318 313 186 157 127 
301 677 300 129 56 58 
96 352 251 78 126 163 
175 666 369 136 162 191 
184 368 208 108 116 127 
128 728 201 143 50 46 
312 336 276 140 56 84 
178 773 214 197 174 159 
179 340 303 118 122 134 
76 252 273 123 110 98 
166 101 273 108 84 56 
235 861 300 152 123 96 
76 252 274 127 109 89 
190 475 350 83 109 141 
76 254 272 100 88 76 
208 552 195 144 156 183 
74 339 327 65 50 66 
234 503 361 61 90 134 
314 310 315 181 152 121 
74 615 285 78 78 81 
86 292 265 111 71 25 
181 389 196 42 79 108 
186 617 366 192 182 181 
77 249 280 131 77 19 
215 445 343 135 146 162 
199 310 226 109 118 129 
308 137 214 105 87 70 
277 363 262 138 107 73 
137 692 316 102 112 129 
316 109 213 103 81 56 
78 248 280 132 76 20 
235 826 263 173 119 88 
78 249 281 131 71 16 
247 408 348 76 89 107 
320 149 267 39 70 110 
223 943 299 84 67 55 
341 601 313 113 95 77 
236 617 354 118 85 77 
286 692 313 164 128 105 
259 210 223 123 50 25 
156 223 321 118 34 23 
241 487 241 161 160 166 
82 511 265 72 97 121 
293 261 331 116 129 146 
289 237 304 113 113 119 
293 623 320 104 120 145 
110 442 224 99 116 136 
339 611 287 54 71 86 
171 576 372 137 155 189 
349 698 309 146 102 118 
341 646 237 79 108 158 
180 707 361 65 69 111 
357 62 194 150 122 99 
290 247 297 117 117 123 
210 544 367 123 147 173 
120 701 202 132 77 83 
333 620 236 98 122 152 
208 939 242 114 85 60 
296 291 343 132 129 131 
301 171 312 79 80 89 
74 700 200 96 122 174 
142 171 298 109 86 60 
78 255 282 130 70 17 
219 362 307 61 83 111 
151 745 326 156 143 158 
280 182 333 112 46 66 
264 486 284 114 130 152 
170 154 280 99 82 83 
285 434 306 186 186 195 
172 150 272 103 100 99 
81 260 315 111 106 107 
242 398 231 71 100 127 
115 282 331 139 76 82 
310 360 285 198 166 132 
183 895 342 154 123 99 
323 185 281 132 45 25 
62 390 300 146 93 101 
197 377 303 60 79 97 
358 619 277 92 117 143 
279 323 341 141 121 99 
251 352 330 56 84 107 
267 405 363 77 110 155 
100 364 254 135 142 156 
39 726 227 193 189 217 
300 172 212 107 52 68 
151 254 292 118 109 110 
104 658 332 170 116 107 
285 693 316 159 119 104 
138 471 359 145 142 145 
288 123 330 146 68 5 
226 888 295 127 86 65 
35 626 221 93 106 122 
137 553 246 61 77 95 
194 839 325 164 122 104 
109 452 369 173 149 124 
156 177 299 66 28 25 
132 759 304 143 107 116 
257 659 209 61 97 131 
365 90 223 145 112 84 
148 66 293 110 92 74 
322 234 267 64 74 100 
299 396 344 184 94 24 
290 408 330 141 117 110 
248 447 362 83 105 147 
130 451 204 70 103 145 
248 450 364 117 135 163 
303 769 236 114 92 71 
151 718 352 53 63 128 
175 933 241 128 95 60 
245 497 231 61 95 131 
228 418 213 88 116 145 
235 316 241 138 137 140 
265 276 245 118 124 135 
83 400 269 191 136 63 
190 451 189 128 143 163 
143 388 337 84 100 128 
267 610 236 71 100 126 
240 746 210 124 108 96 
326 642 314 131 155 182 
243 404 232 112 125 143 
292 168 214 107 120 134 
150 114 298 121 96 69 
95 229 261 80 84 91 
204 259 238 131 133 139 
324 650 303 123 146 170 
242 160 262 87 43 43 
92 615 304 68 83 99 
130 682 314 145 153 170 
287 738 317 205 185 170 
204 939 329 113 86 69 
94 231 261 88 89 93 
288 267 332 85 115 140 
247 626 224 53 89 117 
351 119 228 134 104 76 
280 775 220 82 89 98 
93 645 291 140 92 78 
301 260 332 130 133 140 
107 503 235 97 114 134 
292 253 306 91 103 117 
68 499 291 64 95 125 
157 222 295 79 36 76 
133 680 292 94 63 96 
90 230 271 134 91 78 
137 227 298 40 26 24 
315 255 335 135 130 131 
148 683 344 122 150 179 
263 722 342 163 139 113 
208 805 220 169 127 86 
216 520 187 157 154 159 
253 569 340 72 71 72 
114 580 272 80 86 95 
131 207 319 136 61 6 
173 962 298 115 92 69 
234 799 284 204 140 118 
311 65 198 87 70 57 
60 474 305 99 120 142 
139 406 200 78 108 135 
337 682 240 147 156 173 
214 604 248 75 79 85 
261 618 232 53 90 120 
155 885 324 166 129 106 
172 645 365 145 144 151 
314 686 229 149 163 183 
75 332 325 61 36 53 
78 309 253 142 66 0 
226 624 366 46 37 63 
374 12 238 123 111 103 
353 652 330 92 126 172 
327 608 330 79 88 100 
106 409 242 138 140 149 
122 261 320 77 33 47 
173 137 276 71 74 82 
256 263 242 186 79 6 
209 550 368 130 155 185 
92 224 270 72 67 63 
163 771 304 174 145 120 
85 778 251 183 43 49 
173 13 323 112 102 97 
297 686 221 145 147 156 
263 384 350 61 66 97 
394 647 303 51 61 71 
158 224 304 57 44 80 
203 983 263 124 96 72 
259 512 348 91 109 138 
126 332 326 90 76 66 
13 689 214 211 210 222 
89 306 323 114 70 72 
172 417 191 80 103 131 
149 741 204 67 90 117 
301 263 236 194 180 172 
223 825 229 219 162 125 
203 832 283 162 116 88 
73 740 216 155 183 213 
296 197 318 99 67 67 
187 674 364 102 129 155 
148 280 227 170 166 171 
112 407 234 143 139 140 
226 674 203 126 136 157 
9 648 208 82 94 114 
274 157 305 33 40 59 
317 119 253 120 109 98 
227 795 216 163 120 81 
271 366 351 123 104 86 
79 265 288 76 58 57 
70 544 347 182 73 5 
259 602 329 52 46 42 
212 516 354 68 85 103 
307 230 326 73 107 135 
134 128 262 105 87 68 
316 245 333 78 114 144 
255 408 354 39 64 103 
45 691 198 173 165 169 
79 556 367 137 113 94 
374 670 323 125 150 190 
253 545 335 139 149 165 
164 657 361 48 48 67 
301 118 263 131 106 90 
93 229 268 57 62 70 
253 512 278 50 68 107 
92 228 271 70 64 62 
298 278 337 122 129 141 
308 319 263 135 143 157 
212 518 354 60 78 99 
354 692 254 163 171 186 
318 186 265 100 31 45 
106 497 239 72 95 137 
295 657 220 143 143 150 
163 848 317 145 113 84 
110 429 229 37 69 107 
148 281 304 104 96 97 
324 134 280 132 91 62 
171 448 323 41 68 90 
228 945 283 77 61 50 
290 621 228 83 106 129 
122 364 223 127 129 135 
164 442 321 50 77 108 
251 752 326 213 153 123 
83 602 230 83 107 131 
92 233 263 78 74 72 
248 607 251 44 94 126 
142 802 238 200 179 163 
174 986 274 126 95 63 
349 729 258 135 30 64 
312 763 241 186 166 151 
283 581 303 73 65 60 
152 219 313 66 34 52 
130 409 207 87 107 127 
122 476 371 162 147 140 
114 313 317 57 30 33 
261 515 293 101 110 125 
159 861 284 112 87 61 
250 370 246 138 141 151 
68 705 260 63 90 134 
209 974 282 136 110 83 
74 512 357 191 162 133 
225 425 212 147 151 164 
66 330 290 129 80 70 
275 745 218 129 114 100 
206 548 368 77 108 145 
231 945 276 118 96 73 
310 632 319 161 171 187 
192 396 196 70 97 123 
186 910 345 191 150 128 
251 634 219 117 120 127 
74 482 279 89 114 144 
222 361 218 111 124 139 
309 78 205 111 88 67 
69 658 245 83 116 143 
303 587 252 41 89 123 
107 416 352 146 125 103 
325 724 242 157 126 89 
137 133 259 122 95 60 
84 558 283 158 150 148 
395 653 275 112 136 192 
92 237 263 86 72 63 
190 851 226 203 138 93 
224 458 206 84 109 136 
156 506 353 135 133 136 
74 575 341 131 142 173 
273 142 222 111 102 94 
197 760 209 137 99 58 
246 532 222 135 148 170 
390 19 249 179 132 113 
319 72 217 94 78 63 
93 238 262 84 73 66 
204 602 237 76 75 79 
234 222 265 110 105 105 
255 786 290 212 149 123 
71 374 273 65 91 124 
164 367 207 103 76 76 
248 447 363 82 106 151 
149 881 312 162 117 93 
77 609 239 78 100 122 
100 398 247 103 119 137 
91 234 266 70 66 67 
261 516 316 106 119 140 
176 645 206 123 124 130 
155 904 331 174 134 109 
307 603 237 60 85 108 
320 145 258 93 78 93 
220 789 296 216 148 127 
52 744 240 134 142 185 
165 608 214 108 145 183 
90 508 256 49 84 119 
260 504 347 100 118 146 
89 234 269 76 69 66 
196 905 229 75 56 37 
154 266 332 57 96 124 
79 477 356 184 152 117 
326 219 316 125 37 69 
208 959 249 131 104 75 
237 790 212 156 114 75 
138 313 345 136 138 145 
94 590 360 116 138 205 
257 457 250 112 134 165 
276 787 221 159 115 77 
314 193 319 124 97 97 
321 622 334 110 130 170 
324 191 287 111 69 84 
235 717 340 176 149 121 
288 439 353 100 129 175 
135 507 214 183 178 180 
151 263 288 119 115 117 
116 723 268 126 134 150 
219 878 254 73 55 45 
106 649 227 68 92 120 
125 587 206 96 139 186 
260 564 331 60 62 66 
144 562 240 67 77 89 
175 633 368 105 57 72 
166 969 282 133 108 84 
229 272 287 67 88 106 
40 720 213 200 205 235 
231 819 225 233 168 132 
217 922 324 151 118 97 
257 568 338 105 90 79 
307 745 234 121 110 100 
144 455 347 146 141 142 
234 769 312 216 153 125 
358 623 322 123 99 73 
51 651 276 166 115 92 
314 296 295 155 100 75 
71 429 332 130 134 144 
386 688 284 89 114 177 
111 427 359 151 131 111 
306 294 252 131 151 175 
306 723 232 137 85 67 
306 311 352 184 163 144 
328 679 235 143 151 167 
151 770 215 128 108 98 
82 262 316 124 117 117 
89 237 268 79 63 59 
353 105 207 136 106 75 
261 165 222 143 67 65 
76 298 272 93 84 77 
356 732 268 158 113 53 
86 719 204 171 164 178 
210 879 237 83 64 50 
91 263 314 127 48 72 
180 935 337 169 132 117 
161 976 245 138 113 92 
137 685 317 79 91 145 
124 707 267 97 104 127 
192 896 225 69 55 39 
92 234 264 74 67 63 
223 863 294 132 99 73 
260 300 314 124 104 84 
74 652 263 99 90 84 
152 105 263 111 85 50 
92 236 264 82 66 57 
318 786 266 171 134 107 
327 230 309 86 116 142 
112 620 353 153 164 196 
216 936 246 98 71 47 
239 337 241 111 121 135 
386 642 277 84 112 139 
120 481 371 121 105 89 
162 922 336 198 149 131 
300 397 310 187 75 6 
148 651 350 142 157 193 
147 926 312 109 86 70 
153 362 208 140 123 106 
202 359 302 78 95 114 
329 208 259 55 45 65 
205 356 302 77 96 115 
342 118 210 153 117 81 
165 217 279 104 14 47 
266 470 281 117 130 157 
188 676 200 142 160 185 
272 197 322 75 34 42 
196 960 318 96 76 60 
344 141 231 111 99 90 
189 482 349 79 103 144 
259 384 256 106 120 141 
281 755 313 161 111 79 
128 297 312 55 32 29 
125 748 210 193 147 85 
176 713 202 170 50 53 
86 230 279 110 101 91 
178 783 217 73 70 87 
361 623 272 88 110 130 
261 602 321 32 31 35 
380 698 298 184 199 221 
81 462 360 187 157 124 
232 892 273 121 79 57 
148 384 324 57 82 122 
376 697 308 149 179 209 
253 382 357 44 81 133 
246 245 275 90 99 111 
264 782 213 149 109 67 
158 271 283 72 95 116 
263 153 282 76 44 55 
134 377 362 80 123 158 
87 230 280 114 106 99 
310 694 228 126 105 116 
341 621 337 137 142 152 
152 392 197 85 107 130 
185 569 198 150 175 208 
338 56 221 82 72 64 
161 345 318 111 109 129 
146 565 193 179 181 192 
92 774 233 235 170 106 
395 23 224 187 169 159 
89 737 272 111 121 134 
220 652 355 191 137 66 
83 235 274 110 98 89 
216 523 187 108 120 141 
128 694 258 111 114 124 
198 651 368 78 76 82 
179 865 226 135 100 72 
154 360 323 103 112 131 
285 708 325 132 95 65 
246 260 282 69 63 71 
386 693 292 157 171 218 
307 352 271 215 179 134 
313 343 334 172 48 90 
182 889 217 119 97 76 
239 800 215 206 140 101 
225 848 272 150 111 87 
84 491 262 48 82 119 
20 680 257 30 48 107 
187 52 288 118 96 73 
177 610 223 169 165 172 
188 364 209 52 84 110 
384 693 298 174 184 224 
326 222 299 118 77 97 
324 598 291 87 92 101 
33 689 248 55 71 109 
58 749 230 64 88 145 
263 281 344 80 82 94 
81 238 275 118 107 99 
127 747 307 97 56 52 
73 644 290 163 113 94 
298 332 259 131 155 194 
296 190 215 101 89 102 
83 237 272 115 103 91 
212 908 333 177 133 109 
121 269 326 113 38 60 
234 501 360 59 85 132 
169 735 205 128 82 73 
244 760 210 147 128 113 
345 698 249 147 163 183 
235 755 209 160 126 85 
138 441 360 140 126 126 
63 515 330 186 155 123 
156 737 202 94 74 75 
92 269 256 86 76 68 
87 362 257 147 142 144 
317 119 248 115 104 94 
135 258 299 42 30 25 
185 181 259 77 74 77 
105 430 356 113 13 52 
314 306 272 128 135 147 
80 310 242 215 81 22 
80 237 278 116 109 104 
271 321 329 95 80 86 
267 380 353 109 92 81 
156 586 372 195 200 213 
341 712 249 157 27 38 
215 905 330 168 130 102 
216 765 314 207 149 124 
80 239 276 119 110 101 
27 685 200 217 206 210 
313 236 289 91 64 70 
264 669 350 182 121 42 
151 262 287 117 114 117 
315 791 261 198 139 106 
203 397 317 40 58 73 
334 188 233 115 110 121 
159 804 270 190 141 115 
86 312 250 171 87 28 
121 591 207 98 101 118 
78 765 268 112 115 128 
336 599 256 80 105 128 
218 113 257 143 71 13 
171 73 265 128 103 79 
191 845 329 133 99 75 
139 720 331 148 71 90 
179 210 264 77 29 42 
325 265 322 95 116 139 
110 458 371 128 128 131 
284 780 223 148 111 72 
277 170 293 81 40 45 
262 516 312 90 116 147 
253 756 321 215 151 123 
395 668 305 203 209 224 
153 628 357 55 54 73 
305 374 355 180 78 7 
335 180 244 99 99 108 
292 249 305 101 109 121 
153 777 217 189 148 100 
99 332 244 139 134 136 
114 303 333 108 85 88 
275 218 339 104 98 104 
87 235 272 113 102 94 
197 317 305 107 120 136 
160 981 254 166 134 112 
101 283 319 65 88 108 
318 117 277 118 103 90 
88 298 258 120 69 21 
383 640 314 78 69 61 
297 748 230 153 137 126 
288 734 224 138 122 112 
301 284 343 161 143 127 
60 467 309 134 139 151 
168 321 231 133 118 104 
197 771 312 208 154 127 
110 419 233 96 111 129 
176 706 201 151 162 178 
314 296 269 160 157 161 
259 520 351 45 48 74 
236 595 265 60 74 89 
290 426 305 151 168 193 
189 395 196 99 116 135 
37 629 261 119 120 124 
65 338 291 99 93 95 
320 625 231 69 112 144 
102 524 241 128 126 129 
81 236 280 110 103 97 
297 768 296 171 122 96 
209 936 327 140 105 84 
81 342 261 109 58 83 
271 392 363 100 121 151 
119 418 218 71 95 119 
82 237 280 111 103 96 
194 381 305 62 79 95 
128 577 373 145 166 204 
77 570 309 117 128 144 
203 427 194 95 119 146 
217 380 211 92 111 132 
307 591 248 26 68 109 
258 192 228 117 28 36 
170 534 215 85 92 102 
164 234 276 112 108 108 
148 268 295 112 105 107 
212 285 300 64 67 77 
83 238 283 113 86 52 
94 620 326 101 99 166 
83 239 283 118 81 32 
337 163 242 49 73 102 
143 321 351 96 84 96 
86 677 227 81 98 118 
203 669 368 100 120 140 
235 487 211 57 91 118 
83 639 193 190 190 204 
148 916 249 78 60 53 
202 573 213 144 163 187 
291 333 357 176 154 134 
123 306 311 57 22 34 
356 109 216 145 116 86 
263 655 211 155 150 152 
327 764 252 136 104 80 
299 721 304 140 124 123 
146 290 305 102 103 109 
14 672 199 163 72 85 
140 75 263 121 100 79 
144 725 204 123 23 34 
169 840 251 171 131 101 
103 444 360 142 118 92 
107 547 373 162 141 120 
322 780 272 118 109 112 
238 455 340 86 95 113 
87 232 284 112 101 89 
64 402 311 97 120 139 
147 72 289 101 85 69 
230 153 259 46 40 46 
76 705 200 80 97 117 
89 593 198 159 144 167 
256 301 315 127 100 67 
200 442 337 140 147 159 
197 247 269 77 74 74 
309 352 273 178 122 78 
224 790 294 212 142 124 
212 770 211 145 122 101 
102 587 198 140 140 171 
238 533 208 95 124 166 
87 235 287 115 68 16 
65 468 330 118 125 137 
142 635 357 67 69 86 
71 523 287 106 117 138 
201 684 201 162 166 184 
235 403 334 96 105 118 
210 787 299 210 146 127 
332 647 313 140 161 184 
85 236 285 117 72 25 
166 157 298 88 78 81 
174 632 215 69 99 126 
307 356 313 161 22 73 
245 321 248 123 111 106 
241 651 208 136 137 145 
184 451 331 121 127 138 
74 339 306 111 41 65 
269 642 217 101 107 118 
325 214 321 116 78 88 
257 118 288 125 56 10 
265 446 357 104 125 157 
298 604 326 44 63 83 
245 321 314 99 106 117 
190 363 210 69 93 114 
179 526 365 145 157 173 
150 708 355 156 147 158 
152 303 231 128 128 133 
135 732 202 199 11 39 
178 533 369 118 139 163 
183 155 258 78 89 102 
92 440 257 85 108 134 
88 305 243 187 89 1 
143 296 300 85 99 118 
304 690 225 129 153 178 
71 371 272 64 37 72 
217 377 310 47 73 108 
43 646 195 78 147 199 
211 839 230 193 144 106 
125 727 283 102 119 137 
157 666 360 95 123 149 
250 567 340 94 103 115 
248 333 320 68 86 104 
126 737 297 74 62 73 
92 389 341 109 119 133 
140 493 204 161 168 183 
384 13 234 125 105 93 
29 660 269 115 120 161 
191 404 193 60 95 128 
150 259 301 70 83 104 
158 598 370 169 184 206 
50 610 210 116 121 129 
196 670 368 96 90 94 
110 465 371 173 140 100 
237 703 206 72 86 129 
156 854 293 136 107 80 
180 806 281 178 124 105 
96 735 272 89 100 113 
324 132 275 155 74 8 
103 523 241 133 128 129 
88 226 277 109 98 89 
211 696 351 199 69 44 
370 633 251 80 97 116 
285 138 325 77 83 98 
232 862 289 147 107 79 
315 218 287 108 33 59 
272 242 283 57 43 57 
285 691 321 130 66 88 
135 324 342 94 98 105 
137 104 273 89 75 62 
129 207 321 138 65 11 
199 973 290 129 90 64 
258 816 230 236 176 139 
158 318 310 91 74 59 
74 570 352 141 122 100 
101 664 197 96 126 158 
244 203 263 92 45 61 
79 507 367 196 164 131 
190 851 331 97 69 59 
262 217 347 150 129 109 
130 583 204 98 158 202 
112 794 273 139 132 134 
259 563 313 90 84 82 
205 362 303 55 82 106 
73 399 277 100 104 111 
152 767 305 205 175 146 
242 557 359 97 129 178 
336 93 198 142 113 82 
170 86 300 128 98 77 
206 611 360 108 38 62 
106 269 319 93 74 85 
174 943 331 90 72 64 
147 664 198 172 169 174 
90 229 272 76 70 66 
90 229 273 79 75 73 
66 341 291 92 91 97 
197 752 326 212 192 179 
100 540 252 63 88 115 
205 884 331 157 120 99 
88 228 276 85 79 75 
88 228 277 100 90 83 
336 606 282 95 108 123 
128 314 319 91 78 60 
67 540 333 167 67 1 
125 408 368 92 118 145 
147 361 339 118 127 139 
207 812 278 172 119 96 
233 547 210 156 176 199 
364 45 193 137 112 88 
314 241 294 117 118 124 
268 767 215 133 124 118 
80 533 275 74 92 116 
250 351 357 124 14 70 
89 225 280 105 96 88 
314 337 289 190 167 142 
111 609 198 151 159 173 
265 731 214 57 70 99 
60 399 298 130 0 47 
370 13 248 130 117 110 
89 225 282 116 106 97 
295 253 329 144 145 152 
88 226 280 113 103 95 
395 18 248 164 128 95 
265 198 227 110 42 48 
130 777 289 174 156 150 
394 22 214 123 112 104 
272 291 343 112 127 145 
219 305 235 99 114 130 
217 127 257 89 103 117 
97 308 322 88 59 63 
238 913 291 95 77 68 
188 384 199 108 120 134 
198 420 192 39 79 120 
326 198 310 68 99 123 
217 472 197 85 105 126 
274 448 333 93 120 179 
238 159 261 90 38 41 
81 288 312 68 72 77 
187 951 331 108 89 75 
266 487 346 74 100 141 
371 63 229 124 100 74 
197 594 230 141 143 152 
266 804 224 220 164 129 
264 382 350 85 67 61 
170 106 286 104 78 55 
225 430 215 141 153 173 
77 314 319 83 49 73 
80 573 301 103 113 127 
313 762 293 156 147 144 
166 839 307 130 103 74 
374 657 260 130 152 178 
153 377 200 125 126 131 
200 722 347 186 162 158 
120 397 224 50 83 117 
340 669 240 133 145 164 
160 665 198 124 77 89 
198 835 226 200 137 101 
238 259 279 63 90 112 
122 653 296 33 30 48 
154 378 313 32 70 113 
303 255 233 175 52 95 
88 229 287 116 99 81 
298 249 228 163 11 60 
192 877 336 183 132 119 
255 695 209 175 182 196 
157 576 199 201 199 207 
168 568 374 100 132 176 
108 782 285 125 116 122 
196 252 271 76 81 88 
288 613 342 112 146 195 
143 475 355 126 129 137 
214 280 296 60 79 96 
173 137 270 106 95 88 
318 141 306 108 64 62 
185 340 221 105 113 125 
99 578 367 64 95 168 
197 866 234 115 87 65 
85 538 271 116 115 119 
74 494 279 40 78 124 
95 776 229 205 43 78 
291 637 224 62 99 131 
75 363 327 54 81 106 
179 441 188 139 146 160 
129 348 342 93 109 127 
184 958 236 98 74 43 
168 913 232 75 60 46 
389 15 223 132 112 102 
70 540 301 73 94 142 
207 501 357 88 96 122 
21 689 249 101 132 179 
189 502 361 50 76 118 
82 241 271 121 103 91 
141 397 353 143 146 155 
248 409 243 81 106 132 
206 459 193 122 140 164 
265 207 273 75 73 83 
83 242 269 122 99 86 
73 640 193 192 190 200 
115 416 361 160 139 122 
241 870 296 147 117 86 
67 414 316 63 102 135 
165 714 203 156 33 55 
240 694 346 116 89 82 
113 589 256 103 114 128 
99 379 256 131 129 133 
183 929 340 198 153 130 
75 477 280 107 121 139 
155 94 261 101 78 47 
255 739 211 129 108 92 
264 346 334 47 73 98 
169 686 199 85 147 195 
178 986 267 116 88 68 
174 882 230 92 73 54 
176 896 342 132 106 81 
122 644 261 159 158 166 
322 642 312 171 176 191 
132 551 245 82 98 117 
193 433 191 114 120 144 
220 883 317 172 124 96 
63 453 321 103 131 158 
167 899 340 86 65 51 
80 687 199 108 150 204 
186 311 231 111 74 72 
299 782 234 150 115 76 
326 157 251 94 41 43 
240 544 216 157 173 196 
58 691 197 207 207 221 
362 685 258 85 113 159 
155 173 291 66 38 27 
146 907 310 139 107 84 
194 943 237 127 90 48 
105 783 239 144 123 101 
208 869 241 100 78 64 
147 111 296 113 92 69 
320 151 258 43 79 113 
140 83 284 102 86 69 
270 177 326 84 31 53 
184 600 223 116 135 163 
199 659 370 97 87 82 
127 519 374 131 144 174 
84 649 229 139 139 146 
266 307 317 108 57 61 
71 516 351 183 154 123 
141 345 225 103 115 128 
213 946 310 101 80 65 
86 241 269 123 94 79 
362 701 310 135 162 190 
163 116 273 93 74 53 
193 212 259 77 23 37 
272 488 356 74 89 144 
86 242 269 130 97 81 
107 624 194 108 139 168 
296 118 308 102 92 87 
125 300 308 43 36 36 
99 736 272 93 103 116 
260 307 255 89 121 151 
84 246 267 123 92 73 
192 525 366 107 119 140 
149 915 246 91 74 63 
211 956 301 96 81 71 
85 246 267 129 92 70 
308 256 238 133 83 113 
86 244 266 125 91 71 
108 294 245 140 54 6 
186 398 317 107 117 132 
113 425 362 160 137 115 
274 155 327 39 52 74 
106 274 321 90 81 89 
271 194 321 66 35 32 
146 324 341 72 108 136 
82 471 362 191 160 128 
378 645 285 62 81 99 
256 333 325 92 99 110 
175 336 307 127 132 143 
270 305 330 108 74 73 
130 698 289 92 118 143 
211 318 302 83 97 112 
91 603 302 76 90 127 
87 250 263 120 80 48 
216 844 276 166 121 92 
86 252 263 134 81 54 
148 516 359 101 111 125 
188 720 205 134 26 31 
191 980 243 133 98 67 
124 797 270 201 164 125 
203 864 329 161 123 96 
61 366 274 118 59 75 
140 103 289 112 92 71 
134 785 281 177 149 127 
155 552 235 90 93 100 
77 524 367 208 175 141 
146 375 335 82 101 131 
80 279 320 52 82 108 
115 587 202 82 150 202 
147 588 369 94 119 164 
286 347 359 188 159 128 
238 824 234 237 174 137 
70 708 201 161 183 219 
80 340 329 27 57 90 
148 287 229 171 168 172 
320 85 215 84 71 59 
230 549 363 96 130 168 
8 656 202 76 99 124 
182 286 291 71 60 52 
152 756 210 154 133 126 
241 269 285 106 100 98 
235 392 224 75 102 127 
109 337 328 71 68 68 
209 532 188 108 130 164 
248 313 249 85 119 150 
214 650 363 153 128 116 
73 475 346 155 127 96 
104 574 273 125 119 118 
235 749 208 124 108 95 
252 558 333 67 98 136 
378 645 275 78 97 116 
137 670 340 109 83 77 
225 151 258 44 46 55 
109 332 321 71 67 65 
257 360 253 139 142 150 
153 514 202 74 100 161 
228 446 224 119 130 148 
331 644 314 102 141 180 
364 39 193 136 110 83 
192 448 329 140 138 142 
99 308 249 141 122 104 
123 286 309 49 37 37 
183 64 294 104 81 59 
195 252 271 78 81 87 
263 510 292 107 125 153 
223 946 296 79 61 50 
53 659 268 152 103 83 
97 728 268 84 101 118 
222 183 256 108 68 47 
167 801 224 194 146 108 
40 710 209 146 167 211 
82 255 265 107 94 81 
295 349 359 193 162 129 
386 642 317 58 73 87 
35 625 223 90 108 127 
73 526 357 191 158 121 
85 248 265 130 91 59 
130 740 301 153 84 84 
196 923 234 79 61 42 
238 400 225 90 110 132 
197 832 224 220 156 119 
158 550 194 144 146 154 
80 330 309 113 44 66 
283 584 299 65 56 56 
160 108 298 132 101 79 
111 788 241 164 138 124 
117 285 241 112 98 89 
76 447 344 123 11 49 
206 876 226 98 77 58 
189 834 227 188 135 100 
312 74 195 151 99 57 
153 274 333 98 41 51 
132 471 368 146 121 112 
87 248 265 124 84 54 
106 357 244 72 99 122 
160 979 249 182 146 134 
86 250 265 127 82 45 
133 690 197 155 100 112 
190 393 196 90 110 131 
86 251 266 152 76 41 
116 378 229 157 154 159 
196 296 234 105 114 125 
184 335 303 111 118 130 
179 985 255 114 82 53 
62 380 293 94 79 98 
94 546 373 159 92 63 
355 645 244 84 115 161 
177 569 368 102 124 152 
197 313 225 113 111 113 
170 982 247 124 89 56 
94 601 351 188 199 218 
264 484 279 120 130 163 
140 411 344 62 86 127 
120 509 225 116 131 160 
85 252 267 137 80 49 
202 907 228 78 61 48 
208 518 186 88 107 129 
140 690 320 106 129 152 
365 653 330 105 129 175 
220 244 270 106 104 106 
364 658 253 120 139 168 
238 603 353 156 116 98 
140 926 276 81 67 59 
85 254 267 172 68 17 
373 627 259 140 143 151 
236 462 350 71 82 112 
58 661 260 120 80 66 
245 559 238 166 166 175 
97 631 231 34 59 82 
227 880 289 158 110 87 
122 270 243 100 61 69 
287 296 247 80 119 151 
87 253 266 147 80 48 
102 595 201 68 106 141 
280 289 336 111 125 142 
55 638 193 73 121 171 
82 611 275 74 90 107 
254 309 359 158 158 166 
358 726 297 205 119 121 
304 170 310 81 93 109 
267 379 351 125 104 99 
111 559 259 55 82 113 
73 556 354 172 157 149 
67 452 292 143 105 115 
274 807 262 217 163 133 
141 82 270 108 89 70 
99 596 237 57 83 115 
291 117 272 162 92 59 
79 315 273 99 49 11 
227 456 217 107 121 141 
146 333 337 133 131 135 
238 449 340 101 107 119 
160 766 213 173 142 111 
155 415 317 50 78 119 
202 476 190 158 156 161 
280 252 288 105 105 110 
64 511 304 53 81 136 
305 235 327 72 104 132 
267 377 350 133 118 109 
114 347 227 94 121 147 
91 241 263 85 71 62 
11 649 240 90 120 147 
104 626 341 144 160 200 
120 460 213 90 113 153 
282 584 296 69 64 64 
192 641 366 88 114 139 
72 766 249 181 70 83 
198 984 252 130 102 82 
230 462 217 111 124 141 
127 656 289 53 94 126 
147 365 208 134 103 78 
89 247 263 98 71 50 
189 685 200 142 156 185 
81 602 228 89 115 139 
387 25 242 145 103 101 
263 617 343 57 82 125 
174 312 314 123 89 51 
274 171 221 129 81 78 
275 236 326 93 101 112 
306 753 295 188 169 155 
143 368 348 146 146 152 
308 780 241 165 141 117 
153 962 260 109 86 60 
204 852 234 119 86 53 
134 356 359 82 124 157 
363 680 320 140 170 203 
190 306 231 132 110 91 
282 195 326 73 77 97 
74 312 253 145 69 0 
217 144 256 44 61 77 
207 860 238 113 83 57 
391 29 226 205 187 180 
302 396 299 193 90 9 
245 572 253 138 139 146 
143 84 290 105 88 72 
64 368 294 89 96 109 
290 187 217 70 85 108 
251 580 348 178 121 116 
61 454 315 143 137 137 
136 455 357 124 124 133 
164 647 363 78 75 82 
21 690 205 72 91 138 
57 676 196 184 182 188 
240 250 276 64 87 107 
153 707 358 167 43 67 
189 603 369 191 179 176 
176 447 328 53 80 105 
97 601 199 79 105 128 
317 257 252 105 147 182 
189 421 320 91 106 123 
75 739 214 193 203 220 
371 12 245 128 115 108 
85 596 224 113 126 142 
85 748 275 108 138 167 
236 904 285 126 74 52 
262 165 276 47 46 56 
236 551 362 75 123 160 
186 317 228 107 42 35 
318 778 249 160 141 126 
59 485 308 125 131 143 
321 62 193 106 66 39 
45 697 252 54 83 141 
396 663 307 97 129 202 
93 245 259 92 85 90 
169 843 282 146 110 82 
257 588 268 27 51 78 
245 277 249 176 169 171 
93 246 259 92 84 88 
149 269 308 65 85 107 
90 294 248 142 111 88 
229 649 352 144 96 48 
257 562 321 55 63 72 
333 628 342 107 151 188 
221 840 244 211 162 127 
289 125 247 157 121 108 
145 268 327 83 42 62 
89 471 362 115 9 33 
163 866 263 131 104 77 
270 237 280 69 87 104 
229 419 213 94 116 143 
162 587 219 62 100 128 
281 601 315 44 57 70 
102 634 249 68 84 115 
74 505 278 49 78 111 
137 314 341 76 98 118 
69 292 293 136 60 2 
373 626 259 132 136 144 
252 561 331 61 84 108 
68 456 332 104 127 150 
212 243 269 79 79 84 
101 694 239 35 61 111 
197 814 280 168 114 93 
179 470 338 72 94 134 
246 497 239 81 107 136 
70 510 286 72 94 132 
178 540 373 105 131 167 
288 774 290 200 146 111 
5 677 219 65 73 155 
286 221 300 76 55 67 
259 501 345 105 122 147 
267 486 308 145 149 160 
285 148 336 94 81 91 
23 672 196 77 139 193 
273 401 362 94 114 164 
190 247 270 72 72 76 
89 242 266 93 69 55 
155 861 291 140 109 81 
273 112 283 167 99 54 
184 630 369 102 124 146 
163 226 279 109 98 95 
229 939 287 104 82 68 
165 197 303 86 35 48 
258 630 223 94 106 121 
328 167 305 114 51 72 
109 641 256 76 92 119 
181 729 351 85 53 57 
130 776 289 140 123 121 
157 232 292 83 61 85 
45 649 195 96 159 210 
140 230 296 43 24 26 
89 245 264 107 80 61 
166 851 265 145 112 84 
103 663 226 94 114 136 
97 605 293 47 57 71 
131 312 319 119 100 75 
219 803 283 203 130 112 
318 112 226 110 93 76 
275 175 290 82 36 42 
123 547 245 120 119 122 
186 781 303 209 153 132 
210 583 238 139 140 150 
214 894 328 153 120 89 
70 614 277 111 116 124 
384 16 205 138 126 117 
89 249 263 102 69 43 
182 695 200 137 167 198 
161 533 367 107 132 161 
114 646 239 84 106 130 
144 391 332 52 76 123 
271 314 322 103 67 77 
82 751 274 132 155 179 
250 556 253 132 141 155 
309 118 264 122 108 96 
237 466 343 61 74 106 
219 789 217 145 109 69 
328 140 291 72 72 90 
319 781 256 150 152 160 
177 535 197 72 108 150 
172 583 222 180 177 187 
239 318 309 84 97 112 
90 250 261 94 72 65 
56 617 245 101 109 120 
209 792 220 143 106 68 
226 729 336 180 151 125 
329 206 257 72 42 51 
114 370 335 53 78 99 
65 659 254 90 69 65 
156 148 261 90 62 32 
126 404 213 97 106 119 
256 483 269 79 102 154 
191 693 201 166 174 190 
91 254 258 94 88 94 
204 603 237 77 74 76 
263 267 293 113 112 117 
231 395 219 59 94 124 
88 252 261 103 73 46 
314 117 273 119 105 91 
107 731 206 125 80 94 
195 764 209 29 42 85 
188 333 302 116 123 135 
163 217 283 88 42 56 
78 683 234 64 74 93 
268 193 225 70 50 70 
157 890 255 76 62 47 
294 633 311 94 125 154 
152 772 299 217 182 153 
263 311 353 152 149 153 
97 320 249 103 108 119 
312 273 283 139 141 149 
285 683 320 148 69 71 
231 205 260 93 9 40 
180 593 369 83 140 183 
277 587 259 77 114 145 
90 403 344 134 140 152 
163 666 199 85 124 160 
92 249 258 90 86 92 
274 150 323 42 37 39 
194 557 366 83 124 161 
74 350 308 124 56 67 
173 90 291 107 83 59 
327 164 250 99 48 51 
176 816 273 170 122 99 
271 254 341 149 148 153 
92 251 258 93 91 96 
293 402 329 146 124 106 
282 361 265 139 131 128 
169 621 364 189 183 187 
336 46 203 121 113 106 
94 248 257 89 85 89 
94 249 256 95 85 88 
201 348 214 117 82 83 
324 206 289 105 55 55 
222 877 302 154 106 76 
119 419 367 171 150 131 
168 201 273 74 52 58 
113 563 372 102 130 179 
159 501 193 194 189 192 
263 504 308 151 153 161 
362 638 247 149 151 162 
259 531 357 91 140 180 
127 405 212 88 101 117 
102 514 241 80 102 123 
61 517 324 182 149 113 
116 634 206 105 133 175 
173 67 307 122 97 73 
79 335 310 128 43 75 
214 273 286 66 80 95 
87 335 256 101 68 68 
146 354 342 142 141 145 
92 254 258 97 91 97 
56 664 254 110 76 66 
187 170 257 80 75 76 
69 345 273 103 103 110 
142 76 280 99 86 74 
320 637 230 33 57 120 
218 832 267 177 125 99 
102 519 240 101 112 126 
80 240 273 121 109 99 
347 613 299 90 81 73 
133 328 337 110 96 84 
175 489 186 151 156 171 
386 669 276 180 183 194 
211 490 191 158 158 165 
232 607 262 106 114 124 
260 115 276 185 86 27 
68 682 246 52 62 84 
223 492 197 150 148 151 
191 746 206 73 61 52 
78 645 195 211 205 215 
196 666 368 105 95 91 
154 868 318 149 109 84 
150 556 194 157 157 165 
290 407 335 136 118 102 
132 731 300 130 52 63 
98 778 239 205 106 137 
61 615 247 107 114 124 
275 146 319 46 31 33 
78 476 351 181 150 117 
202 963 304 104 80 65 
77 353 313 146 90 70 
272 594 312 56 66 83 
236 606 353 170 127 115 
75 670 196 179 176 181 
129 232 307 30 38 57 
287 225 301 101 95 99 
226 588 357 91 108 132 
308 297 347 144 41 71 
156 258 225 86 136 175 
265 369 347 80 73 67 
66 480 342 149 15 67 
69 615 278 80 77 78 
255 554 312 73 89 105 
25 649 199 118 73 83 
83 241 283 124 72 14 
166 578 204 188 189 200 
58 693 253 79 84 125 
341 726 253 155 124 83 
48 635 194 85 127 162 
73 562 320 30 60 141 
83 242 284 128 69 14 
136 662 198 89 111 145 
106 625 194 110 138 168 
394 672 302 178 189 210 
285 223 304 104 103 106 
163 150 293 72 55 59 
139 469 199 87 115 152 
161 881 260 86 68 51 
221 856 260 146 106 82 
118 292 320 68 46 41 
140 428 346 85 99 126 
61 489 320 189 165 143 
287 772 224 96 102 112 
261 616 235 48 83 109 
81 247 283 129 68 17 
258 202 227 92 39 35 
292 619 328 30 44 96 
136 435 352 91 99 126 
231 506 201 137 140 149 
94 575 212 93 113 134 
239 668 350 163 120 87 
131 687 298 52 33 75 
248 682 348 125 123 132 
226 931 255 101 80 63 
177 848 328 152 91 93 
381 642 293 54 69 84 
189 971 235 159 123 88 
242 444 340 68 74 110 
284 422 359 65 97 163 
313 330 275 166 151 141 
201 372 304 59 84 108 
65 687 251 57 80 114 
303 788 283 202 145 116 
258 342 343 84 81 90 
231 509 201 127 130 139 
216 485 351 53 89 129 
315 324 326 201 170 139 
309 702 229 146 37 43 
267 284 246 159 160 169 
192 783 216 123 120 123 
227 440 338 84 96 116 
336 725 249 142 92 91 
252 381 336 62 79 105 
249 168 266 93 52 41 
271 809 232 230 172 135 
270 182 281 86 32 31 
138 695 197 78 120 180 
298 604 343 89 112 136 
232 803 281 197 134 113 
283 395 276 161 143 126 
112 535 373 169 160 159 
73 324 301 91 82 99 
307 300 259 99 127 156 
282 140 222 144 82 31 
287 690 312 144 107 80 
198 740 336 174 138 113 
85 245 287 129 72 20 
297 742 229 103 91 89 
167 378 306 113 125 140 
177 893 338 117 93 70 
350 610 275 113 123 136 
80 248 282 130 66 15 
285 202 323 93 74 81 
165 409 311 118 124 134 
168 448 322 49 71 89 
269 648 340 49 69 86 
210 582 365 174 174 184 
92 606 264 72 89 107 
80 251 282 129 70 17 
110 317 337 146 88 87 
98 653 222 67 90 115 
183 330 305 119 127 139 
351 621 293 79 75 74 
256 451 250 109 129 154 
150 608 368 120 137 181 
86 752 218 157 174 196 
289 643 313 103 138 170 
137 474 202 106 126 158 
95 561 271 98 113 129 
257 129 283 70 48 50 
82 264 292 75 57 57 
80 455 352 163 131 92 
352 724 259 152 39 43 
331 138 248 164 66 5 
117 749 212 172 16 29 
172 735 205 87 102 119 
221 881 254 77 62 52 
229 481 205 73 103 132 
165 937 331 120 94 81 
101 382 336 61 67 74 
80 254 284 131 73 19 
159 318 233 118 119 124 
244 447 238 141 155 193 
167 919 341 191 144 124 
99 264 250 123 100 75 
244 118 280 128 62 4 
321 584 312 108 94 81 
324 232 261 125 84 82 
299 595 242 73 101 125 
199 585 368 104 138 172 
169 838 272 149 108 82 
82 254 285 122 82 54 
306 695 227 160 164 178 
160 872 326 169 128 107 
94 593 356 127 150 198 
229 810 274 191 123 100 
168 412 312 84 99 115 
128 315 223 83 114 142 
231 349 312 46 84 113 
273 482 354 68 93 155 
72 416 322 69 108 141 
114 363 230 123 113 109 
225 911 311 87 69 54 
349 33 227 86 74 63 
145 493 360 91 108 132 
85 251 287 118 91 72 
288 357 268 183 153 121 
217 844 272 162 119 91 
185 651 204 142 141 146 
73 366 270 67 39 75 
151 121 298 120 93 66 
96 604 277 79 98 117 
32 627 219 124 129 139 
235 589 355 86 76 75 
180 703 201 127 145 166 
195 544 364 131 143 164 
172 333 226 106 94 99 
79 583 319 58 86 147 
213 271 285 66 82 97 
343 43 215 62 52 46 
146 273 293 106 106 111 
94 527 258 42 73 102 
10 645 217 120 120 124 
225 698 204 167 175 190 
258 159 275 76 35 38 
358 698 258 143 164 188 
226 798 287 203 132 115 
317 247 299 129 129 134 
119 330 227 78 107 132 
367 677 260 135 140 158 
309 797 272 210 147 118 
196 516 361 94 115 141 
237 902 287 163 109 82 
164 712 202 128 118 146 
158 576 373 92 125 176 
197 490 362 104 127 153 
79 237 305 107 87 73 
160 219 305 31 46 87 
231 770 210 65 102 132 
260 541 264 92 109 130 
200 31 293 153 136 125 
274 424 273 130 148 172 
161 772 303 218 187 159 
170 703 200 141 159 179 
199 480 187 150 150 155 
326 214 235 139 82 84 
103 307 247 126 109 91 
110 499 376 118 103 87 
146 106 259 134 103 67 
154 348 220 140 115 92 
285 204 323 106 81 79 
227 156 258 46 42 50 
133 765 299 115 101 107 
359 727 267 190 37 55 
221 722 339 169 143 122 
65 463 327 98 125 151 
277 446 341 68 97 141 
87 294 322 98 85 105 
320 304 332 185 155 121 
132 627 211 74 104 133 
152 248 299 65 91 113 
234 679 204 136 140 153 
313 331 308 179 146 111 
145 499 202 135 149 173 
177 314 231 104 58 53 
230 901 269 89 69 53 
203 465 191 97 120 151 
261 814 250 223 163 136 
111 573 195 139 144 154 
202 836 226 191 136 100 
281 231 320 100 104 113 
64 360 298 108 92 109 
268 191 345 41 51 89 
186 218 263 91 79 74 
342 146 236 155 57 4 
111 587 202 81 148 200 
76 244 303 110 95 82 
176 389 309 92 104 119 
48 704 253 92 96 138 
174 112 272 111 89 65 
190 283 294 61 73 86 
208 473 346 87 109 149 
81 295 306 23 64 108 
258 139 229 108 80 42 
312 253 285 103 84 97 
128 664 284 101 115 139 
218 330 302 65 85 111 
220 416 207 94 115 140 
78 244 300 105 92 81 
141 433 345 61 77 115 
279 195 222 103 66 79 
133 384 363 144 147 156 
271 150 291 63 44 59 
196 547 365 98 119 155 
221 346 305 75 94 117 
192 391 198 79 104 129 
226 554 207 198 197 206 
307 358 355 187 158 129 
69 551 329 93 106 140 
250 387 245 58 89 122 
330 642 320 62 93 160 
206 763 317 206 157 132 
278 289 244 179 171 172 
282 226 328 142 140 142 
77 249 302 89 78 70 
302 754 233 163 139 119 
371 12 205 117 100 84 
85 306 268 71 67 64 
198 748 206 72 58 48 
215 861 317 159 114 85 
240 486 228 160 159 163 
233 618 358 104 70 75 
110 734 275 97 112 128 
86 404 338 116 120 129 
292 765 299 147 102 78 
333 630 234 142 153 170 
264 402 259 95 116 147 
108 450 225 61 93 126 
274 397 362 101 121 169 
233 652 207 44 55 71 
116 313 313 52 43 42 
275 420 272 119 124 154 
270 564 331 125 105 87 
244 564 240 106 126 150 
77 253 303 96 84 74 
77 254 303 94 81 73 
56 617 239 100 109 121 
195 807 283 181 122 98 
104 600 199 75 105 135 
280 270 299 92 97 104 
149 237 318 97 25 21 
102 268 247 116 57 55 
113 782 285 164 106 86 
143 269 322 82 25 47 
220 124 260 103 92 83 
158 866 277 141 110 80 
160 311 233 125 129 137 
362 87 228 122 97 71 
322 194 282 88 54 85 
286 391 280 148 129 111 
77 240 305 103 88 74 
296 332 357 114 129 149 
77 240 306 100 86 73 
76 315 326 143 33 70 
120 800 255 223 194 168 
240 675 348 183 166 166 
86 505 368 163 133 99 
141 365 353 87 58 73 
115 520 235 73 90 111 
149 555 232 75 86 98 
256 453 247 98 128 164 
293 667 311 75 69 91 
261 635 345 66 81 100 
264 584 291 79 75 72 
143 266 318 81 25 44 
373 636 254 91 106 123 
130 691 267 87 103 140 
109 280 327 114 81 82 
144 782 220 185 145 96 
267 106 297 109 89 71 
92 468 252 77 100 124 
322 163 284 55 47 61 
157 857 316 150 110 84 
152 138 259 88 69 46 
175 940 245 133 95 60 
78 273 317 79 83 100 
79 242 309 112 93 77 
181 925 234 89 64 33 
79 243 309 109 88 74 
283 308 339 155 135 115 
344 663 242 139 149 166 
183 569 367 162 165 175 
347 606 271 133 139 149 
136 909 276 90 72 59 
76 244 307 101 89 82 
88 588 292 150 152 161 
215 135 256 87 72 57 
81 727 208 211 202 211 
223 868 280 159 115 87 
374 57 216 111 91 68 
271 188 224 64 51 68 
283 159 331 140 84 71 
97 437 252 82 102 126 
214 248 270 94 95 99 
71 346 283 104 80 82 
306 624 228 62 86 110 
321 240 247 165 125 120 
103 597 262 81 103 123 
267 189 344 42 52 73 
302 735 229 114 98 94 
337 718 248 163 38 47 
261 322 340 99 69 70 
268 628 342 109 98 94 
256 592 259 84 109 134 
357 618 246 34 59 89 
138 787 280 193 164 135 
65 460 295 129 58 84 
185 55 289 104 85 65 
109 329 236 119 137 158 
79 245 309 119 92 73 
203 838 310 142 104 73 
346 103 200 159 117 91 
259 524 284 160 158 163 
144 388 346 117 129 144 
241 409 337 81 94 113 
287 604 345 96 114 135 
174 76 276 128 104 80 
69 537 349 185 71 6 
362 24 197 146 128 124 
286 149 337 95 81 92 
200 11 321 97 76 64 
267 782 290 211 150 117 
116 406 354 106 125 146 
248 677 349 178 161 168 
38 718 213 235 228 234 
272 185 282 88 32 31 
132 577 195 112 110 149 
152 194 299 55 32 26 
79 500 270 51 84 114 
138 554 246 67 78 90 
311 176 314 72 89 106 
295 345 267 223 180 128 
205 828 280 165 116 84 
305 605 332 35 62 95 
31 677 255 75 89 136 
174 540 193 55 97 130 
148 421 329 63 85 118 
147 311 315 89 49 65 
145 122 297 113 91 65 
128 216 321 138 67 10 
274 679 339 161 96 60 
204 969 284 111 83 56 
167 334 315 151 117 76 
151 869 306 149 109 83 
169 168 278 133 67 69 
348 99 235 115 93 71 
267 204 333 95 23 38 
322 656 301 129 151 174 
304 760 237 172 138 100 
283 646 333 116 80 101 
117 650 350 201 148 147 
214 922 328 173 134 108 
132 310 224 85 117 147 
62 667 238 66 80 95 
242 360 239 116 123 134 
276 155 340 83 53 67 
398 656 310 111 143 191 
238 852 301 156 126 99 
131 579 195 100 133 180 
275 273 339 80 117 147 
138 588 368 117 133 172 
129 546 375 101 126 171 
307 115 290 114 104 96 
221 721 339 185 162 143 
311 346 283 139 144 153 
100 649 330 167 120 112 
119 784 224 226 172 116 
227 326 234 117 132 150 
328 154 305 88 88 100 
114 699 201 114 44 74 
111 699 246 72 87 121 
92 475 252 99 115 136 
64 372 271 131 69 93 
289 697 221 178 33 49 
70 652 276 138 92 75 
355 23 203 118 103 89 
251 546 238 149 157 172 
288 431 306 161 174 200 
115 640 205 67 96 125 
91 460 258 58 101 135 
250 425 247 64 95 128 
101 419 247 163 158 159 
211 979 267 145 113 88 
229 461 340 53 65 92 
70 701 259 23 37 82 
189 589 226 68 104 139 
64 422 314 151 152 159 
270 718 341 127 107 92 
284 560 315 113 103 96 
164 821 252 195 146 117 
86 580 361 215 210 214 
63 512 332 193 163 134 
365 698 264 152 160 173 
77 253 310 137 68 4 
237 278 296 93 98 105 
274 328 342 146 126 105 
131 734 300 159 72 82 
139 719 331 148 98 118 
148 410 325 50 76 119 
118 561 372 94 128 177 
126 648 270 141 144 158 
93 591 198 167 168 190 
163 869 262 121 95 67 
108 618 350 103 121 184 
111 344 237 71 93 112 
307 214 220 80 111 142 
151 232 320 108 30 21 
206 269 239 169 168 174 
224 289 239 84 114 140 
246 508 223 157 156 163 
78 253 312 137 62 5 
206 698 352 186 74 38 
179 932 338 199 159 140 
172 254 274 109 107 110 
334 603 246 64 101 130 
323 149 308 118 84 68 
167 122 273 121 89 54 
243 490 235 158 158 163 
277 437 281 192 188 193 
182 358 302 48 78 106 
36 628 203 75 92 109 
281 693 335 112 48 50 
339 46 213 78 73 69 
355 617 314 117 96 72 
226 268 283 67 88 107 
190 641 366 47 73 105 
135 721 203 115 10 24 
87 231 301 94 74 62 
208 859 238 114 84 57 
154 127 263 95 75 49 
372 15 249 138 125 116 
215 557 365 108 124 147 
285 420 331 143 129 117 
157 141 289 76 52 33 
274 674 339 175 135 103 
264 282 340 90 86 96 
221 880 269 97 70 48 
194 231 266 90 44 12 
68 338 260 72 100 122 
145 755 311 96 75 76 
81 607 195 84 117 149 
335 119 207 152 118 84 
192 268 236 149 145 147 
137 405 202 64 95 123 
277 634 223 98 107 120 
287 617 229 86 104 124 
246 660 207 133 142 156 
158 789 287 166 156 152 
147 311 333 86 80 93 
80 235 302 97 77 58 
91 357 328 103 30 60 
195 481 354 81 105 140 
277 206 315 91 44 57 
81 235 302 98 78 61 
264 344 347 113 112 121 
214 886 325 176 136 108 
247 259 282 71 61 71 
223 880 297 148 104 74 
139 496 206 117 133 162 
122 725 275 120 128 141 
82 235 300 92 63 42 
279 399 357 111 120 153 
83 234 301 97 73 59 
153 401 314 53 78 120 
279 129 330 127 28 20 
83 234 303 95 74 64 
179 656 201 155 154 160 
167 349 217 103 75 75 
280 778 289 202 144 108 
220 886 317 176 128 101 
333 52 214 76 69 65 
261 521 352 55 57 96 
10 674 204 189 183 189 
188 498 356 67 99 139 
148 912 247 100 82 68 
213 875 250 80 62 49 
202 392 200 61 96 127 
99 599 354 131 152 209 
83 239 299 85 64 44 
111 364 231 117 31 55 
224 818 266 184 129 106 
80 237 301 87 66 42 
174 134 264 118 80 68 
194 656 202 152 151 156 
146 400 327 58 79 121 
280 780 221 146 108 71 
307 362 355 199 170 143 
299 147 308 124 100 87 
166 819 260 182 131 106 
107 398 241 159 156 161 
250 398 345 69 82 106 
286 568 326 153 111 94 
162 345 317 106 114 132 
185 885 340 195 146 128 
276 256 290 100 101 107 
259 191 270 91 31 35 
254 374 252 78 101 127 
133 316 327 125 49 7 
274 183 287 88 35 32 
147 904 247 125 101 78 
189 283 236 159 158 164 
349 670 246 57 94 147 
181 159 260 84 79 89 
146 715 349 110 84 114 
130 517 225 126 134 149 
60 491 306 93 111 138 
268 224 337 86 87 97 
124 658 296 68 59 70 
139 99 270 96 82 67 
151 870 294 147 111 83 
152 943 302 90 69 57 
308 781 242 159 130 105 
121 728 277 103 115 134 
161 615 362 120 142 184 
207 20 331 130 94 69 
291 264 331 104 121 139 
357 20 241 132 122 117 
162 624 222 66 84 103 
234 929 269 87 70 55 
84 233 301 94 68 55 
98 391 255 120 114 112 
324 233 260 127 79 74 
68 309 283 128 59 2 
234 518 363 88 117 154 
218 825 267 182 129 105 
120 414 218 93 108 126 
270 231 347 117 110 112 
186 311 311 124 129 140 
190 768 211 201 181 167 
105 649 345 171 116 115 
140 252 306 40 29 29 
111 676 235 130 133 142 
261 438 262 85 107 145 
319 784 274 151 134 127 
268 582 295 79 75 74 
84 236 299 82 61 33 
65 409 285 159 153 152 
74 612 244 81 97 114 
324 150 252 127 55 52 
201 871 217 108 80 59 
203 456 192 121 134 151 
68 454 329 107 132 157 
247 351 328 61 88 112 
76 586 343 40 78 180 
219 855 253 149 115 89 
288 434 315 142 151 172 
313 633 228 17 57 99 
272 190 224 75 50 78 
234 878 282 150 95 75 
221 114 264 126 63 8 
119 366 226 136 135 140 
169 163 297 95 55 68 
60 375 282 94 81 104 
53 623 195 144 142 146 
104 451 231 99 119 140 
278 600 239 73 101 126 
288 142 319 61 72 92 
192 414 324 130 135 145 
243 616 348 75 76 95 
330 652 233 114 129 148 
183 293 302 102 104 109 
297 381 280 205 92 18 
99 644 200 176 175 186 
76 408 274 149 59 92 
282 646 219 124 125 131 
137 403 357 147 148 156 
233 942 276 122 97 72 
90 226 288 108 93 78 
231 571 246 90 115 153 
135 129 292 101 84 67 
134 216 305 85 31 28 
90 226 291 123 79 33 
372 51 230 118 94 68 
237 589 262 60 79 97 
188 323 306 102 115 133 
98 335 331 97 69 67 
141 620 214 71 106 157 
308 372 289 125 144 167 
144 94 294 113 93 73 
108 612 196 168 170 180 
175 499 187 154 161 189 
184 178 259 74 73 78 
163 432 318 33 67 110 
70 453 342 168 144 117 
156 445 328 89 107 128 
281 205 297 71 77 88 
83 575 299 121 127 140 
135 804 246 238 212 194 
329 144 210 105 87 68 
272 187 314 110 24 20 
329 769 281 199 182 172 
213 458 346 115 136 163 
167 954 313 85 71 63 
89 228 288 115 88 64 
323 152 286 65 89 111 
89 604 311 102 122 161 
103 506 374 169 74 16 
222 333 227 142 111 79 
294 162 312 105 100 103 
64 358 279 126 65 73 
308 371 300 185 154 124 
207 527 189 103 119 147 
140 77 266 119 99 80 
113 654 345 145 92 95 
41 623 202 72 85 100 
156 871 323 156 115 91 
135 666 197 67 101 169 
322 627 326 67 91 166 
68 355 307 92 80 99 
322 585 313 112 96 80 
90 229 290 118 67 15 
113 345 229 73 99 121 
179 809 277 180 130 107 
196 854 331 150 117 88 
63 694 198 207 200 215 
97 784 250 194 103 121 
317 77 191 171 111 80 
265 499 331 155 167 185 
89 231 293 109 65 27 
206 448 193 91 120 151 
144 380 341 53 73 116 
263 175 274 50 58 72 
313 785 249 169 125 86 
225 667 352 146 117 92 
164 639 209 105 112 122 
302 750 300 118 99 87 
89 569 367 149 95 85 
90 228 294 114 70 16 
187 581 228 154 155 170 
160 944 319 106 87 74 
175 982 246 115 77 47 
311 347 325 168 39 87 
292 584 289 72 68 66 
261 674 209 68 105 158 
321 161 311 92 89 99 
216 899 326 164 131 103 
325 130 273 155 75 7 
101 571 211 101 115 134 
45 636 278 105 121 150 
129 686 197 170 169 175 
263 508 330 99 119 164 
139 531 371 101 125 156 
236 480 221 60 95 130 
145 659 344 42 68 120 
270 492 354 116 135 166 
224 695 204 162 172 189 
190 498 361 123 138 158 
264 155 283 79 40 51 
329 612 334 59 92 131 
322 708 237 112 32 25 
100 766 220 173 44 56 
90 226 299 95 64 28 
144 802 236 154 145 146 
153 670 358 146 160 179 
314 300 298 140 23 63 
284 266 318 91 95 106 
315 313 290 141 23 64 
166 197 304 86 32 45 
206 574 217 163 170 184 
181 792 293 192 143 124 
81 714 264 81 90 111 
81 293 314 64 45 65 
190 431 190 160 156 163 
78 454 278 96 109 126 
124 369 346 74 109 138 
131 579 256 74 79 87 
118 317 228 145 136 134 
207 539 367 121 146 175 
264 501 314 161 159 163 
62 422 311 157 158 165 
150 551 225 71 84 99 
90 227 302 81 65 55 
275 289 312 97 62 82 
224 470 343 36 48 62 
200 825 222 199 142 106 
259 533 277 93 111 131 
118 713 202 153 180 210 
305 726 232 82 90 97 
131 485 370 129 131 155 
220 612 247 58 83 107 
125 632 208 87 110 136 
74 518 356 183 153 123 
190 657 202 157 155 161 
214 875 251 81 62 50 
234 544 209 77 115 176 
226 342 228 139 116 93 
61 697 199 141 139 145 
308 352 318 154 41 78 
105 724 203 210 184 203 
312 649 225 39 72 112 
164 460 187 153 154 164 
204 707 203 145 166 192 
232 780 214 146 109 68 
11 680 242 135 149 182 
158 868 277 132 102 74 
146 886 286 171 126 95 
218 956 262 127 101 75 
143 937 281 75 63 57 
143 932 271 76 60 51 
104 585 229 75 105 131 
72 282 293 101 91 82 
