ply
format ascii 1.0
comment Created by CloudCompare v2.11.1 (Anoia)
comment Created 2/28/22 9:45 PM
obj_info Generated by CloudCompare!
element vertex 2025
property float x
property float y
property float z
property uchar red
property uchar green
property uchar blue
end_header
93 320 254 116 122 135 
208 236 268 96 67 53 
268 207 278 96 32 53 
274 150 343 82 64 78 
135 901 272 109 86 69 
72 313 282 120 59 4 
264 120 264 179 89 32 
118 269 244 113 69 75 
317 261 335 153 151 155 
53 718 209 154 175 212 
324 687 236 103 125 155 
273 777 292 206 145 112 
197 227 227 123 41 11 
197 262 280 96 97 102 
75 284 300 127 51 6 
85 715 262 82 92 108 
320 171 265 124 61 63 
113 319 237 131 144 164 
142 474 197 111 135 161 
193 879 335 178 126 108 
322 83 223 73 61 50 
139 148 257 111 90 66 
254 342 358 143 90 35 
319 234 289 81 118 147 
111 589 276 40 53 68 
339 148 227 142 125 110 
163 785 219 171 150 136 
275 148 344 82 65 82 
394 656 313 78 106 165 
140 302 225 81 108 131 
152 266 287 115 110 111 
93 645 224 108 116 127 
58 394 285 127 75 69 
380 33 207 175 136 109 
180 569 199 154 175 203 
222 882 258 79 63 50 
192 622 227 118 118 122 
110 354 237 72 96 119 
122 650 286 70 97 137 
196 229 226 124 40 11 
111 576 223 121 130 143 
236 898 284 141 84 64 
138 358 212 140 118 95 
192 588 368 126 146 170 
139 696 329 110 121 136 
38 635 270 124 139 163 
146 884 269 143 75 43 
74 562 360 153 5 50 
251 522 234 106 125 150 
200 568 209 161 167 190 
204 11 315 99 80 69 
210 976 281 158 130 102 
191 115 256 128 77 26 
95 367 335 68 104 133 
101 731 268 105 111 121 
135 519 215 149 154 168 
229 278 307 119 119 123 
222 392 218 72 98 125 
121 275 317 71 29 23 
323 609 338 94 117 139 
389 673 311 122 142 191 
127 595 369 199 203 217 
225 622 227 68 75 84 
293 594 241 84 106 127 
159 767 307 169 135 109 
78 322 255 121 57 70 
176 596 369 94 132 167 
64 506 339 186 156 125 
305 780 287 199 145 115 
180 26 322 184 168 164 
129 736 299 127 32 44 
71 554 355 116 103 93 
77 713 203 195 190 210 
276 252 340 104 120 137 
171 141 276 48 64 82 
90 535 372 171 65 9 
257 355 256 130 142 160 
250 246 283 89 97 109 
204 246 271 92 84 77 
181 373 198 86 103 121 
184 883 218 82 70 62 
139 643 204 116 120 128 
313 68 197 137 81 33 
319 638 316 155 162 189 
208 895 333 138 112 86 
123 660 248 123 126 135 
159 816 246 208 152 120 
256 636 357 60 47 85 
171 774 305 179 115 122 
196 414 194 49 86 124 
394 12 245 116 88 75 
79 336 330 22 44 84 
219 519 191 139 147 159 
140 898 289 78 59 45 
170 863 251 132 102 76 
135 204 315 133 61 9 
285 416 292 115 135 165 
109 656 230 96 109 127 
196 232 224 121 43 13 
146 938 299 100 80 67 
67 741 217 133 130 201 
120 660 197 60 95 129 
296 806 248 231 164 133 
208 353 303 60 84 111 
163 123 286 95 69 46 
147 890 309 168 124 98 
211 937 320 151 117 100 
241 442 234 185 184 195 
156 525 205 105 118 138 
313 106 222 108 85 60 
308 250 242 131 109 124 
329 133 278 144 81 36 
105 349 249 76 111 141 
148 541 230 78 91 108 
106 706 248 82 86 119 
132 639 353 201 204 217 
369 54 233 117 93 68 
192 834 323 157 121 101 
267 226 333 87 96 108 
197 809 221 154 115 74 
150 523 362 165 162 165 
157 73 302 123 100 79 
245 591 275 58 57 60 
64 537 326 136 84 85 
317 775 286 138 143 154 
222 937 252 92 73 55 
300 115 280 131 105 89 
157 532 215 76 89 106 
169 835 248 177 132 101 
107 335 243 118 136 158 
198 239 225 153 40 62 
120 748 211 176 68 46 
255 565 337 81 76 75 
15 697 237 93 119 204 
97 782 276 165 75 99 
137 108 268 95 80 66 
142 476 355 124 128 138 
314 635 318 147 157 184 
295 122 247 154 113 89 
172 669 370 150 173 199 
136 549 373 106 129 166 
33 707 209 109 120 188 
208 635 370 76 56 56 
141 743 207 75 30 93 
312 353 308 171 45 86 
84 599 312 125 133 146 
203 527 367 85 106 153 
379 637 260 111 119 130 
283 443 358 101 128 178 
292 618 323 35 45 86 
223 862 283 163 118 89 
211 791 294 211 145 124 
186 952 329 111 93 81 
249 501 243 130 144 163 
196 761 210 180 154 128 
118 285 325 93 51 43 
131 308 321 121 97 73 
295 676 220 86 112 151 
331 684 304 83 94 115 
84 666 196 139 150 165 
189 656 368 139 158 181 
87 733 209 193 203 221 
382 646 260 68 103 172 
277 589 251 74 112 142 
200 228 226 120 39 13 
336 761 267 140 111 76 
322 75 221 82 69 56 
211 357 219 131 100 63 
201 230 225 129 34 13 
254 246 283 119 117 120 
163 654 201 109 124 141 
202 229 225 127 33 11 
143 922 303 91 74 62 
269 417 359 156 166 183 
81 600 222 110 124 141 
37 695 201 103 118 190 
225 305 243 109 126 144 
126 390 367 156 159 168 
379 689 310 111 138 194 
89 497 254 84 105 131 
207 843 301 138 93 66 
205 224 227 114 45 14 
321 756 248 183 147 107 
156 209 314 80 41 63 
269 396 365 139 152 172 
235 507 366 82 113 156 
278 437 292 179 180 188 
205 226 227 119 49 10 
277 128 323 119 43 28 
133 517 370 46 68 102 
308 335 269 193 169 147 
64 334 263 65 102 131 
185 890 340 153 117 91 
235 925 287 88 70 58 
261 400 362 106 128 153 
188 977 238 84 54 38 
106 408 242 137 138 146 
58 615 237 75 100 123 
324 100 233 90 81 71 
317 581 314 113 97 81 
324 591 265 122 126 134 
205 224 228 116 44 15 
118 647 296 34 41 67 
259 569 298 79 77 79 
157 229 290 92 60 75 
64 496 338 155 25 75 
251 591 266 74 99 122 
91 618 316 76 88 119 
218 516 191 151 151 158 
254 281 353 81 113 142 
194 647 204 136 134 135 
343 733 257 85 77 78 
200 242 270 77 68 61 
220 584 359 126 133 144 
285 134 342 93 54 71 
351 113 228 138 108 78 
334 618 237 66 102 142 
4 657 207 80 121 154 
157 216 315 80 38 66 
21 707 235 71 115 200 
156 569 193 204 199 210 
152 875 277 119 53 16 
156 213 315 85 38 61 
126 395 215 52 85 114 
129 374 363 77 116 151 
136 772 217 133 117 103 
160 230 282 83 58 69 
322 59 196 100 78 69 
234 550 219 115 149 184 
119 646 276 94 102 151 
140 409 202 75 104 130 
221 758 208 110 91 69 
178 379 196 72 97 120 
95 590 362 115 139 198 
239 613 243 60 92 121 
225 366 227 125 128 135 
275 167 296 84 33 52 
139 669 339 128 128 137 
189 513 364 130 143 161 
288 150 322 73 103 129 
184 842 233 142 105 70 
271 185 312 112 21 20 
328 193 235 127 125 136 
293 575 303 102 92 85 
194 668 200 89 125 163 
130 516 217 161 162 171 
121 671 313 135 74 72 
268 116 281 161 89 57 
257 539 304 154 145 141 
152 864 300 154 115 88 
202 236 224 172 41 24 
243 503 223 118 131 148 
321 167 308 102 55 64 
280 776 291 202 144 109 
171 743 335 163 117 107 
188 213 263 66 48 53 
395 20 244 164 135 112 
336 156 226 170 79 10 
165 275 234 113 41 49 
71 532 353 180 73 7 
159 564 372 108 136 170 
100 311 327 86 88 98 
71 560 314 45 77 125 
196 293 237 104 118 134 
123 730 203 110 83 122 
130 563 231 87 103 122 
306 757 237 182 149 114 
99 372 257 147 143 146 
79 752 220 184 190 202 
137 432 358 121 74 95 
312 187 221 195 137 105 
329 209 246 142 49 80 
219 416 209 96 119 145 
238 430 362 113 134 168 
234 622 226 39 81 114 
274 261 343 85 117 144 
204 439 197 82 109 140 
287 415 334 174 160 153 
278 738 325 142 142 150 
80 387 266 131 135 144 
253 476 265 106 115 146 
271 177 283 37 34 33 
371 14 201 125 104 83 
65 673 195 181 175 180 
262 218 341 103 102 105 
217 490 196 155 150 152 
126 775 217 135 112 96 
236 854 299 162 130 101 
231 821 259 177 124 98 
63 451 297 89 66 90 
83 583 300 101 110 132 
105 271 320 92 78 87 
14 666 252 102 122 166 
229 830 239 228 169 134 
138 136 296 106 86 65 
107 645 201 137 143 154 
256 604 334 42 38 38 
142 261 227 81 82 93 
215 492 194 143 144 152 
253 501 360 134 156 182 
137 408 345 64 85 124 
98 636 331 151 113 103 
224 395 219 56 85 111 
192 242 227 132 104 123 
150 877 314 162 119 95 
200 644 368 81 68 79 
229 886 271 105 61 33 
99 589 197 103 142 190 
349 118 225 144 112 81 
137 427 360 136 114 99 
260 200 274 113 28 37 
195 240 226 151 70 86 
189 12 324 119 103 93 
74 388 275 101 105 111 
258 586 275 51 44 58 
154 878 321 176 134 111 
147 397 321 87 103 128 
122 509 223 103 122 159 
235 816 225 233 168 133 
192 243 228 164 28 72 
142 504 364 157 151 152 
58 485 307 108 117 131 
311 600 327 88 66 54 
171 647 365 133 135 144 
12 662 247 146 161 180 
260 475 270 99 127 159 
153 729 348 190 156 120 
180 859 227 122 94 74 
326 226 273 101 52 46 
192 245 230 139 107 135 
268 716 215 159 42 39 
234 809 272 199 133 105 
262 264 300 75 92 110 
124 701 257 103 112 125 
64 519 337 181 148 113 
313 620 326 99 110 165 
294 641 312 139 162 188 
175 77 301 127 96 77 
158 615 362 106 134 177 
195 244 229 171 62 89 
202 18 288 140 124 111 
131 679 263 79 96 142 
264 302 326 121 82 61 
82 363 262 138 133 135 
195 246 231 98 139 180 
150 256 331 116 42 71 
249 719 211 177 147 111 
220 885 316 172 123 97 
155 643 361 81 119 151 
200 677 201 182 178 185 
161 800 280 175 131 109 
196 242 226 140 110 138 
333 145 219 129 115 104 
165 407 194 118 130 147 
209 14 306 117 101 92 
72 496 279 38 81 115 
291 613 230 96 114 132 
298 583 326 152 114 95 
158 649 202 132 132 138 
257 564 298 63 59 58 
169 307 308 79 80 83 
191 697 201 160 170 188 
341 612 242 157 157 163 
199 241 227 133 108 131 
43 622 199 73 88 101 
291 213 325 107 38 58 
194 490 360 104 127 152 
169 299 234 115 120 129 
352 621 293 82 77 74 
63 643 287 160 113 92 
299 725 302 171 154 143 
192 544 191 126 147 172 
193 835 304 128 89 57 
225 756 209 128 104 79 
142 318 334 92 57 58 
85 592 216 92 116 140 
136 681 331 160 180 204 
203 645 370 78 61 59 
350 684 317 146 164 188 
257 491 277 55 84 130 
155 516 358 139 142 151 
297 402 318 146 120 89 
311 630 229 44 68 90 
155 789 286 123 133 151 
168 842 266 149 111 85 
242 312 318 85 99 115 
248 308 252 76 107 136 
171 879 238 77 61 49 
173 976 239 145 106 78 
129 468 370 163 144 124 
230 913 260 60 47 41 
120 570 192 164 167 176 
287 316 264 132 151 184 
391 13 251 120 85 63 
71 314 302 111 88 82 
109 321 239 123 140 162 
378 637 275 89 106 124 
213 805 282 198 139 117 
200 945 328 87 68 53 
144 892 298 104 79 61 
272 226 345 151 146 149 
71 705 259 52 76 106 
189 626 221 70 106 134 
199 246 233 94 130 164 
276 695 216 135 143 159 
347 674 320 138 158 181 
215 338 304 115 120 131 
75 364 316 88 108 128 
192 249 233 82 138 183 
216 844 273 162 120 92 
193 248 233 86 141 185 
116 736 285 95 67 79 
85 530 265 111 116 125 
220 795 218 157 119 79 
192 250 234 75 140 189 
60 434 296 103 125 150 
193 250 234 82 143 189 
315 246 246 149 14 61 
264 269 304 100 106 115 
271 254 344 143 142 147 
194 248 233 81 142 190 
229 622 364 57 41 81 
165 730 205 136 15 40 
178 444 329 103 113 127 
211 576 245 101 112 128 
229 607 261 103 110 120 
256 703 348 109 109 123 
391 668 308 167 185 217 
126 426 368 139 121 109 
217 845 274 161 119 92 
67 514 288 59 85 132 
260 253 357 159 160 167 
51 744 234 78 104 193 
26 645 265 83 108 132 
247 318 358 134 138 148 
212 603 252 71 76 83 
123 621 200 131 160 202 
124 664 301 148 110 101 
185 58 292 95 76 56 
266 575 298 96 89 85 
295 284 342 107 115 128 
187 891 339 138 107 79 
25 712 227 180 170 193 
96 275 251 105 79 57 
59 483 314 105 132 159 
139 185 308 80 69 60 
256 408 360 86 106 143 
177 45 309 122 95 67 
307 781 285 200 144 117 
178 697 362 89 118 153 
287 302 345 119 120 125 
169 106 283 104 77 53 
288 564 325 135 111 89 
149 873 288 134 104 75 
255 503 281 133 133 142 
288 755 310 199 178 161 
196 22 324 152 116 95 
185 339 302 59 87 114 
331 763 284 215 183 154 
188 13 329 119 100 88 
245 720 343 193 151 100 
196 248 233 99 149 190 
141 357 211 112 73 23 
280 577 326 148 111 91 
20 637 243 86 98 110 
196 249 235 96 142 181 
350 730 261 136 106 69 
317 302 311 187 156 124 
243 800 280 197 135 113 
353 619 260 112 124 140 
375 36 231 129 97 69 
145 283 327 128 124 125 
64 464 333 162 143 127 
215 706 346 149 101 82 
214 753 326 201 182 168 
211 393 206 111 123 139 
291 170 218 115 56 67 
218 353 308 75 95 118 
186 767 211 201 183 171 
36 713 211 153 154 185 
91 654 197 139 144 156 
160 335 323 133 78 98 
292 706 309 104 116 131 
318 307 340 177 149 119 
269 696 214 155 29 39 
283 274 336 129 136 147 
138 434 199 89 107 130 
307 650 225 82 93 117 
252 679 353 107 107 123 
107 639 234 52 69 99 
262 578 338 151 105 92 
120 674 327 192 135 127 
120 412 217 87 106 128 
217 705 204 106 43 95 
99 541 373 158 140 124 
66 458 290 135 76 97 
365 626 306 107 89 71 
294 595 240 74 99 121 
221 578 361 89 124 165 
94 582 364 106 130 187 
97 340 337 99 35 59 
138 535 227 120 120 126 
167 818 236 202 145 113 
246 510 361 141 156 176 
149 291 295 94 104 118 
272 156 309 33 36 49 
144 906 252 88 66 55 
269 470 293 111 121 161 
133 315 343 75 98 119 
388 644 294 69 84 100 
258 458 359 123 141 167 
256 140 227 144 125 110 
379 701 291 188 201 223 
273 465 334 120 135 174 
251 466 258 151 156 182 
303 126 230 141 124 110 
198 707 354 91 101 118 
68 346 279 101 100 107 
159 668 364 128 147 169 
190 405 324 118 127 143 
286 272 245 115 143 184 
89 579 207 121 130 143 
386 688 292 127 147 202 
172 139 259 87 90 95 
164 250 276 97 98 104 
31 643 197 91 122 147 
172 644 365 150 149 157 
136 664 344 124 101 99 
90 356 329 105 33 60 
230 771 211 166 146 128 
288 721 224 86 30 52 
180 68 281 119 97 78 
353 105 216 150 122 93 
216 685 353 197 121 36 
337 742 255 185 151 112 
328 235 304 156 153 155 
203 226 265 98 60 34 
87 498 257 51 84 117 
177 72 277 132 106 84 
335 700 303 134 70 74 
228 825 259 171 121 93 
211 629 368 78 44 64 
225 840 253 171 131 102 
94 617 193 157 160 174 
236 712 341 163 147 136 
203 244 231 151 88 125 
80 593 215 75 101 127 
204 240 226 150 74 96 
324 646 233 102 126 152 
120 309 230 167 163 166 
91 651 222 44 74 99 
306 360 315 204 174 140 
75 619 297 63 104 139 
252 565 276 88 90 95 
206 240 227 134 95 113 
74 651 272 114 81 67 
326 114 212 124 97 64 
230 439 344 88 98 117 
278 443 297 93 112 165 
107 568 200 100 124 149 
79 729 210 211 202 211 
274 257 237 126 143 177 
273 147 312 79 43 36 
241 381 356 52 76 114 
194 730 205 87 43 46 
263 719 344 152 123 97 
187 891 338 137 104 79 
216 739 332 109 121 139 
384 682 283 94 108 168 
53 661 196 77 120 155 
131 657 198 102 124 148 
362 86 216 144 113 83 
274 178 305 95 35 41 
50 743 236 182 188 202 
190 793 220 150 113 71 
85 645 239 116 120 129 
283 106 323 114 103 94 
327 95 232 70 60 50 
60 397 303 130 13 52 
206 244 230 162 47 97 
139 269 317 89 22 28 
383 692 284 170 169 194 
240 196 264 81 62 67 
277 133 308 53 46 61 
293 420 316 166 26 89 
235 290 248 89 123 153 
85 588 213 108 122 139 
328 137 299 68 68 84 
298 128 231 150 128 110 
130 518 372 143 154 170 
86 421 270 142 89 97 
332 153 220 148 120 86 
203 245 232 101 134 169 
348 737 261 75 54 94 
288 275 335 91 113 135 
302 157 216 148 64 0 
149 691 198 82 134 193 
268 232 332 107 111 118 
227 888 293 132 88 62 
76 747 219 185 195 212 
176 707 201 174 103 122 
284 395 359 146 105 93 
309 317 351 163 129 90 
257 552 301 106 108 113 
118 519 232 108 115 126 
111 307 337 119 95 98 
43 632 276 98 136 176 
225 830 235 226 169 135 
255 457 360 148 158 174 
88 647 267 124 125 133 
205 247 235 80 134 176 
225 744 332 164 152 147 
206 245 233 86 148 191 
107 394 240 121 134 152 
299 798 241 202 145 109 
62 384 305 151 97 83 
192 781 303 213 157 134 
101 349 251 76 124 163 
206 246 234 71 137 190 
209 238 269 92 82 74 
141 404 334 65 85 121 
235 434 226 122 137 167 
333 606 286 68 83 98 
95 331 328 96 71 72 
140 601 366 63 96 166 
168 840 269 147 108 82 
97 645 326 165 119 107 
260 267 356 106 57 76 
186 627 220 70 103 138 
287 112 315 107 96 87 
285 123 325 147 66 5 
97 346 333 98 62 76 
323 132 299 121 79 44 
276 139 342 83 30 38 
113 347 324 54 60 67 
283 338 358 168 150 135 
53 660 268 150 102 83 
178 573 210 180 186 202 
319 587 304 88 82 78 
201 251 239 104 132 162 
249 311 353 81 36 40 
329 627 330 86 110 149 
162 504 351 160 154 155 
260 296 339 100 60 69 
121 337 226 117 140 169 
147 323 328 107 113 124 
189 49 294 102 82 60 
202 250 238 99 147 183 
283 264 316 86 93 104 
227 759 208 111 83 48 
139 73 261 121 96 75 
283 676 320 119 47 62 
314 114 238 114 103 93 
113 656 346 180 133 127 
320 288 315 179 156 133 
173 93 289 105 80 53 
323 654 232 66 103 140 
314 614 346 120 133 167 
283 165 219 123 141 161 
77 724 208 213 206 215 
160 81 304 122 98 76 
205 248 236 96 135 167 
316 81 193 170 118 95 
138 713 201 110 127 146 
232 793 215 165 122 83 
329 225 298 94 131 163 
130 584 208 149 149 171 
266 476 290 174 173 180 
189 50 288 124 100 77 
203 798 221 156 118 77 
140 550 243 81 90 102 
76 565 300 105 113 125 
229 937 264 108 82 57 
139 221 302 45 22 24 
246 356 351 43 61 92 
257 537 291 140 138 141 
250 411 357 78 96 123 
369 631 324 114 121 133 
382 638 274 91 111 135 
206 250 238 126 73 84 
269 352 266 117 122 134 
150 946 268 100 80 70 
252 476 265 106 114 141 
178 976 235 99 72 49 
137 358 354 71 115 148 
340 66 195 147 118 88 
228 907 305 83 64 50 
251 534 345 75 97 130 
254 311 344 98 62 65 
250 785 211 145 108 68 
311 674 227 60 73 91 
314 106 214 105 83 58 
239 275 308 101 100 104 
199 255 241 119 42 40 
118 800 256 196 178 167 
231 809 221 221 157 117 
55 710 204 122 144 176 
93 627 325 161 177 202 
346 613 324 122 98 73 
320 753 246 144 125 110 
250 295 317 110 75 26 
69 551 319 98 115 150 
261 307 354 154 151 154 
142 115 294 106 88 69 
201 255 242 173 154 146 
202 252 240 120 80 83 
395 650 281 188 189 200 
328 168 256 88 75 85 
286 430 326 174 175 186 
377 687 274 127 132 156 
289 744 226 158 142 129 
202 254 242 174 160 155 
179 211 265 67 32 37 
170 76 267 144 115 87 
182 432 317 75 87 100 
257 538 316 127 130 139 
187 406 321 99 110 128 
180 832 232 174 130 96 
137 789 226 208 176 143 
324 201 269 43 39 50 
73 354 330 80 62 92 
191 887 222 77 64 55 
183 440 191 116 129 150 
236 469 223 148 150 157 
280 421 286 138 148 169 
231 541 365 107 139 177 
277 602 332 65 78 92 
60 473 301 114 118 127 
272 471 360 120 143 176 
177 609 368 194 189 195 
114 409 228 128 133 144 
256 369 257 120 66 101 
262 760 214 159 131 102 
394 670 292 147 162 214 
65 756 229 152 179 209 
170 16 323 116 106 101 
255 764 311 210 149 118 
206 253 242 168 164 171 
164 574 202 197 196 206 
130 285 316 56 25 23 
192 879 226 76 57 47 
328 222 258 62 93 122 
352 18 214 97 83 68 
319 652 302 126 148 173 
205 667 366 168 143 118 
171 844 322 147 116 93 
220 502 195 87 110 138 
80 330 315 128 39 74 
128 625 209 100 136 189 
149 102 298 120 98 76 
285 169 325 141 81 75 
356 625 291 74 71 71 
212 728 207 119 102 84 
57 617 238 70 92 114 
126 660 281 107 118 143 
266 224 335 99 102 109 
78 740 272 121 141 164 
334 185 247 159 95 76 
146 511 203 57 93 150 
80 419 341 108 69 57 
235 485 214 119 127 139 
351 60 196 146 116 91 
168 152 290 59 78 98 
196 420 332 79 107 133 
224 393 332 67 87 112 
207 428 340 149 156 169 
279 656 338 121 106 92 
132 475 368 83 104 136 
129 791 276 159 129 101 
341 46 200 115 99 83 
312 644 301 120 145 170 
303 384 312 203 170 135 
143 305 332 85 107 128 
85 544 272 127 128 134 
154 748 322 176 140 116 
322 146 264 71 67 91 
253 267 357 149 148 154 
279 616 229 115 125 139 
102 734 271 99 109 122 
119 660 302 135 93 90 
224 273 252 97 61 71 
209 904 226 64 54 48 
175 454 331 83 98 121 
127 600 203 103 128 153 
318 301 306 173 144 115 
164 988 271 187 165 149 
76 294 319 34 41 69 
210 230 224 157 49 14 
110 713 255 84 93 119 
226 788 296 214 147 128 
197 839 323 164 124 101 
83 667 224 91 105 123 
159 332 220 130 104 81 
305 233 327 76 109 136 
82 439 350 169 140 108 
152 524 363 51 85 122 
243 122 258 189 81 0 
277 204 227 149 60 72 
218 886 243 83 66 50 
309 585 325 137 104 72 
194 515 187 120 145 178 
96 384 261 115 127 144 
128 411 368 96 128 158 
217 933 245 86 59 40 
151 542 203 75 108 137 
85 733 210 193 201 220 
136 307 346 145 147 154 
259 110 279 120 115 112 
68 298 282 130 106 75 
255 412 360 137 147 162 
332 170 253 95 84 92 
192 251 272 75 77 83 
187 142 258 100 81 62 
171 508 353 89 106 125 
393 646 283 68 91 112 
213 228 224 62 53 52 
69 438 284 137 31 70 
60 672 248 63 74 99 
356 23 241 124 114 108 
171 137 264 111 99 91 
66 421 318 148 147 150 
105 608 196 162 162 169 
327 153 281 47 69 90 
8 675 237 89 111 158 
270 322 264 140 140 146 
263 502 309 166 161 163 
175 163 270 105 71 69 
134 450 366 149 131 111 
192 705 360 187 138 108 
143 117 262 123 94 58 
166 961 241 129 100 63 
139 905 289 75 60 50 
209 233 224 175 43 5 
353 103 214 138 110 82 
208 235 224 180 42 20 
218 596 359 160 151 151 
207 640 210 113 114 118 
90 611 331 122 149 201 
122 527 373 176 178 187 
178 76 290 103 81 57 
71 688 245 42 56 81 
195 942 236 156 123 92 
271 186 225 71 89 118 
94 601 235 111 120 132 
221 511 195 143 143 148 
279 390 277 178 161 153 
174 928 339 214 170 152 
255 642 214 131 127 128 
87 581 205 71 103 129 
72 614 248 72 92 109 
20 638 231 98 103 111 
279 362 362 157 80 13 
242 379 337 40 61 104 
216 795 291 208 140 123 
100 776 283 155 122 103 
293 319 263 187 183 194 
264 481 360 127 149 177 
225 905 306 86 64 46 
118 370 226 152 149 152 
348 24 222 114 103 96 
66 732 212 101 135 191 
190 687 365 73 93 127 
273 207 227 120 35 39 
238 570 253 112 123 141 
138 425 201 54 98 136 
315 61 196 93 73 63 
286 107 329 114 103 93 
277 384 363 145 124 107 
143 302 343 99 106 120 
270 359 356 137 99 50 
92 594 197 89 146 196 
212 264 288 74 81 91 
320 591 280 80 99 117 
218 484 197 102 117 137 
262 353 261 121 131 146 
310 592 247 14 63 101 
166 961 273 122 90 65 
88 279 257 115 105 96 
260 701 212 120 135 157 
176 64 307 119 95 69 
234 932 269 101 80 58 
216 929 241 103 80 62 
37 728 242 48 82 184 
302 168 217 110 110 113 
219 445 341 80 92 110 
233 368 327 50 75 111 
276 790 281 190 135 103 
120 489 219 86 105 129 
110 797 256 223 163 126 
107 569 197 105 130 154 
253 505 266 99 115 133 
58 389 285 96 53 62 
93 605 253 83 97 114 
112 519 234 73 91 114 
138 559 251 61 70 82 
338 150 227 148 119 77 
164 753 322 73 71 79 
207 843 230 193 146 106 
73 560 358 149 114 76 
276 141 342 85 33 41 
293 411 351 144 129 123 
116 585 257 95 103 114 
214 237 226 157 27 66 
340 602 264 80 97 114 
175 951 326 90 76 64 
330 177 286 111 23 38 
85 393 336 112 113 119 
295 338 360 184 155 126 
276 778 290 203 145 109 
277 743 220 109 103 101 
67 540 340 187 81 1 
238 913 296 93 68 60 
260 567 307 63 63 68 
217 224 226 73 56 49 
227 287 248 81 109 135 
216 226 225 48 56 77 
216 227 224 44 59 88 
137 908 262 114 95 82 
257 783 293 216 151 125 
86 505 259 54 84 115 
88 592 217 93 114 137 
269 637 341 97 107 120 
265 209 276 72 74 81 
168 507 352 127 131 141 
218 224 226 85 57 50 
287 425 346 155 170 199 
161 205 288 42 52 72 
106 454 229 116 130 148 
185 770 313 150 137 137 
227 788 216 149 109 71 
131 715 290 124 141 161 
224 340 232 141 116 93 
288 118 270 164 90 47 
47 614 220 89 112 133 
284 231 333 136 136 142 
300 229 324 73 105 133 
176 329 221 108 107 109 
233 548 216 82 109 163 
270 190 226 76 49 77 
237 538 214 98 132 173 
290 281 337 122 127 137 
304 164 216 126 72 45 
282 223 332 113 85 93 
210 569 217 180 179 189 
77 680 232 57 67 92 
156 578 373 102 135 178 
265 265 351 87 75 89 
88 522 262 68 93 119 
76 612 260 75 97 117 
221 227 224 97 52 49 
114 295 331 90 79 91 
131 322 224 95 113 129 
253 717 212 128 19 22 
171 333 312 151 114 69 
82 304 314 66 48 58 
120 644 265 151 155 165 
222 227 224 104 38 37 
261 760 213 101 72 48 
246 583 281 58 69 80 
281 800 276 206 152 121 
291 153 317 108 96 94 
192 325 306 95 107 125 
280 637 221 117 122 131 
362 29 242 169 153 149 
379 700 286 189 202 223 
145 895 251 129 104 78 
91 617 330 46 64 157 
121 505 221 158 165 178 
211 217 264 88 86 87 
60 397 283 138 54 78 
213 600 360 99 55 56 
320 171 267 129 53 48 
209 449 198 89 108 129 
112 313 328 43 45 55 
291 408 361 67 98 154 
174 909 344 185 141 119 
285 690 313 146 113 90 
63 360 283 119 68 74 
63 753 255 139 161 187 
153 907 242 120 100 86 
174 942 331 95 75 67 
343 133 226 136 108 79 
306 692 293 124 97 85 
144 898 249 143 118 93 
113 405 230 119 126 140 
158 792 285 139 132 130 
274 244 292 100 93 93 
246 384 362 44 88 148 
97 633 232 56 73 90 
232 289 310 126 126 132 
79 307 327 149 39 72 
244 766 209 95 84 72 
135 727 307 71 82 99 
254 551 324 73 98 122 
250 294 359 82 78 90 
288 430 353 116 141 186 
218 237 226 171 14 59 
166 626 363 184 178 181 
122 564 257 59 76 94 
298 349 274 228 185 133 
156 327 321 93 57 59 
244 360 244 151 149 153 
298 390 318 188 87 5 
315 682 231 88 129 162 
341 727 254 163 140 119 
300 239 328 81 82 95 
217 233 268 90 88 91 
188 50 294 102 81 58 
258 482 271 68 94 159 
257 416 261 98 118 149 
300 371 360 176 72 4 
73 542 362 183 78 10 
193 873 225 88 67 57 
211 947 311 99 78 64 
242 484 229 162 161 166 
43 653 195 97 139 174 
275 134 324 113 27 26 
235 440 359 62 91 144 
249 273 305 86 92 101 
199 624 364 74 122 158 
186 886 212 110 91 75 
53 743 246 88 124 192 
70 740 266 80 107 158 
273 281 251 176 167 166 
271 384 364 158 142 131 
127 351 342 128 129 134 
309 657 296 115 143 171 
137 589 210 77 78 102 
92 657 197 95 121 148 
111 443 222 89 111 133 
189 967 302 83 55 37 
44 624 257 68 83 101 
294 120 253 164 103 67 
22 693 205 82 145 192 
371 12 222 106 94 83 
79 497 366 159 12 60 
222 238 226 169 19 54 
271 248 345 115 127 143 
225 453 342 81 98 117 
29 632 235 77 94 112 
320 100 230 96 85 74 
235 296 312 88 104 122 
288 413 334 165 150 143 
329 599 325 123 95 60 
60 753 234 51 92 140 
276 120 312 103 77 52 
225 859 287 143 98 70 
74 616 291 58 83 105 
73 399 337 140 138 141 
86 425 348 144 31 73 
97 617 343 110 133 189 
81 261 267 105 96 88 
147 642 355 54 73 116 
189 862 226 113 94 80 
282 178 221 117 96 84 
184 649 370 131 144 162 
199 837 291 148 113 82 
168 981 284 182 151 121 
165 849 272 151 116 88 
252 355 251 105 114 127 
109 461 371 161 135 114 
132 410 363 98 127 154 
260 592 332 126 84 73 
331 151 296 64 87 107 
272 120 267 173 92 37 
273 142 327 93 24 27 
161 628 217 70 106 138 
148 269 301 85 93 108 
199 793 294 198 134 115 
143 260 332 91 53 68 
325 235 323 82 115 145 
174 778 303 130 139 155 
178 863 228 115 94 75 
238 290 313 93 105 120 
156 333 324 126 87 97 
91 595 353 196 199 211 
193 840 227 183 128 94 
79 534 273 91 101 114 
126 571 240 84 100 122 
223 878 296 148 107 78 
267 239 352 103 123 145 
362 38 196 125 101 73 
191 717 353 119 71 79 
288 728 317 168 145 126 
131 743 306 126 61 55 
333 158 251 89 50 67 
362 696 311 126 159 192 
270 212 329 109 86 92 
356 621 269 45 80 107 
70 665 228 64 80 96 
131 306 225 88 115 139 
217 854 294 139 101 73 
216 520 358 118 134 158 
210 879 235 79 64 51 
215 240 228 139 101 126 
296 743 305 191 173 161 
308 72 201 118 84 46 
150 898 321 162 126 99 
77 318 275 107 56 9 
210 412 328 40 59 80 
303 259 337 145 145 151 
214 243 231 156 81 116 
184 345 212 93 109 126 
111 687 238 59 77 117 
92 485 366 167 137 107 
89 603 346 201 208 223 
100 317 245 90 89 90 
326 135 267 134 95 73 
133 710 313 118 138 161 
13 673 199 170 127 123 
286 696 315 120 104 95 
184 625 222 69 101 125 
265 229 279 63 87 108 
174 887 228 80 61 46 
324 209 319 85 65 80 
303 370 317 202 169 135 
151 551 230 76 86 98 
146 550 373 188 189 199 
71 615 268 92 99 107 
326 649 305 140 158 181 
365 83 218 136 111 85 
199 387 199 63 94 127 
138 150 299 112 89 65 
136 253 302 43 30 28 
175 700 363 120 146 178 
265 645 342 99 125 153 
186 757 324 90 81 92 
193 611 242 48 69 88 
351 704 309 151 60 63 
221 746 330 114 139 164 
278 134 342 115 45 47 
157 933 246 96 76 57 
105 686 196 79 144 193 
226 626 367 65 59 71 
212 244 232 113 138 175 
224 705 205 152 167 185 
187 756 325 201 182 171 
327 226 261 66 86 117 
268 563 331 123 104 87 
232 432 343 88 99 115 
212 246 234 120 102 124 
273 225 343 147 145 149 
58 491 307 92 109 138 
284 444 356 95 117 165 
65 713 205 138 160 195 
68 388 279 141 102 82 
61 613 193 137 141 152 
317 297 284 156 152 154 
271 669 339 153 116 85 
119 381 226 145 144 149 
180 619 366 170 164 166 
142 192 308 98 79 57 
146 406 325 78 95 127 
154 971 263 128 99 72 
144 807 251 197 172 156 
286 217 302 61 88 111 
132 736 204 169 56 54 
234 614 353 102 76 77 
244 330 247 143 141 146 
280 105 324 118 106 95 
213 247 237 176 160 158 
188 835 228 184 137 104 
317 259 335 154 151 155 
167 655 200 115 130 148 
379 12 209 113 98 85 
206 256 245 175 167 169 
208 238 269 90 75 63 
274 619 341 163 176 213 
80 494 269 59 86 111 
259 525 356 55 79 130 
317 267 337 145 144 149 
171 298 299 100 101 105 
265 175 347 94 33 43 
170 93 274 96 76 52 
142 721 341 108 68 69 
69 426 338 139 144 156 
306 150 307 123 88 70 
217 940 309 122 97 81 
255 701 348 91 87 98 
135 242 303 35 26 28 
349 36 199 124 110 95 
98 777 227 193 43 81 
167 839 310 134 107 78 
205 566 210 191 190 199 
244 421 347 59 72 108 
246 354 351 61 75 98 
212 248 237 177 160 158 
237 405 234 104 120 141 
201 506 362 86 108 142 
284 415 290 152 160 177 
283 670 332 129 35 48 
329 193 312 126 102 84 
111 571 267 61 80 99 
207 728 339 166 146 131 
223 620 365 69 68 93 
250 376 359 40 95 137 
80 369 264 114 122 135 
342 656 325 74 91 144 
230 335 236 133 123 115 
329 228 317 83 113 140 
75 521 272 110 112 120 
163 792 288 129 115 106 
70 409 337 118 127 140 
316 261 261 76 117 154 
309 145 305 120 83 73 
167 844 290 104 78 50 
172 90 296 122 91 73 
246 547 236 173 176 187 
142 225 308 60 26 28 
320 610 235 74 108 138 
385 682 309 183 199 228 
28 636 202 78 93 111 
313 130 302 135 71 23 
303 323 264 109 127 154 
241 463 247 79 96 118 
276 461 351 64 86 157 
157 710 359 135 107 116 
272 754 312 194 140 107 
174 897 342 127 102 77 
104 590 282 67 80 95 
117 294 320 53 45 44 
142 505 203 73 104 156 
317 58 197 94 76 67 
176 917 230 84 65 46 
86 593 195 181 176 195 
152 809 243 156 135 120 
251 482 267 99 115 140 
317 318 281 184 158 131 
75 473 276 55 86 121 
71 656 247 71 99 123 
221 241 229 160 69 93 
220 241 230 178 31 69 
255 814 228 230 167 131 
310 633 316 143 154 173 
318 314 337 189 156 121 
136 563 238 78 87 99 
142 920 302 89 71 61 
221 243 231 183 82 109 
10 682 207 127 127 135 
217 337 228 133 99 63 
70 345 261 190 94 62 
67 385 278 126 76 80 
165 197 281 35 40 61 
195 364 204 88 107 126 
309 119 222 136 112 86 
197 478 190 158 156 160 
258 334 256 151 147 151 
140 84 274 111 92 73 
358 94 218 148 120 91 
223 242 230 184 45 80 
144 531 219 107 111 120 
147 438 194 98 114 135 
357 625 330 51 75 120 
108 440 366 168 145 121 
110 406 349 98 113 130 
178 444 328 90 104 121 
71 711 202 195 190 210 
178 607 368 171 176 189 
352 700 256 163 174 191 
145 475 194 63 102 149 
268 731 337 202 187 178 
138 405 345 64 89 124 
147 290 316 129 124 125 
219 666 355 147 116 81 
379 694 278 156 165 180 
223 924 245 70 52 39 
221 312 239 135 133 134 
190 585 231 85 109 135 
79 663 226 72 89 107 
58 406 297 112 89 102 
144 764 304 206 186 175 
111 325 239 119 135 160 
286 111 338 123 104 90 
254 554 322 82 104 126 
328 222 267 73 100 124 
218 246 235 187 180 184 
270 285 319 90 77 80 
216 247 236 173 170 177 
234 450 355 74 84 107 
124 802 261 210 180 153 
120 748 290 137 59 63 
63 467 329 74 107 135 
258 377 353 109 99 89 
114 484 375 142 121 105 
64 499 338 154 98 65 
263 277 255 150 132 116 
272 147 290 109 38 17 
75 501 361 186 156 123 
200 738 206 160 130 105 
213 631 371 62 49 89 
169 710 201 133 164 195 
225 806 280 202 137 113 
356 618 273 86 108 129 
134 266 311 38 32 38 
125 705 268 106 117 134 
263 295 261 124 62 57 
74 544 364 185 68 10 
94 458 256 58 88 126 
263 196 276 109 17 31 
302 797 243 189 133 99 
133 760 305 144 93 85 
68 454 286 128 88 113 
302 657 295 122 150 178 
88 368 259 117 136 162 
170 904 226 105 88 74 
230 361 321 82 99 116 
305 245 237 155 53 77 
86 410 340 89 106 125 
200 912 230 74 56 41 
288 589 318 113 79 67 
363 69 206 136 113 89 
129 195 316 103 92 82 
209 638 371 78 63 62 
280 251 231 190 85 101 
236 908 286 91 69 58 
89 313 325 89 41 56 
260 152 275 80 41 55 
344 640 332 107 124 167 
326 141 299 112 84 69 
337 607 296 80 77 76 
223 247 237 194 187 193 
86 542 270 62 80 97 
124 464 212 145 152 164 
212 21 313 123 96 76 
127 391 216 85 106 129 
127 771 216 192 143 92 
216 249 238 185 179 184 
235 450 236 119 131 148 
62 500 302 49 91 136 
217 249 238 175 170 178 
188 819 224 181 128 91 
243 381 242 57 90 128 
385 30 234 131 108 120 
229 806 221 213 150 110 
138 279 324 89 26 46 
220 926 316 125 101 84 
84 597 345 158 174 203 
220 248 237 179 174 181 
277 767 299 198 135 107 
195 484 357 70 98 135 
301 382 341 217 167 94 
143 310 328 114 107 111 
318 162 218 179 75 7 
145 252 329 106 25 32 
192 881 226 83 64 51 
140 267 321 65 30 46 
365 715 297 169 176 193 
318 624 232 48 96 132 
94 778 243 210 146 58 
267 715 215 148 76 65 
209 251 241 183 176 178 
88 607 269 42 65 83 
338 600 270 79 101 123 
184 41 308 119 94 67 
248 569 263 66 81 96 
67 290 296 134 58 3 
175 839 290 104 78 46 
109 620 196 104 136 169 
197 388 198 67 98 128 
68 728 265 99 117 154 
300 186 220 134 83 86 
306 123 229 126 114 104 
115 551 250 106 111 120 
270 583 290 91 86 88 
114 285 243 127 75 44 
318 293 302 136 44 80 
135 392 359 148 148 156 
147 397 199 72 104 132 
270 477 310 176 172 177 
122 569 192 150 157 171 
79 314 252 126 118 123 
287 716 318 115 102 99 
69 279 289 86 65 38 
33 629 237 75 95 117 
78 608 235 66 95 122 
120 280 325 98 40 42 
172 21 325 140 128 122 
197 435 195 76 107 145 
225 520 196 143 151 165 
205 284 307 67 95 118 
90 646 275 110 111 125 
190 268 243 155 151 154 
253 803 220 237 174 139 
276 423 359 158 169 185 
63 408 314 73 107 138 
376 643 285 67 84 100 
214 19 320 113 86 65 
316 201 228 150 122 134 
162 187 304 86 41 34 
318 708 237 115 65 70 
341 48 194 118 105 94 
260 789 212 170 119 75 
235 626 362 122 64 42 
271 344 350 137 72 31 
104 712 202 95 121 146 
265 129 242 173 107 86 
315 322 310 185 155 124 
257 707 347 167 155 151 
257 269 301 94 102 114 
186 841 231 143 102 69 
328 200 264 93 36 55 
196 403 327 74 103 135 
229 368 230 148 148 154 
194 541 365 101 125 156 
265 148 278 90 39 52 
256 280 358 86 132 168 
122 378 349 70 111 142 
212 255 244 178 173 177 
252 692 209 171 177 192 
277 127 324 120 45 31 
200 970 286 122 89 58 
317 282 305 101 113 137 
207 787 298 208 143 122 
355 94 213 124 102 77 
188 843 231 145 101 61 
215 254 244 185 179 183 
236 796 215 174 122 85 
174 389 195 69 101 128 
332 198 299 97 96 100 
316 79 193 173 114 86 
217 250 240 186 180 185 
191 385 198 74 101 127 
328 223 267 85 109 130 
216 251 242 176 173 183 
88 552 268 76 100 131 
274 574 301 100 92 85 
158 325 226 93 109 126 
270 791 279 203 145 109 
258 743 213 42 38 47 
168 590 368 94 142 180 
353 74 201 149 122 98 
254 276 354 82 115 143 
180 658 200 119 134 155 
254 812 257 218 157 126 
42 626 266 73 39 46 
12 692 219 96 126 197 
164 984 275 178 155 136 
336 85 233 83 70 58 
171 664 199 85 135 175 
125 647 262 119 124 156 
285 428 344 131 144 179 
223 783 301 213 149 128 
190 899 220 54 43 37 
130 556 250 64 77 105 
115 590 204 76 123 161 
246 385 348 85 95 108 
208 979 257 140 110 91 
112 560 258 50 82 118 
260 305 337 104 66 72 
226 376 322 97 111 127 
94 387 262 90 104 122 
201 245 271 86 75 67 
119 657 242 110 116 130 
177 963 305 127 88 62 
75 301 246 133 105 81 
66 598 213 119 128 141 
29 703 254 94 74 142 
172 274 237 79 117 150 
309 356 338 202 168 131 
392 22 213 142 128 121 
194 836 304 129 90 59 
313 704 294 102 83 65 
263 345 261 120 128 139 
248 350 349 28 55 87 
229 544 211 137 162 194 
220 764 209 155 121 104 
174 304 310 72 86 102 
372 12 241 126 114 106 
153 687 360 122 151 179 
247 327 249 139 138 142 
223 250 240 187 180 188 
88 574 365 108 137 185 
139 555 222 72 95 116 
159 644 205 124 125 130 
185 290 238 119 123 130 
193 835 322 158 122 100 
230 483 358 111 130 152 
318 245 291 95 71 85 
140 243 309 53 28 38 
221 252 243 188 182 190 
227 635 215 47 54 61 
156 767 307 166 137 114 
328 646 308 101 139 172 
245 488 248 148 153 164 
189 242 269 79 79 82 
370 58 232 120 95 67 
320 162 267 76 61 76 
266 272 334 75 82 101 
259 228 277 66 77 89 
210 893 229 64 51 44 
78 291 324 111 104 108 
260 502 360 124 148 178 
14 650 248 104 131 161 
331 142 290 109 79 68 
264 569 301 101 95 92 
226 921 249 70 53 44 
105 467 370 172 148 122 
281 427 338 54 81 144 
309 799 268 207 144 114 
103 579 367 103 133 189 
139 560 235 82 90 102 
278 758 220 133 114 96 
185 542 366 95 110 134 
133 216 311 107 80 77 
283 760 222 73 74 75 
292 757 229 127 110 95 
171 887 333 121 91 78 
74 613 260 78 96 114 
227 774 212 92 74 72 
257 323 357 131 134 142 
249 256 242 212 83 26 
60 506 323 189 157 122 
265 269 248 145 151 167 
106 611 354 113 129 201 
264 474 286 75 90 146 
381 690 279 139 147 164 
288 667 311 79 125 159 
165 521 197 138 141 171 
104 534 247 82 96 114 
243 579 271 56 69 84 
272 599 314 39 50 59 
76 528 367 198 159 111 
214 18 317 104 80 59 
204 409 198 76 107 137 
90 462 360 119 16 41 
205 591 237 132 131 136 
263 217 353 130 130 133 
142 312 346 79 95 114 
282 305 262 77 130 169 
75 280 275 108 101 97 
280 361 362 169 73 10 
273 140 319 83 31 25 
265 278 351 79 121 154 
105 316 338 146 97 85 
42 621 225 77 104 127 
276 190 343 53 63 90 
144 454 347 143 139 142 
277 184 295 57 35 44 
284 106 322 114 103 94 
226 653 354 164 132 109 
160 809 232 185 148 115 
312 70 214 99 81 64 
176 936 241 125 91 52 
224 192 234 113 51 58 
303 389 309 191 71 8 
234 255 282 67 92 114 
314 651 228 47 75 137 
220 758 320 208 156 130 
101 451 242 71 103 131 
363 723 276 203 78 79 
272 697 215 160 37 39 
230 650 207 50 57 69 
131 589 371 82 117 184 
160 526 365 105 122 141 
92 710 201 129 129 133 
202 969 235 149 114 77 
121 564 373 69 103 175 
231 471 357 110 124 141 
135 126 291 101 85 69 
356 88 236 118 95 71 
214 274 302 67 88 108 
213 862 207 113 96 88 
75 497 356 154 26 73 
269 186 319 110 30 25 
96 586 218 99 118 138 
163 664 348 75 92 116 
281 584 319 121 87 70 
73 523 275 109 110 119 
259 274 305 60 81 101 
225 199 235 51 64 101 
273 237 328 98 102 110 
208 354 217 117 57 49 
313 341 342 165 12 74 
237 127 263 101 101 105 
70 313 283 133 72 4 
68 694 253 55 68 81 
204 392 311 43 61 77 
130 441 368 136 120 106 
173 898 342 123 98 75 
235 469 361 83 104 147 
227 198 234 78 62 81 
227 199 234 71 62 82 
160 204 293 40 36 50 
350 724 259 145 35 34 
124 668 306 157 109 103 
223 855 288 155 111 81 
210 732 208 73 58 51 
255 344 358 136 75 28 
216 919 236 74 58 50 
369 72 225 124 100 73 
239 505 213 114 126 144 
178 901 216 72 52 38 
129 693 263 106 116 140 
271 186 281 81 34 42 
288 579 325 141 100 85 
337 126 246 141 125 110 
374 635 300 83 73 66 
159 273 283 84 98 113 
339 616 334 128 138 153 
359 82 234 121 96 73 
241 398 354 74 86 107 
143 481 356 115 121 132 
228 196 233 104 51 53 
267 105 292 98 85 74 
332 205 261 101 52 66 
48 621 196 137 137 142 
247 413 251 77 103 133 
218 870 313 155 107 79 
331 124 288 141 68 5 
192 890 215 75 62 53 
65 423 289 98 88 119 
214 420 204 61 89 123 
268 487 318 100 109 147 
117 652 199 88 108 130 
216 962 260 91 75 66 
286 181 221 91 88 102 
263 786 286 214 154 120 
273 193 317 75 24 28 
118 669 335 197 134 130 
257 244 284 115 113 116 
106 350 335 72 70 71 
243 351 330 60 91 115 
226 366 319 37 72 108 
317 783 256 194 157 119 
241 513 364 58 85 131 
253 253 288 80 96 112 
74 474 279 81 101 125 
243 581 351 97 100 140 
260 721 344 149 99 74 
129 663 252 15 31 95 
259 542 280 90 111 134 
163 774 303 211 193 183 
287 111 298 114 91 77 
225 203 235 43 61 93 
224 183 258 111 71 55 
90 507 370 179 147 113 
88 555 268 78 107 140 
264 421 364 120 142 176 
226 202 234 46 60 92 
28 639 199 80 103 128 
157 975 263 117 91 71 
148 805 262 97 114 133 
207 373 305 50 77 110 
303 207 224 125 112 121 
225 204 234 41 60 88 
183 816 278 162 114 90 
150 655 200 82 108 132 
84 716 202 209 204 221 
270 426 358 74 100 139 
77 484 356 149 13 62 
158 893 330 69 58 51 
258 338 356 113 110 117 
188 522 196 60 76 102 
48 689 197 192 193 211 
226 204 234 41 60 89 
131 267 234 116 109 107 
320 774 252 65 81 98 
218 413 333 84 98 116 
277 178 223 73 90 114 
354 106 228 129 103 74 
262 450 358 132 147 168 
98 501 249 123 125 132 
226 206 234 48 62 85 
323 117 251 111 101 92 
227 597 357 123 89 98 
357 618 312 114 95 74 
273 758 308 197 140 106 
256 279 347 76 41 56 
94 282 251 92 67 53 
252 530 348 74 85 102 
107 474 373 166 84 21 
230 200 233 82 53 75 
81 597 342 205 210 224 
161 740 336 134 125 133 
332 738 251 150 124 97 
274 212 345 106 63 82 
182 25 321 164 143 154 
120 460 213 67 111 157 
163 850 281 140 108 81 
340 746 291 193 185 185 
205 576 368 149 165 187 
222 861 278 155 111 82 
113 426 365 162 139 115 
63 397 282 129 38 69 
279 615 341 75 90 149 
284 373 275 169 85 9 
173 599 369 92 125 153 
81 460 362 184 154 122 
205 595 365 153 149 153 
85 474 266 60 92 128 
254 303 255 84 114 140 
253 526 348 73 84 105 
208 237 269 91 69 56 
369 668 327 128 142 198 
153 250 292 76 79 91 
287 339 359 133 139 151 
129 712 288 133 147 168 
301 114 298 119 108 100 
79 311 250 194 75 0 
87 772 229 143 26 60 
159 852 315 148 111 83 
306 224 229 160 98 111 
96 594 289 54 76 102 
98 620 338 188 196 213 
210 640 209 105 108 114 
79 730 268 119 122 135 
165 899 340 84 66 51 
110 383 237 152 151 157 
251 651 209 42 84 121 
327 758 291 154 114 91 
296 787 234 165 120 82 
98 777 282 157 109 89 
189 356 299 57 83 104 
227 674 350 119 69 55 
249 316 251 89 117 143 
255 787 289 211 147 123 
15 689 208 65 104 186 
145 314 328 89 101 116 
177 582 227 71 105 137 
215 382 214 75 107 135 
199 970 292 157 128 102 
202 379 203 56 90 123 
201 462 343 97 122 149 
269 262 243 161 100 35 
266 583 288 88 85 95 
106 432 235 47 83 116 
167 228 275 98 95 96 
147 920 316 131 104 87 
174 530 197 66 93 125 
57 693 252 69 73 120 
75 547 289 92 107 135 
206 813 277 169 117 94 
183 148 260 96 86 78 
375 695 308 152 178 208 
275 282 323 85 70 77 
266 122 291 95 89 83 
114 305 330 33 57 76 
344 616 240 152 154 161 
195 959 318 92 73 56 
191 689 200 171 176 187 
69 506 284 59 85 121 
71 678 195 152 158 173 
202 12 326 98 73 57 
327 261 315 133 147 166 
91 351 328 78 78 84 
26 706 213 186 182 189 
145 365 336 86 100 127 
331 185 293 138 55 45 
197 216 263 88 59 54 
220 497 196 132 137 146 
297 401 355 116 98 84 
90 478 257 48 79 115 
238 195 233 114 48 38 
270 461 336 107 127 174 
117 441 374 138 106 102 
65 520 344 141 143 150 
169 753 209 91 78 81 
102 656 331 164 114 105 
163 207 282 36 56 79 
121 371 341 67 101 129 
256 286 347 87 82 91 
324 688 236 117 134 158 
396 14 234 135 109 93 
316 636 318 156 164 191 
240 786 297 210 148 122 
255 547 322 90 102 116 
195 447 337 78 97 127 
95 263 255 130 111 99 
303 579 304 105 97 92 
254 349 336 41 73 104 
145 622 362 155 174 207 
318 277 272 92 125 153 
208 243 271 84 80 79 
354 703 258 141 154 170 
107 681 195 177 174 184 
132 170 300 109 88 64 
319 217 288 103 54 70 
49 609 210 128 130 137 
175 700 200 143 163 188 
219 242 272 83 90 100 
222 417 212 100 117 139 
5 678 221 100 102 139 
130 279 314 54 27 33 
331 763 258 170 152 141 
216 968 268 125 94 67 
384 679 280 152 165 185 
288 594 240 77 102 126 
365 703 266 177 192 211 
175 841 238 164 125 93 
191 797 291 194 140 121 
289 119 263 171 98 53 
263 496 299 123 130 142 
285 116 326 118 102 87 
272 289 256 159 142 141 
134 556 220 74 102 127 
282 771 222 100 118 136 
246 154 264 52 39 33 
82 586 354 214 211 215 
317 214 235 101 106 124 
213 648 366 103 69 71 
346 607 312 116 96 75 
70 515 351 169 137 102 
212 24 325 145 109 83 
273 472 355 142 155 178 
232 201 233 77 59 73 
163 846 316 143 113 84 
244 552 236 124 136 155 
146 887 277 168 111 91 
374 46 213 120 96 69 
135 347 218 102 120 138 
246 815 257 203 144 116 
254 495 277 102 108 134 
13 656 249 101 124 157 
152 258 329 65 96 118 
234 201 233 86 50 63 
279 458 356 71 103 161 
333 706 245 150 156 172 
181 45 308 119 93 64 
347 34 205 109 93 81 
209 233 267 98 53 32 
325 141 261 133 125 123 
106 363 245 83 59 52 
252 523 237 179 177 181 
12 644 218 114 116 121 
73 569 325 96 108 156 
121 273 322 82 25 35 
117 455 375 175 88 31 
369 630 310 108 89 70 
115 724 268 119 127 141 
302 752 234 163 142 122 
222 688 203 107 135 166 
232 206 232 48 55 83 
179 592 222 136 133 138 
140 187 311 94 84 76 
230 650 206 50 57 68 
107 779 287 114 117 129 
103 651 343 185 124 123 
276 654 339 53 54 61 
183 477 343 140 148 161 
230 648 354 160 101 69 
305 120 241 132 117 105 
269 487 356 94 119 163 
142 395 329 60 78 123 
267 163 279 70 43 53 
68 433 287 131 68 93 
161 611 220 164 165 173 
304 271 341 133 138 149 
192 972 296 124 97 68 
210 548 199 81 108 149 
276 285 322 81 68 76 
159 333 323 140 91 105 
62 669 242 64 73 87 
65 500 293 73 105 137 
175 242 271 75 81 90 
177 415 193 69 100 132 
212 387 314 49 76 109 
236 510 209 100 111 127 
256 343 338 41 71 101 
312 624 323 95 111 148 
137 914 276 78 65 58 
87 432 358 153 39 62 
119 561 204 86 112 138 
388 25 241 120 85 76 
187 725 352 99 95 133 
362 650 331 100 123 173 
189 930 235 114 89 63 
72 386 335 76 117 150 
82 376 264 157 153 158 
214 728 337 193 146 92 
248 493 266 75 96 127 
289 121 254 171 98 50 
210 353 218 130 93 53 
85 426 349 146 10 65 
173 629 367 154 154 161 
326 203 237 157 92 105 
299 387 341 203 64 10 
316 262 285 88 78 91 
145 333 335 111 119 133 
246 404 344 84 94 113 
320 685 234 151 156 168 
354 27 201 124 107 90 
121 578 247 94 108 124 
262 679 209 98 121 163 
220 946 301 87 70 60 
304 630 311 118 137 158 
116 329 236 89 76 82 
238 773 308 214 153 124 
174 271 237 80 114 144 
206 973 241 146 112 82 
104 434 358 137 114 82 
235 806 277 196 134 109 
155 630 214 86 65 68 
242 811 266 201 139 112 
231 209 231 44 59 82 
166 417 192 91 108 129 
360 40 197 129 105 75 
283 637 331 107 145 179 
177 788 294 192 140 120 
340 146 242 154 68 4 
158 215 301 27 45 78 
274 352 357 154 77 10 
229 212 230 44 49 55 
113 435 220 56 96 128 
372 687 315 112 150 191 
225 371 319 41 70 108 
334 100 239 84 68 52 
73 576 327 105 120 162 
367 653 256 73 105 170 
261 109 283 132 120 111 
260 521 355 39 63 110 
145 938 299 100 80 67 
146 207 309 53 31 32 
230 212 231 45 49 59 
69 650 194 112 117 145 
333 51 200 115 107 101 
242 363 361 66 96 130 
244 464 252 147 147 156 
367 718 286 90 45 83 
98 687 234 116 121 134 
213 858 242 116 84 63 
151 641 206 122 125 132 
122 596 368 193 198 212 
269 467 343 79 101 135 
159 597 369 134 156 187 
264 218 277 59 88 111 
292 797 236 204 147 112 
248 313 321 108 75 31 
59 448 310 106 135 163 
224 210 232 48 46 50 
204 737 206 109 96 87 
243 384 362 49 92 152 
225 211 232 48 46 48 
202 629 364 124 96 106 
235 281 310 119 119 124 
69 332 305 84 74 92 
74 516 360 195 162 125 
98 588 221 83 106 129 
108 387 339 92 92 96 
159 848 298 131 103 76 
224 212 232 46 46 49 
225 212 232 48 45 46 
145 554 230 73 86 100 
315 183 312 89 81 92 
151 426 323 51 76 117 
262 714 345 157 135 113 
164 847 317 143 112 84 
255 757 319 212 151 121 
63 535 329 179 70 0 
90 773 275 148 15 47 
305 150 216 117 99 76 
314 578 315 113 97 81 
139 898 257 148 122 99 
348 74 237 98 80 61 
159 208 300 37 41 59 
74 750 269 160 175 196 
111 286 333 125 75 89 
266 444 275 102 122 153 
65 324 294 126 77 66 
195 32 285 132 108 86 
368 717 285 79 78 155 
71 415 282 117 77 89 
227 216 229 54 47 47 
210 712 204 143 88 85 
91 687 234 120 121 128 
270 150 329 39 41 47 
149 555 235 81 88 97 
171 527 200 82 94 110 
296 805 246 229 162 130 
238 432 362 96 120 161 
169 838 272 150 109 83 
175 149 271 93 85 89 
85 388 265 168 119 52 
147 333 330 117 122 131 
261 241 356 128 137 151 
155 483 191 124 136 167 
331 125 286 145 69 6 
121 653 247 127 130 140 
188 790 220 145 107 69 
209 696 352 186 74 44 
257 258 293 85 97 112 
100 780 237 188 88 111 
147 944 294 88 70 63 
216 513 191 79 104 128 
118 454 214 115 134 157 
272 590 251 68 104 133 
171 837 310 126 100 74 
295 209 322 124 52 74 
254 507 265 94 116 138 
281 309 344 167 143 118 
249 312 321 121 82 25 
243 494 365 103 129 168 
227 222 224 94 43 27 
222 645 208 82 85 92 
118 379 344 69 91 112 
176 896 220 96 77 63 
278 196 308 99 28 24 
328 760 254 132 115 103 
220 188 258 81 77 79 
360 71 205 134 111 89 
160 426 316 65 91 120 
155 149 291 84 60 42 
340 755 280 137 122 118 
74 585 339 52 79 162 
152 654 200 105 123 144 
129 721 286 119 136 156 
120 671 241 121 127 139 
248 606 343 86 69 64 
209 965 245 139 116 94 
233 383 332 105 111 120 
229 216 229 51 46 45 
274 149 301 83 43 50 
279 423 286 111 137 166 
149 747 208 172 144 134 
89 757 219 177 127 137 
222 627 370 107 90 84 
201 766 210 179 162 149 
284 148 327 65 100 126 
81 312 311 45 64 92 
317 78 218 85 72 60 
81 595 324 108 120 160 
142 548 241 80 88 99 
215 897 327 163 125 99 
290 413 326 141 122 109 
315 92 221 72 62 52 
87 443 265 141 136 137 
