ply
format ascii 1.0
comment Created by CloudCompare v2.11.1 (Anoia)
comment Created 2/28/22 9:45 PM
obj_info Generated by CloudCompare!
element vertex 2021
property float x
property float y
property float z
property uchar red
property uchar green
property uchar blue
end_header
12 688 210 84 150 196 
111 751 212 147 38 53 
206 672 362 190 123 45 
41 706 204 165 179 206 
144 685 336 148 160 180 
80 296 327 141 67 76 
91 639 229 103 109 119 
290 607 349 101 128 162 
279 245 342 145 145 151 
62 335 263 93 102 119 
262 169 346 88 32 37 
310 202 315 65 83 104 
260 334 354 178 147 108 
208 542 364 78 99 122 
101 604 354 206 213 231 
169 239 228 131 25 36 
228 482 210 77 99 124 
332 675 308 96 128 155 
200 934 234 89 65 43 
342 603 314 115 95 75 
172 529 369 94 121 149 
309 694 295 112 41 40 
317 256 336 143 142 148 
176 833 280 154 115 88 
260 238 229 162 59 90 
116 261 329 63 45 57 
8 670 239 104 127 168 
59 502 323 190 157 120 
91 709 200 100 107 116 
56 713 255 104 115 156 
182 731 205 127 42 43 
70 313 263 130 56 3 
207 641 372 84 106 127 
324 228 325 84 111 136 
192 776 308 218 162 139 
158 376 310 59 92 120 
269 275 324 83 84 89 
277 440 363 116 138 177 
273 286 266 99 120 141 
248 283 324 60 81 100 
72 317 306 45 54 76 
320 273 272 93 124 152 
98 382 344 60 73 86 
229 909 259 70 58 50 
370 672 269 136 153 175 
340 610 297 87 81 78 
164 123 270 113 91 71 
331 627 239 140 153 175 
20 701 241 124 153 199 
212 396 325 62 86 113 
175 234 230 93 44 55 
322 292 293 150 150 158 
173 237 229 120 38 39 
136 901 264 113 96 81 
146 678 345 152 175 202 
76 469 350 182 150 115 
288 162 324 103 94 102 
323 703 300 102 21 52 
296 277 346 109 122 137 
172 239 228 134 37 59 
79 517 368 189 159 129 
173 238 229 136 34 43 
247 475 253 104 120 141 
127 504 211 102 123 154 
175 236 229 109 46 51 
139 799 269 175 162 156 
116 422 220 64 95 129 
142 419 334 73 90 120 
188 456 337 80 93 110 
178 341 206 92 108 124 
336 653 322 80 102 138 
66 680 196 179 179 188 
107 476 375 164 72 12 
262 180 329 81 41 61 
215 958 288 91 74 61 
108 300 241 108 98 88 
216 491 354 108 126 150 
285 184 330 109 53 69 
259 471 276 95 119 146 
218 511 191 139 139 145 
274 418 362 72 102 148 
252 343 253 128 128 133 
172 892 228 87 70 53 
149 247 302 88 98 108 
253 494 275 97 107 134 
311 114 273 114 103 95 
251 547 253 185 180 183 
376 654 326 88 116 169 
190 296 315 139 140 147 
296 213 232 108 93 103 
328 103 213 140 110 79 
139 659 345 159 175 202 
149 586 212 65 108 146 
214 310 310 124 127 135 
130 720 289 123 142 166 
90 258 260 105 93 90 
146 548 217 63 84 110 
314 166 227 161 37 76 
129 663 253 90 91 129 
221 391 334 71 92 116 
189 242 270 80 81 86 
289 287 261 83 126 164 
269 581 329 129 89 73 
200 970 234 138 100 53 
74 576 320 81 108 161 
265 473 292 161 162 170 
218 925 239 81 61 48 
257 193 351 34 58 100 
221 597 359 143 138 143 
68 455 284 106 127 149 
43 677 251 79 107 153 
134 556 250 65 76 87 
335 161 285 46 40 49 
123 784 222 216 174 130 
295 394 329 184 76 5 
258 655 210 90 109 134 
161 244 227 99 96 104 
118 601 363 77 103 171 
13 644 222 106 108 112 
382 649 322 90 121 173 
96 346 335 105 50 76 
106 558 371 138 64 81 
157 879 265 99 78 53 
95 477 246 103 116 133 
154 95 264 98 75 42 
171 697 200 159 181 208 
161 850 316 147 113 84 
191 601 369 188 181 184 
243 471 236 134 142 155 
249 511 363 157 168 186 
106 280 332 121 77 78 
272 447 363 86 117 171 
286 215 304 51 80 103 
161 245 228 111 74 77 
254 294 343 111 78 60 
319 92 205 165 120 97 
196 288 313 121 124 131 
206 930 235 108 82 56 
277 453 310 186 181 184 
133 178 302 99 81 63 
203 635 213 76 101 126 
63 325 263 52 82 107 
257 525 288 154 155 163 
384 34 231 209 185 182 
25 668 263 83 105 166 
164 202 283 46 52 70 
141 291 225 86 107 128 
95 766 282 145 38 51 
175 912 343 188 147 124 
166 243 227 107 117 126 
257 525 294 114 124 140 
72 523 275 101 104 114 
166 526 205 67 84 104 
189 343 304 72 89 110 
129 724 287 113 132 156 
158 519 199 97 121 157 
153 333 213 141 110 90 
163 549 370 163 172 187 
345 691 253 153 162 177 
172 535 192 73 103 129 
276 186 351 56 43 67 
209 580 365 174 177 187 
74 555 363 182 161 147 
230 616 236 50 57 69 
154 307 302 83 88 96 
133 747 314 67 53 90 
155 174 299 77 57 65 
165 295 297 79 87 96 
245 507 228 107 121 138 
255 187 274 74 45 70 
173 838 304 112 85 56 
218 436 209 105 117 133 
309 206 235 118 115 120 
85 587 297 48 89 139 
166 244 227 118 81 93 
156 240 287 67 87 106 
241 758 321 214 150 123 
196 914 231 76 58 41 
256 395 362 93 115 144 
221 807 280 202 134 111 
163 535 213 56 71 88 
240 398 350 83 90 113 
162 233 279 67 58 69 
153 959 254 110 87 60 
254 577 290 79 74 71 
67 463 287 145 141 143 
160 248 228 148 47 78 
217 537 199 157 178 204 
140 92 269 116 95 72 
87 690 236 94 104 119 
144 926 303 89 70 60 
155 354 320 138 135 139 
161 250 228 97 130 154 
275 167 306 69 39 47 
120 405 369 105 130 155 
270 275 259 177 174 179 
295 620 331 146 163 192 
196 172 258 63 63 67 
131 660 196 126 145 168 
96 452 254 96 122 147 
134 482 360 99 113 136 
318 306 325 205 174 141 
160 252 228 90 139 180 
174 455 189 159 158 164 
155 460 189 93 119 152 
207 348 305 63 90 116 
182 660 371 154 170 191 
55 643 193 88 147 193 
342 608 323 121 97 72 
83 705 251 72 77 85 
152 574 201 158 87 90 
345 116 231 147 116 86 
339 102 246 109 89 66 
78 770 264 178 35 56 
80 611 191 96 131 163 
309 133 222 117 94 66 
251 425 367 125 142 164 
274 152 350 96 62 80 
218 836 270 171 124 98 
274 150 224 151 69 0 
277 811 241 240 177 142 
99 636 193 144 168 198 
296 581 273 69 83 99 
228 929 257 103 81 60 
162 456 324 44 68 88 
142 113 260 133 101 59 
164 249 228 144 96 105 
308 788 247 163 114 83 
205 796 291 197 129 113 
177 485 187 179 173 175 
143 165 296 111 85 59 
165 250 228 135 83 94 
295 677 223 108 126 155 
318 634 321 99 119 178 
163 915 234 87 68 51 
108 327 332 69 50 50 
227 622 366 53 47 84 
174 560 371 189 193 206 
273 349 271 104 126 152 
189 792 220 150 113 71 
60 381 302 139 83 74 
130 303 343 112 122 137 
192 523 196 83 110 145 
18 641 220 110 113 119 
223 229 270 75 85 97 
89 781 250 197 29 58 
163 529 207 83 95 112 
304 133 224 99 83 67 
101 701 199 90 106 122 
146 927 311 113 87 71 
213 423 339 87 99 118 
78 595 340 216 215 222 
194 947 238 84 69 57 
107 645 348 153 112 106 
234 925 269 96 80 65 
158 213 289 31 55 88 
222 907 312 107 80 59 
238 300 253 86 119 148 
100 653 338 181 125 119 
335 205 298 102 42 55 
144 702 349 112 142 171 
325 665 237 83 109 144 
110 643 238 76 94 117 
129 656 261 147 149 158 
280 418 296 103 126 154 
88 608 244 104 111 120 
168 345 203 115 82 83 
139 444 197 68 93 132 
139 539 233 71 88 114 
179 302 231 106 112 120 
265 658 212 142 145 154 
93 606 349 198 209 227 
168 242 227 113 91 98 
168 243 227 106 118 130 
181 479 340 137 138 145 
271 558 320 106 93 82 
309 601 331 51 83 118 
250 643 363 139 105 119 
202 839 301 131 88 57 
71 409 327 73 109 140 
294 158 223 129 52 18 
201 385 203 88 114 142 
130 568 237 75 88 102 
242 669 354 149 109 98 
77 259 306 69 57 54 
341 735 258 195 171 150 
100 633 236 41 70 100 
63 385 279 126 102 97 
128 129 277 98 83 68 
61 475 297 147 143 148 
140 917 258 127 108 92 
31 695 201 59 78 114 
269 134 285 70 36 29 
195 667 200 94 128 166 
258 189 343 34 45 73 
244 318 355 107 82 82 
302 122 235 132 120 111 
299 190 317 113 91 100 
203 672 366 103 122 143 
71 691 245 78 82 89 
252 508 252 134 143 158 
170 246 227 178 19 65 
322 290 288 153 151 155 
157 376 311 60 96 125 
161 886 248 73 60 47 
271 340 359 168 143 118 
107 370 332 46 62 78 
303 181 313 94 89 96 
107 393 342 96 108 123 
157 510 355 122 128 139 
269 280 351 137 135 138 
123 678 244 100 110 126 
172 242 227 120 104 118 
125 469 372 154 135 118 
160 862 278 143 111 86 
147 737 203 198 162 126 
174 977 238 126 89 58 
134 182 303 78 65 51 
129 758 306 143 135 138 
268 374 366 134 118 103 
238 565 354 97 107 150 
58 504 310 65 106 148 
143 205 309 55 30 29 
172 336 313 116 108 102 
85 644 194 171 174 189 
163 337 321 137 67 96 
132 500 365 102 108 131 
77 313 271 130 63 12 
226 805 281 202 135 113 
321 114 290 114 104 95 
329 189 246 133 120 116 
261 186 338 37 38 67 
303 709 296 50 69 92 
88 641 302 168 111 96 
255 603 339 68 69 75 
190 763 210 214 186 159 
283 811 248 240 175 139 
160 466 328 81 98 117 
265 738 216 118 104 94 
222 405 217 67 92 116 
117 339 233 85 102 121 
105 586 277 65 79 93 
240 215 272 103 40 62 
209 972 277 126 103 81 
151 292 310 120 117 119 
228 558 363 189 196 211 
253 534 249 101 120 142 
264 686 211 105 100 128 
333 718 249 134 19 33 
285 221 233 109 99 96 
88 586 287 125 121 124 
181 526 370 86 113 142 
175 81 292 109 85 62 
153 770 214 128 101 91 
216 650 360 192 138 74 
211 866 323 159 117 88 
169 249 228 178 155 155 
107 661 336 188 126 121 
80 460 272 23 59 104 
168 250 229 168 142 144 
255 424 267 90 111 143 
70 319 287 99 55 62 
262 625 224 114 120 129 
328 745 297 151 130 111 
274 169 296 38 43 60 
266 813 249 235 180 147 
104 274 325 90 70 87 
71 412 324 76 125 164 
212 472 200 135 139 148 
123 383 221 96 114 134 
337 151 241 165 70 7 
78 292 275 96 94 95 
272 585 255 75 113 144 
143 573 369 177 186 203 
183 888 340 190 143 124 
287 112 285 108 89 78 
175 853 330 92 58 51 
123 658 247 131 136 146 
177 725 354 154 68 97 
221 789 218 148 111 72 
247 465 253 137 140 150 
174 87 294 115 87 65 
170 252 230 159 120 133 
220 547 361 62 95 126 
62 365 301 83 111 135 
112 532 238 122 122 128 
260 262 251 187 163 152 
122 725 201 154 46 41 
232 416 227 79 100 121 
150 919 321 163 127 104 
121 353 333 118 117 120 
306 715 296 111 109 118 
154 952 294 83 64 50 
149 183 300 53 41 37 
61 494 328 139 63 52 
229 642 210 59 75 94 
291 415 323 172 78 105 
67 538 299 125 136 158 
314 73 198 154 101 41 
278 107 305 104 81 62 
263 602 338 82 88 96 
257 650 357 187 132 54 
92 773 277 139 124 127 
317 745 297 178 146 112 
277 768 221 107 109 116 
281 414 296 105 116 150 
358 720 301 178 66 82 
191 488 352 110 127 152 
240 415 246 59 94 129 
146 931 256 119 91 67 
333 159 257 88 69 77 
30 697 203 94 170 220 
220 761 318 207 155 129 
58 402 287 147 4 64 
203 647 373 83 67 57 
79 307 328 153 46 80 
148 293 316 120 118 121 
119 330 236 78 106 130 
297 724 305 178 164 154 
270 660 342 74 79 92 
103 745 211 119 23 44 
174 304 230 103 111 121 
314 231 249 166 101 94 
298 693 302 129 57 66 
260 421 368 178 184 197 
25 635 211 123 124 129 
146 503 357 150 144 145 
199 463 345 96 117 153 
170 276 285 65 85 104 
295 804 275 219 154 126 
158 416 193 124 133 148 
220 660 355 166 140 112 
316 776 287 130 136 146 
167 446 321 38 64 85 
218 920 321 136 109 88 
171 297 232 124 125 129 
341 601 271 82 100 119 
164 175 294 120 49 44 
276 270 253 103 125 176 
257 533 294 147 142 143 
186 686 200 132 152 186 
99 511 244 90 106 124 
134 716 322 85 103 134 
265 351 265 131 87 68 
167 717 205 143 21 30 
104 757 285 88 17 39 
177 155 271 86 87 91 
93 607 279 49 85 113 
174 254 234 137 98 98 
172 962 297 125 101 77 
242 368 365 90 113 152 
299 670 301 136 63 79 
134 665 272 77 95 144 
390 652 317 44 76 150 
177 229 231 81 47 36 
256 171 272 87 49 36 
121 595 202 79 111 140 
176 231 230 84 50 29 
119 653 242 84 95 131 
374 691 313 135 166 198 
302 361 328 199 167 133 
178 229 231 80 45 33 
220 470 344 38 51 67 
331 109 249 96 77 58 
144 558 243 101 100 103 
140 289 225 106 119 134 
171 887 232 77 62 46 
143 883 272 159 108 85 
247 379 360 13 55 118 
138 434 199 89 106 128 
136 447 199 67 102 139 
341 683 249 126 137 156 
177 280 290 63 80 96 
256 707 349 180 167 160 
48 683 246 58 88 136 
224 919 310 94 72 59 
90 684 195 70 134 183 
326 217 260 107 80 110 
113 489 227 126 131 143 
321 687 298 101 122 139 
329 175 285 94 13 46 
107 292 247 136 57 5 
136 556 222 82 103 123 
150 708 201 163 190 219 
313 123 302 147 72 4 
309 210 319 97 85 90 
292 114 277 112 96 85 
140 736 322 146 115 93 
185 563 195 194 193 200 
284 342 364 183 157 130 
186 879 215 79 66 52 
102 263 247 144 97 81 
63 520 336 192 162 129 
293 128 232 149 127 111 
134 267 229 143 138 137 
130 703 292 113 131 151 
61 505 304 91 122 150 
206 687 356 179 71 25 
216 926 238 82 61 48 
274 729 336 205 182 165 
259 119 257 181 85 0 
193 649 368 144 151 168 
104 601 197 120 110 109 
179 227 233 101 48 20 
219 547 362 58 89 125 
177 228 232 78 42 34 
177 737 206 56 77 117 
298 370 330 201 169 135 
179 229 232 83 46 26 
322 280 283 101 71 83 
271 438 286 130 144 169 
278 419 291 97 119 152 
304 707 231 108 28 28 
171 595 368 97 145 182 
187 418 325 80 102 126 
260 248 340 89 90 100 
301 253 337 139 138 142 
154 360 318 79 93 126 
211 940 316 123 86 71 
267 304 348 98 113 130 
244 246 288 81 92 105 
277 457 332 166 171 185 
304 803 268 214 150 124 
197 320 225 137 112 82 
155 942 316 111 88 74 
276 644 341 94 82 76 
170 270 239 79 111 139 
177 953 324 105 89 74 
299 155 223 153 69 0 
182 227 233 111 43 16 
72 577 348 107 131 177 
83 616 298 94 102 114 
180 228 232 91 44 23 
194 924 340 194 138 114 
186 413 196 82 110 138 
309 633 317 129 145 167 
209 592 243 99 100 105 
142 911 301 86 69 56 
108 396 343 99 113 130 
92 332 328 88 59 53 
327 200 279 46 40 48 
176 233 230 80 42 35 
364 65 213 144 120 96 
100 493 372 162 87 34 
329 720 303 130 111 95 
196 892 225 78 61 42 
288 417 364 64 99 159 
233 374 339 89 100 118 
231 655 353 160 76 31 
162 651 359 71 88 124 
295 289 263 86 133 174 
284 669 314 127 144 167 
213 222 267 91 84 87 
124 538 234 109 115 126 
158 439 190 131 137 149 
93 578 365 119 144 189 
111 425 360 153 132 111 
225 577 257 54 75 92 
99 283 321 68 85 103 
115 461 221 49 86 140 
272 558 319 107 94 84 
177 237 229 127 44 49 
174 913 229 79 62 44 
314 696 235 143 151 164 
275 186 290 86 25 30 
89 616 328 86 115 168 
65 486 344 130 133 146 
229 580 356 53 58 90 
123 355 338 111 111 117 
293 622 321 56 86 131 
155 976 255 155 125 103 
127 567 229 98 116 137 
143 296 321 135 130 131 
165 869 329 164 126 102 
170 706 363 180 56 66 
266 652 343 120 92 77 
126 311 322 102 89 75 
70 523 354 188 155 118 
82 291 258 122 96 66 
99 648 341 160 109 105 
179 856 230 118 96 80 
272 589 249 87 116 142 
89 484 256 97 112 132 
183 984 251 115 84 60 
77 341 321 130 26 64 
343 736 298 133 116 105 
212 962 250 128 104 78 
93 481 248 47 76 117 
163 799 283 175 131 110 
135 142 258 118 94 63 
319 295 314 179 150 116 
321 222 254 124 106 127 
168 339 314 126 103 76 
250 566 275 89 91 96 
221 561 223 149 165 188 
155 949 305 89 69 56 
312 792 258 196 136 103 
183 235 229 98 48 59 
119 292 233 106 118 134 
256 268 257 174 144 114 
300 794 283 205 147 116 
173 449 189 76 101 132 
317 270 340 115 128 144 
142 907 298 79 63 48 
215 711 345 148 142 151 
103 575 193 132 140 153 
198 265 291 85 82 82 
238 762 318 215 152 124 
69 698 198 121 143 192 
272 783 288 206 146 110 
261 800 220 220 158 122 
67 553 336 156 140 133 
263 283 327 110 91 72 
89 755 278 126 60 57 
257 813 253 218 160 129 
182 239 228 164 14 45 
298 369 323 198 164 128 
394 667 298 149 165 214 
214 188 261 85 73 70 
273 155 298 67 43 61 
228 802 284 201 134 112 
147 549 223 68 86 104 
223 353 315 72 95 120 
168 317 321 161 127 86 
336 162 244 35 68 100 
223 866 292 147 109 79 
156 249 288 84 82 91 
292 409 305 181 164 156 
186 229 231 103 37 18 
198 972 235 138 97 55 
164 293 233 122 122 126 
89 644 260 125 126 135 
85 579 284 160 157 163 
186 231 230 80 44 23 
322 268 335 104 123 144 
229 713 207 153 148 147 
351 612 308 111 92 74 
165 615 364 179 179 188 
243 578 352 182 135 132 
274 649 341 96 112 133 
229 375 237 89 116 144 
192 401 199 57 96 130 
113 719 201 103 30 33 
65 601 217 127 133 143 
189 230 230 113 42 15 
364 74 225 130 105 79 
304 796 279 207 146 119 
174 138 273 90 72 77 
254 216 355 163 142 122 
335 145 283 48 78 111 
273 120 250 166 99 65 
155 573 200 202 198 203 
169 815 231 190 137 104 
191 231 229 109 41 21 
82 601 327 150 167 200 
184 439 192 110 126 149 
242 300 255 89 119 145 
70 658 235 85 107 128 
265 785 288 212 149 113 
185 225 233 117 43 13 
294 742 309 197 180 168 
104 646 305 156 100 86 
367 650 330 111 131 183 
184 226 233 117 39 15 
195 707 356 155 132 114 
263 304 264 80 120 153 
68 617 285 66 91 116 
265 811 232 231 173 138 
118 359 229 144 140 141 
186 224 234 115 45 11 
167 839 310 133 105 77 
263 665 348 167 115 73 
83 571 284 92 108 138 
236 747 332 166 135 118 
271 648 342 126 115 107 
80 305 317 56 38 41 
317 321 306 188 161 136 
266 165 349 87 36 32 
169 807 271 176 125 104 
74 522 366 200 167 133 
107 651 306 142 93 82 
14 643 239 54 84 118 
88 644 257 124 125 132 
326 590 261 103 114 128 
368 641 281 80 95 111 
317 305 308 151 104 74 
278 594 308 65 70 77 
255 506 348 84 98 131 
179 497 346 104 113 126 
245 293 360 76 95 112 
32 632 256 111 115 122 
215 577 363 98 112 143 
177 851 237 131 100 70 
225 843 267 165 121 92 
191 420 331 79 105 134 
100 777 283 154 120 99 
271 232 349 151 148 152 
107 608 195 177 174 182 
190 227 232 121 41 11 
175 898 341 142 116 90 
191 226 233 117 38 15 
224 684 349 130 124 142 
236 558 236 115 128 154 
188 914 343 191 150 126 
129 691 263 99 109 137 
172 856 331 157 124 100 
200 753 326 138 121 115 
152 610 213 120 154 198 
91 597 196 72 124 164 
212 769 211 166 151 142 
220 559 219 150 167 191 
104 352 338 75 75 79 
171 744 335 163 139 130 
83 611 247 81 95 110 
185 973 231 132 95 63 
101 548 371 106 89 76 
342 128 239 123 100 75 
105 711 251 82 93 118 
332 208 314 56 81 105 
239 403 247 57 89 128 
271 626 224 76 96 114 
186 234 229 74 40 38 
119 641 350 115 95 95 
167 21 320 142 129 121 
361 674 323 132 169 205 
143 64 278 120 101 83 
325 157 272 89 75 83 
255 552 303 75 82 90 
291 198 326 129 77 69 
252 692 352 112 105 117 
144 363 341 113 112 115 
324 251 289 80 125 159 
146 347 334 92 82 95 
54 678 248 81 102 156 
325 591 320 120 99 77 
316 312 325 198 163 125 
81 603 227 64 98 125 
187 236 228 119 40 49 
108 782 225 124 119 122 
97 267 250 116 74 59 
237 459 230 129 142 159 
226 523 361 114 133 156 
214 657 202 144 146 154 
131 489 368 103 117 148 
131 733 299 128 36 45 
109 383 238 143 140 144 
57 663 255 113 77 64 
138 411 356 107 105 117 
230 939 281 81 60 48 
188 233 230 80 50 37 
176 517 362 137 142 154 
188 234 229 76 36 39 
198 17 285 150 133 120 
188 235 229 85 40 38 
131 708 300 115 137 161 
302 679 297 68 70 106 
158 218 287 43 61 91 
203 11 321 98 73 59 
281 637 336 116 91 124 
160 118 270 107 87 64 
260 459 362 86 111 156 
306 352 328 165 33 76 
120 524 372 136 146 169 
151 417 315 72 96 124 
75 575 355 154 84 146 
313 148 303 115 81 62 
89 322 327 69 58 65 
91 556 263 107 116 129 
176 250 273 69 79 90 
71 432 279 119 132 149 
48 658 195 83 128 164 
10 689 223 100 107 157 
334 721 303 49 42 66 
286 306 269 186 179 180 
222 492 201 128 134 145 
226 736 335 161 126 120 
84 764 221 72 58 98 
115 517 228 73 94 125 
86 617 309 71 87 104 
264 158 331 36 44 72 
326 175 267 134 57 51 
284 592 310 17 42 57 
265 194 332 81 49 51 
286 112 286 107 87 75 
78 296 275 71 63 57 
278 224 341 145 143 144 
160 342 320 139 78 100 
159 323 220 83 98 113 
176 243 228 139 70 102 
167 681 368 159 181 208 
171 556 187 126 157 201 
266 490 359 101 123 158 
170 947 245 63 48 36 
178 241 228 130 93 111 
229 807 278 200 132 111 
109 669 230 63 83 127 
296 204 322 131 75 72 
236 300 320 96 111 127 
80 774 262 182 25 49 
220 836 238 215 162 127 
178 756 209 147 128 110 
115 554 251 125 125 131 
155 351 322 105 116 132 
389 677 302 144 154 217 
208 967 241 154 125 94 
226 840 255 148 108 80 
235 572 262 54 69 83 
390 31 231 211 190 185 
196 17 283 152 135 121 
369 685 271 91 111 133 
324 249 282 82 119 148 
79 558 288 85 101 120 
227 834 246 221 168 134 
272 229 349 148 147 152 
350 640 338 99 126 188 
75 650 270 109 75 68 
192 350 209 100 60 69 
178 245 230 181 51 82 
169 617 231 59 78 96 
73 307 281 122 58 11 
178 246 230 180 122 125 
263 488 364 167 178 194 
211 962 281 79 54 40 
219 742 332 144 151 163 
136 705 334 125 142 163 
179 247 231 183 172 168 
346 607 311 114 95 74 
84 735 270 96 119 142 
186 830 230 180 133 101 
190 348 302 70 87 104 
136 425 346 95 108 130 
180 242 229 127 109 127 
190 179 261 74 64 63 
241 286 322 96 108 124 
337 152 238 161 76 9 
331 141 227 142 125 112 
182 240 228 158 42 80 
270 157 291 58 37 55 
258 229 344 104 105 107 
247 808 270 211 144 119 
297 153 223 151 63 0 
348 687 254 137 143 159 
182 243 229 142 47 84 
326 674 304 118 134 149 
134 801 240 200 156 99 
210 273 309 62 83 106 
61 423 313 141 145 155 
139 902 257 83 67 54 
366 631 330 141 152 169 
90 751 277 144 28 49 
65 328 303 105 98 108 
86 600 195 66 99 129 
229 418 222 52 82 107 
67 492 286 63 94 119 
217 804 284 204 135 116 
303 186 314 104 90 91 
146 891 261 124 80 62 
92 563 369 167 145 123 
230 426 222 85 104 127 
182 245 231 170 71 100 
277 787 223 163 119 82 
334 167 244 55 94 124 
266 189 330 75 29 32 
200 487 357 94 114 140 
139 925 284 77 60 52 
182 247 232 143 104 117 
290 588 246 63 97 126 
170 449 325 38 65 90 
213 435 206 91 113 138 
176 249 231 169 167 172 
336 121 281 128 89 54 
112 302 321 37 43 51 
360 723 273 193 119 117 
267 195 330 74 31 35 
254 642 360 171 119 64 
74 356 334 114 26 55 
248 203 272 65 45 64 
148 549 191 126 133 144 
187 282 244 126 128 134 
58 604 200 106 110 117 
311 94 205 151 105 89 
165 560 374 139 163 192 
219 247 280 90 93 100 
178 249 232 151 133 146 
117 691 196 86 156 209 
179 249 232 146 116 132 
94 470 251 69 92 118 
21 709 223 141 138 198 
152 547 236 97 99 104 
211 573 366 153 163 181 
229 438 219 80 106 134 
51 680 195 146 62 66 
193 309 228 112 115 122 
274 462 336 101 119 173 
90 392 264 160 105 30 
97 338 341 110 61 85 
105 426 242 81 103 132 
246 524 229 153 164 183 
192 658 367 98 100 116 
357 655 256 113 133 168 
50 690 248 135 133 138 
253 610 349 102 129 178 
141 755 211 151 123 106 
165 899 339 110 91 75 
169 765 314 198 170 145 
305 331 357 149 36 68 
384 638 317 76 68 61 
325 605 241 100 117 135 
162 685 198 89 150 198 
174 326 212 106 105 108 
62 365 300 67 106 135 
332 202 261 125 44 72 
259 254 243 211 76 25 
284 145 334 61 96 123 
103 357 338 74 76 80 
65 711 260 148 146 152 
86 610 326 70 99 172 
205 955 309 119 97 74 
277 599 238 59 91 118 
188 375 201 66 93 118 
92 590 192 186 191 211 
200 611 250 50 78 103 
191 434 195 95 117 144 
319 593 293 82 87 95 
127 638 352 118 141 194 
59 429 309 149 151 160 
181 250 234 109 104 129 
124 342 340 99 99 102 
151 939 311 130 101 87 
274 783 288 203 145 108 
85 265 319 133 80 72 
182 249 233 119 82 115 
206 350 304 70 92 118 
164 989 259 174 149 127 
108 566 263 83 99 121 
257 147 272 29 42 60 
200 581 367 120 142 167 
63 614 239 80 101 122 
260 581 337 137 95 83 
183 250 234 87 130 163 
150 249 302 75 90 108 
271 466 304 112 129 161 
60 751 249 181 193 211 
183 977 232 108 79 62 
181 252 235 83 135 174 
161 367 310 68 99 131 
145 446 340 96 107 129 
358 84 236 129 100 71 
307 351 355 185 155 124 
261 513 302 103 128 157 
191 777 215 158 140 135 
122 800 251 206 184 168 
165 278 286 59 79 96 
278 802 272 216 165 136 
181 255 237 81 137 183 
262 573 296 98 91 87 
100 597 238 83 105 126 
119 619 198 147 163 187 
303 616 335 107 124 159 
177 732 349 185 196 212 
243 725 211 131 66 61 
161 907 337 181 139 118 
184 819 226 192 135 99 
223 892 302 116 82 65 
238 690 205 170 174 186 
313 588 254 38 82 115 
198 658 201 144 146 155 
155 806 234 155 135 118 
157 272 290 112 112 116 
214 611 247 71 100 132 
136 438 199 81 103 127 
153 735 342 185 96 107 
376 41 221 140 109 84 
49 619 197 116 116 120 
339 151 291 58 82 102 
236 541 223 107 141 183 
128 748 309 114 82 80 
302 246 334 92 56 56 
287 213 232 155 69 60 
56 747 247 98 132 191 
86 276 321 137 106 101 
62 379 276 68 98 130 
254 382 357 56 80 114 
152 785 289 176 162 155 
170 835 270 148 108 80 
335 705 305 140 72 81 
267 153 226 142 63 11 
193 624 225 79 88 105 
291 233 329 82 84 100 
243 317 250 129 122 120 
278 113 268 145 92 66 
186 244 230 181 30 74 
219 389 330 116 119 128 
327 593 255 17 57 102 
34 677 255 98 119 172 
302 370 360 177 73 7 
284 693 317 138 116 94 
166 324 323 168 139 107 
134 684 314 82 99 148 
68 312 288 114 65 47 
171 121 270 115 85 67 
146 419 327 57 81 116 
254 162 270 85 31 33 
188 242 229 131 83 97 
269 438 283 62 93 147 
278 731 221 116 106 102 
3 662 231 83 123 157 
270 190 283 99 19 35 
231 459 361 155 162 176 
61 717 205 133 160 207 
233 354 239 116 122 133 
209 980 269 131 102 82 
105 460 231 73 94 136 
192 927 233 89 70 52 
331 134 261 162 72 6 
64 459 337 172 149 126 
168 724 355 214 148 108 
132 451 203 90 112 143 
146 876 281 149 103 80 
313 748 241 162 142 126 
263 196 336 73 47 61 
164 294 233 121 122 126 
33 721 223 149 153 195 
203 567 236 121 139 175 
263 275 333 73 76 88 
190 244 231 163 61 95 
182 312 225 103 48 36 
203 479 194 134 143 159 
74 655 236 89 107 127 
68 326 257 92 82 113 
184 247 232 117 104 131 
211 634 372 108 105 120 
297 377 288 194 85 19 
62 755 232 51 83 167 
279 330 276 132 153 178 
214 419 210 75 98 125 
67 753 226 187 194 210 
364 13 243 123 111 104 
210 278 255 81 109 136 
70 535 285 138 135 139 
172 609 367 159 169 188 
274 148 302 73 37 51 
392 649 278 88 123 193 
140 723 335 102 134 169 
217 585 360 90 110 137 
289 778 290 196 145 110 
143 418 199 77 101 125 
181 839 325 168 124 110 
191 247 233 75 138 186 
233 336 324 73 90 112 
199 573 367 97 123 157 
137 314 337 64 98 126 
293 277 258 128 153 183 
354 703 312 84 74 131 
290 563 312 126 116 109 
87 709 255 41 56 81 
233 480 344 71 81 107 
326 617 238 139 147 162 
169 719 206 93 22 23 
72 508 354 187 157 126 
265 497 330 177 175 182 
296 733 228 160 130 101 
200 240 270 93 53 30 
203 342 219 124 71 82 
267 385 367 121 59 67 
328 591 312 108 92 78 
322 693 239 155 163 175 
362 628 253 139 147 161 
369 51 205 157 125 100 
122 314 321 69 57 56 
96 527 243 58 84 108 
203 960 302 110 86 72 
170 229 274 94 88 85 
76 722 206 209 199 211 
306 347 283 165 22 48 
65 412 317 57 93 130 
273 174 286 25 33 44 
237 489 219 144 145 153 
125 668 302 104 73 78 
157 408 307 45 75 110 
185 253 237 87 138 183 
184 254 237 90 141 185 
277 559 324 112 96 82 
232 501 362 79 107 145 
294 633 226 132 144 161 
105 461 369 116 126 139 
60 652 279 164 111 93 
121 658 245 111 117 131 
143 554 245 76 83 93 
294 403 309 174 158 149 
119 752 291 116 27 42 
147 118 298 118 95 69 
164 944 323 96 76 65 
45 734 228 160 159 197 
142 307 325 102 112 124 
140 799 235 179 169 161 
316 730 298 97 94 100 
79 493 268 59 86 110 
289 589 245 68 99 126 
235 641 359 133 110 99 
145 296 224 77 107 133 
189 249 233 81 138 182 
195 113 256 119 86 60 
307 138 221 104 94 86 
391 673 296 103 119 181 
138 244 319 80 28 27 
172 203 272 52 54 64 
258 208 278 102 26 51 
67 390 281 127 84 84 
56 727 254 132 150 175 
373 639 277 65 89 112 
396 660 305 110 125 193 
190 249 234 90 143 186 
263 776 297 212 149 120 
104 349 252 86 128 163 
191 249 234 96 148 191 
251 492 363 87 119 165 
205 984 269 161 125 92 
297 790 236 173 125 89 
302 791 242 171 123 90 
194 517 366 117 136 162 
113 403 351 119 124 134 
114 536 372 142 155 177 
153 99 262 112 87 56 
258 646 212 137 135 138 
368 52 237 121 96 69 
169 842 319 149 117 92 
145 617 216 164 166 179 
265 232 335 92 97 106 
155 953 288 100 80 67 
340 712 252 124 39 38 
299 659 299 78 122 155 
299 776 235 154 133 112 
151 300 307 101 101 108 
252 709 212 129 40 25 
197 826 224 200 144 105 
189 254 239 92 145 187 
297 114 267 107 96 87 
190 252 237 90 144 188 
64 757 239 167 181 202 
66 315 253 135 118 121 
101 789 251 130 95 40 
123 742 207 128 41 33 
48 614 201 109 109 113 
70 549 355 158 141 124 
282 428 340 90 113 165 
151 798 273 107 113 124 
81 679 227 68 85 102 
59 649 281 164 114 94 
131 668 263 138 142 155 
141 485 197 102 122 159 
97 581 209 122 129 141 
341 621 243 133 141 156 
278 611 345 120 141 189 
143 693 198 154 162 175 
75 491 353 149 13 67 
138 667 196 101 136 180 
333 623 345 166 182 206 
138 614 362 104 128 178 
206 143 239 115 95 79 
199 366 205 76 99 124 
315 141 301 110 74 65 
186 753 327 215 181 147 
191 661 367 92 101 121 
159 813 256 196 140 114 
161 952 244 100 76 50 
194 134 247 125 97 64 
194 859 217 108 100 94 
195 134 247 125 97 67 
88 601 300 63 73 117 
345 690 311 105 125 153 
226 188 262 98 78 73 
70 653 265 108 78 66 
199 130 247 125 82 47 
287 589 316 86 62 55 
115 493 224 94 112 131 
196 133 247 129 93 54 
179 220 268 64 50 51 
197 133 246 121 91 59 
205 12 311 110 92 80 
69 341 281 113 95 90 
196 134 246 123 97 70 
309 112 247 111 100 92 
175 682 199 151 37 43 
265 456 285 138 150 171 
292 774 292 198 145 110 
156 396 308 35 69 113 
199 133 245 123 99 74 
165 266 236 86 124 156 
198 132 247 129 89 51 
172 766 211 162 132 101 
214 338 229 139 107 76 
228 450 345 85 96 118 
319 716 241 140 36 31 
276 143 298 104 36 27 
151 370 317 79 104 130 
221 519 358 69 92 128 
284 179 330 120 73 74 
178 986 269 108 88 68 
274 581 277 93 102 112 
127 669 195 80 116 176 
132 666 283 97 103 137 
160 145 256 157 155 157 
71 561 315 44 86 141 
129 685 196 175 180 203 
185 735 344 159 125 110 
285 435 312 166 167 177 
174 793 290 183 134 114 
221 265 256 165 164 172 
132 558 192 114 128 144 
177 572 226 148 160 180 
110 527 237 96 106 119 
252 300 346 105 74 70 
195 131 249 129 90 56 
62 660 259 107 73 60 
194 131 250 125 87 53 
56 654 275 162 111 89 
245 435 241 104 119 136 
139 556 224 45 74 102 
104 390 244 87 109 132 
105 307 243 114 102 93 
317 264 266 79 121 158 
193 129 255 89 96 105 
218 929 316 133 107 92 
317 299 315 189 153 113 
259 456 274 73 99 134 
280 447 330 126 139 169 
283 110 288 107 81 67 
348 49 239 104 87 70 
298 653 225 85 109 143 
201 288 313 113 117 126 
85 289 324 105 95 110 
256 817 242 244 183 144 
128 699 263 108 114 134 
141 394 328 55 77 121 
222 509 357 51 77 112 
182 286 241 128 128 131 
104 264 320 97 69 74 
17 643 211 115 114 118 
194 129 254 99 89 85 
216 410 338 90 104 120 
252 515 348 69 87 118 
337 59 234 82 71 61 
94 694 238 46 65 111 
222 877 271 115 80 54 
292 381 286 196 86 17 
91 629 238 53 82 109 
78 732 209 178 187 206 
166 812 231 192 137 103 
297 770 233 83 71 60 
332 124 264 124 90 47 
271 221 352 147 111 119 
251 362 359 126 114 106 
199 680 200 168 168 178 
234 495 363 83 109 143 
282 295 264 71 125 169 
283 694 321 108 99 100 
154 367 205 146 114 85 
248 290 353 80 64 83 
256 411 265 101 122 153 
274 285 264 131 24 56 
63 698 255 138 140 147 
312 772 292 151 138 130 
294 221 233 114 113 121 
345 608 266 88 104 120 
256 705 349 126 119 122 
348 617 296 87 80 75 
41 730 227 164 161 205 
302 802 273 217 151 124 
366 639 279 78 96 114 
68 749 262 141 164 190 
141 186 307 99 84 73 
161 195 295 84 24 36 
356 53 241 103 84 65 
312 145 222 123 108 96 
151 737 202 135 112 95 
120 378 347 67 108 139 
253 185 273 69 57 71 
173 775 306 190 164 160 
343 81 207 145 119 94 
236 111 260 105 95 87 
280 675 216 138 143 164 
301 245 243 130 88 103 
168 933 240 114 87 57 
255 206 353 108 34 60 
197 129 250 119 80 47 
163 663 197 93 129 158 
175 933 337 204 162 142 
204 731 208 71 64 66 
270 231 352 143 140 144 
279 733 327 106 109 118 
159 979 249 155 131 111 
242 496 226 80 106 132 
121 332 328 85 63 48 
242 207 271 92 34 56 
68 339 289 96 86 79 
203 944 325 97 71 58 
319 770 289 145 135 133 
344 739 294 100 73 70 
164 507 353 74 98 125 
295 381 331 194 162 125 
59 351 270 145 72 68 
240 859 298 150 121 92 
322 269 293 151 147 150 
64 520 341 195 165 134 
154 218 314 71 38 63 
73 268 295 65 50 48 
314 337 296 187 162 136 
96 292 322 81 77 84 
129 332 352 111 104 110 
234 927 270 78 60 46 
182 112 259 130 109 90 
241 392 249 48 87 125 
299 377 335 193 160 124 
198 128 252 103 88 81 
222 410 215 76 99 125 
361 61 205 155 126 102 
149 463 338 82 99 119 
385 682 287 141 162 198 
338 124 282 146 70 7 
127 272 317 51 29 32 
162 531 210 70 86 103 
249 576 283 53 64 76 
96 287 252 137 129 125 
150 897 324 157 121 98 
199 130 253 100 90 87 
211 617 362 58 81 103 
102 656 225 77 92 124 
117 533 233 114 116 123 
316 325 304 192 164 134 
180 717 359 199 166 133 
156 587 372 159 178 205 
164 905 340 179 141 120 
197 133 254 87 66 55 
196 134 254 89 70 64 
253 550 318 83 103 125 
153 906 242 97 76 65 
343 95 213 125 102 76 
269 193 325 78 33 32 
143 354 213 145 109 71 
300 737 301 141 116 91 
189 894 337 116 90 65 
79 722 265 72 88 122 
217 564 224 139 156 181 
210 361 217 135 137 144 
364 24 198 151 129 110 
342 44 222 73 62 53 
175 863 237 75 58 41 
136 377 212 108 115 126 
85 705 249 86 88 95 
187 279 245 123 125 130 
129 671 293 50 57 114 
253 635 358 62 49 99 
77 754 222 214 79 101 
257 504 287 93 105 123 
85 282 258 118 105 93 
167 867 254 110 85 61 
74 592 210 59 93 126 
119 493 218 138 140 147 
330 604 290 56 72 88 
156 665 345 55 78 120 
289 114 277 114 93 81 
99 765 218 184 20 38 
7 650 224 163 163 172 
115 261 245 130 62 62 
194 137 246 122 103 86 
249 242 287 119 117 121 
249 478 362 127 139 165 
188 916 231 60 46 36 
173 857 331 160 125 101 
396 652 286 149 160 179 
199 984 258 156 129 103 
160 269 234 86 121 150 
328 129 296 138 68 8 
228 303 315 102 115 131 
165 154 287 68 65 77 
264 483 298 152 154 164 
195 141 243 116 105 96 
178 458 189 166 166 173 
293 641 313 149 168 192 
269 181 225 55 82 117 
215 574 363 98 107 143 
192 140 245 115 105 97 
357 30 242 141 129 122 
151 657 345 161 154 156 
36 710 208 93 109 193 
133 718 318 112 137 165 
193 141 244 118 105 94 
187 604 237 59 69 78 
146 612 365 92 126 191 
309 337 354 155 27 68 
111 397 346 123 126 134 
9 647 216 120 120 124 
30 642 265 104 119 139 
141 273 228 168 163 165 
198 774 213 178 174 178 
214 793 294 211 143 124 
97 762 217 180 106 112 
257 314 258 83 122 156 
137 314 339 66 103 133 
84 591 303 125 135 150 
293 172 318 77 94 112 
277 106 316 108 94 81 
90 763 278 79 75 109 
140 210 309 67 48 43 
297 708 228 61 58 110 
360 691 263 151 160 178 
285 774 225 153 138 127 
171 338 312 98 114 132 
173 92 285 96 77 55 
258 338 258 150 149 154 
346 112 237 134 106 77 
202 737 206 129 120 118 
150 401 316 62 85 126 
216 762 210 149 133 124 
224 714 342 167 147 135 
97 599 196 69 106 138 
241 463 237 142 145 156 
142 628 212 111 125 142 
199 970 288 160 131 103 
199 255 277 78 83 90 
181 147 267 74 74 78 
377 32 239 208 178 179 
103 641 258 85 95 123 
248 590 346 150 103 96 
168 161 285 99 73 75 
148 423 322 42 69 112 
66 507 347 126 125 129 
198 140 243 118 106 95 
290 191 226 120 94 113 
273 154 297 67 42 59 
165 204 280 39 51 73 
304 630 318 110 129 152 
177 852 237 133 104 74 
274 134 310 56 46 56 
124 335 328 93 89 93 
287 250 333 141 142 149 
269 640 343 67 60 56 
165 446 189 119 129 152 
196 140 244 116 105 96 
194 333 306 122 126 135 
198 452 196 95 113 133 
70 312 305 108 84 80 
303 736 232 162 132 103 
396 662 293 83 94 143 
159 688 365 125 158 189 
135 376 213 97 108 123 
268 471 297 106 124 164 
387 647 270 75 120 204 
67 671 230 68 82 96 
30 632 205 69 56 54 
185 413 323 115 121 132 
337 760 274 238 192 137 
244 322 354 83 89 100 
91 489 366 173 144 116 
283 239 233 87 62 100 
113 502 225 125 132 144 
310 711 295 77 82 101 
199 136 253 86 64 52 
199 137 253 93 64 57 
73 653 195 174 173 183 
155 406 309 75 97 123 
156 672 357 145 160 180 
374 47 210 156 125 99 
113 573 213 75 101 126 
365 691 267 152 157 167 
186 887 209 108 87 69 
223 954 268 140 109 76 
272 214 353 124 44 70 
126 333 332 90 81 74 
279 291 266 66 127 174 
119 387 356 134 140 152 
85 598 347 69 99 195 
189 585 368 135 153 175 
142 147 257 95 78 61 
213 188 261 86 72 67 
320 117 220 126 98 61 
347 623 338 147 150 159 
221 853 287 158 117 88 
239 372 354 72 87 106 
147 295 317 123 121 125 
260 617 345 115 140 177 
163 739 338 142 147 165 
138 478 198 92 113 149 
228 777 215 146 102 67 
243 345 339 41 80 109 
167 687 367 118 159 195 
317 307 342 186 158 130 
244 331 353 73 85 101 
323 69 227 83 72 62 
137 474 198 101 118 143 
317 174 305 122 61 70 
211 629 218 127 130 138 
302 572 322 123 102 80 
181 480 187 126 135 149 
293 586 323 129 89 73 
166 501 349 160 155 155 
376 630 274 66 102 132 
331 210 315 90 87 104 
132 469 368 72 95 137 
131 662 264 152 149 152 
302 186 227 117 109 124 
232 790 216 156 114 74 
158 319 223 89 114 139 
104 487 238 146 150 160 
181 163 267 79 72 74 
77 706 199 86 101 122 
196 335 305 114 120 131 
98 577 194 119 131 147 
127 382 217 99 112 129 
308 357 338 209 176 140 
191 568 210 122 130 186 
89 411 265 167 135 94 
371 26 248 173 156 150 
256 554 282 68 73 80 
236 609 352 111 84 93 
172 849 248 165 129 99 
165 265 279 84 90 99 
156 563 371 96 125 163 
302 660 296 120 148 176 
123 589 370 194 197 209 
150 767 305 184 158 142 
17 662 256 129 155 184 
301 252 336 143 142 147 
274 620 340 112 136 202 
118 567 371 101 131 176 
203 134 244 111 93 79 
247 677 206 107 109 116 
170 967 284 106 78 53 
365 29 201 72 63 52 
308 799 271 209 145 117 
162 816 253 199 144 116 
154 540 230 86 90 97 
145 181 299 68 53 45 
291 416 322 169 39 91 
126 527 222 101 108 120 
363 34 205 86 64 35 
170 840 251 171 131 101 
387 654 277 108 134 188 
174 170 275 111 60 54 
133 451 361 94 99 116 
138 172 300 109 87 62 
312 674 297 115 52 53 
281 447 325 125 137 165 
207 128 246 136 92 60 
107 338 329 71 68 69 
129 302 321 83 54 70 
282 642 330 71 124 163 
152 596 370 177 188 207 
44 730 223 202 201 237 
314 609 236 65 107 140 
201 12 296 133 118 107 
332 213 274 55 80 104 
256 621 228 80 99 118 
195 963 235 142 113 78 
301 610 233 85 108 130 
81 767 223 177 89 107 
206 134 243 113 97 82 
126 496 211 163 164 173 
143 279 227 134 133 137 
193 836 323 159 122 101 
98 761 284 145 43 66 
110 355 244 75 104 128 
195 828 224 213 154 113 
162 614 227 93 93 97 
58 411 290 172 164 165 
207 250 277 85 78 73 
372 638 257 129 142 163 
272 416 361 83 109 147 
166 104 295 122 91 74 
148 548 371 95 121 170 
272 332 271 145 144 149 
48 674 194 72 122 160 
345 614 331 71 85 103 
70 459 343 130 20 55 
92 647 196 172 176 190 
143 341 339 126 131 141 
270 453 291 111 133 166 
239 371 344 102 111 124 
252 290 345 97 65 55 
109 530 373 149 131 114 
283 171 334 138 68 73 
192 481 353 78 104 145 
106 622 347 209 213 225 
181 520 365 83 112 142 
354 625 291 60 66 74 
138 605 203 143 151 170 
152 249 294 61 92 116 
101 594 229 93 115 137 
271 150 311 73 33 34 
282 159 342 144 91 76 
89 453 357 103 47 42 
150 133 295 118 89 63 
178 455 338 53 83 128 
117 416 221 100 114 132 
276 315 273 177 173 181 
317 320 305 188 164 138 
175 793 290 185 135 116 
182 768 211 173 161 155 
236 492 366 87 109 154 
98 601 250 88 104 121 
246 616 233 25 77 118 
115 467 222 93 115 148 
238 124 260 123 60 9 
114 649 297 81 59 66 
75 449 345 135 29 60 
132 565 189 162 168 181 
165 947 246 77 51 28 
87 772 224 209 29 59 
203 130 252 86 79 78 
111 380 235 127 127 132 
188 607 240 52 72 91 
169 130 265 127 71 29 
214 310 241 118 122 129 
192 284 244 86 109 130 
148 101 298 119 98 76 
300 687 227 145 157 174 
187 923 342 203 158 136 
316 707 297 99 95 93 
318 278 271 163 153 147 
163 950 317 80 65 55 
306 307 271 150 152 166 
256 560 299 65 64 65 
108 588 230 73 102 128 
190 475 350 77 103 142 
53 742 250 135 159 192 
200 925 232 80 60 44 
136 505 365 93 106 125 
242 803 279 189 130 105 
123 392 217 59 89 116 
305 665 227 20 64 133 
297 755 235 108 89 68 
249 699 209 200 17 27 
69 308 286 137 68 10 
128 316 328 124 53 10 
80 612 261 77 98 118 
159 86 303 127 101 79 
105 584 365 69 101 180 
388 14 217 129 117 109 
135 900 268 119 97 77 
371 655 267 146 160 181 
57 414 296 149 146 151 
122 662 345 176 119 115 
194 791 221 142 106 65 
364 12 230 114 104 98 
290 582 324 128 87 71 
123 726 277 109 122 140 
105 446 362 154 132 111 
78 390 267 98 100 110 
178 158 271 87 83 86 
74 385 319 110 94 108 
138 64 267 118 93 73 
254 545 310 134 132 134 
87 360 329 77 62 70 
79 423 272 158 53 91 
264 159 329 35 43 66 
358 631 251 172 171 176 
212 783 302 213 152 131 
143 269 325 57 92 119 
285 193 331 92 71 91 
146 252 322 120 54 74 
204 540 194 124 148 179 
296 230 235 127 101 109 
250 403 359 62 87 128 
78 685 233 71 79 96 
110 348 244 71 96 120 
43 622 229 80 104 128 
157 875 324 172 131 109 
207 894 331 105 86 69 
159 796 224 168 135 116 
197 377 203 70 97 123 
42 625 252 66 81 101 
101 399 250 107 113 121 
329 156 278 44 45 61 
152 891 247 121 97 71 
243 327 331 116 115 120 
267 154 287 74 38 57 
278 140 225 133 119 106 
327 88 205 163 129 102 
272 164 224 67 81 108 
208 800 288 198 130 112 
128 766 301 167 122 140 
202 138 243 109 100 93 
202 567 240 172 172 178 
157 974 246 131 101 75 
313 106 239 106 93 81 
270 268 351 83 117 148 
157 89 263 123 91 53 
86 271 263 112 104 96 
188 877 222 69 55 40 
248 267 314 71 82 95 
172 117 267 114 104 96 
207 308 310 130 132 140 
198 462 194 79 109 139 
200 140 243 120 106 96 
197 819 223 171 126 88 
49 673 255 110 124 158 
152 640 355 61 103 134 
200 142 241 116 103 95 
203 262 292 80 89 100 
303 349 282 206 171 130 
201 961 305 126 105 88 
8 681 236 119 133 163 
308 301 350 161 132 98 
161 499 190 112 130 172 
233 681 349 107 119 143 
71 486 346 136 42 76 
294 604 235 110 120 133 
203 141 241 116 105 95 
156 707 360 120 158 192 
257 773 303 211 150 119 
221 821 268 181 130 105 
173 968 236 131 97 69 
260 651 353 180 134 72 
84 611 281 51 72 91 
185 336 306 130 133 141 
133 271 326 67 27 38 
207 18 295 118 105 96 
69 566 328 87 103 154 
155 457 328 110 120 135 
212 858 241 118 87 61 
101 777 283 156 118 96 
161 870 327 166 127 104 
198 957 314 93 73 63 
66 539 311 65 86 144 
205 138 242 112 102 96 
304 272 258 143 141 144 
169 686 367 130 166 199 
167 345 313 118 128 144 
151 679 351 149 168 192 
171 765 314 201 160 121 
55 745 249 133 154 190 
168 530 368 144 154 170 
18 663 259 91 129 166 
197 973 290 165 131 97 
93 601 233 117 124 135 
140 603 365 146 168 195 
216 451 345 113 115 122 
165 177 292 118 38 39 
204 141 240 117 103 90 
233 311 247 139 139 144 
331 130 270 156 72 7 
311 211 238 79 127 163 
131 637 204 122 126 135 
187 503 188 53 86 152 
65 544 332 157 135 115 
69 656 253 100 106 114 
266 177 321 78 24 51 
78 307 266 95 79 65 
221 615 363 68 68 98 
200 337 219 114 79 79 
278 584 253 76 109 136 
84 701 247 61 75 93 
156 699 199 144 167 192 
261 203 339 99 29 45 
19 655 198 88 96 108 
211 375 310 69 89 118 
138 541 235 62 83 115 
168 272 282 64 84 102 
153 363 318 77 90 125 
203 258 287 85 92 102 
231 333 240 90 110 130 
239 448 236 94 114 136 
233 648 207 98 122 145 
235 890 287 137 98 72 
203 138 253 90 68 61 
200 12 292 134 117 103 
185 636 210 68 99 128 
263 354 356 141 67 7 
298 371 330 201 169 136 
151 644 203 125 126 131 
250 252 296 71 91 109 
151 945 303 92 75 65 
92 578 364 131 149 189 
58 639 285 138 102 81 
72 485 347 146 19 68 
178 564 193 142 166 197 
123 652 290 90 130 165 
297 328 360 155 101 70 
392 32 222 155 139 130 
66 637 291 145 105 87 
323 114 289 116 105 95 
390 641 311 75 68 62 
188 487 348 74 99 142 
117 626 355 131 149 205 
211 568 366 175 175 184 
273 750 319 189 140 108 
70 600 216 115 125 139 
317 113 298 113 101 95 
332 626 339 51 98 151 
194 16 332 136 108 87 
208 808 280 176 118 101 
200 343 217 127 104 94 
164 749 328 164 155 154 
284 787 286 194 144 108 
322 723 300 105 88 80 
192 233 268 81 60 58 
325 184 280 89 16 33 
378 35 232 170 153 144 
241 562 353 122 142 176 
96 531 374 169 150 140 
65 500 288 62 90 127 
133 673 268 64 89 137 
281 186 225 63 88 117 
368 705 272 170 62 77 
242 295 257 88 123 153 
210 619 231 71 103 135 
224 793 292 211 143 124 
316 100 236 100 87 76 
103 560 262 62 86 113 
232 605 266 98 104 113 
170 838 252 171 131 100 
144 934 270 130 110 91 
229 310 315 93 107 124 
169 433 191 121 129 149 
206 141 252 85 65 49 
290 562 316 118 106 97 
289 740 226 101 86 76 
221 639 211 76 80 86 
111 280 248 117 117 119 
147 483 352 91 101 128 
207 142 252 89 70 56 
207 142 253 92 72 57 
142 124 296 108 88 65 
123 356 355 100 112 129 
185 373 200 87 106 125 
323 63 224 87 76 66 
294 305 266 172 167 171 
195 149 239 120 78 56 
185 814 224 201 140 101 
266 221 285 65 90 111 
141 731 324 81 18 32 
195 151 238 123 72 29 
195 151 239 124 75 40 
96 431 353 105 52 57 
131 679 302 35 50 96 
78 631 304 148 104 93 
164 766 312 145 106 79 
261 249 301 96 100 109 
54 613 226 98 117 136 
303 363 290 216 181 143 
188 231 267 76 75 79 
97 471 244 85 104 125 
207 260 293 80 89 99 
76 301 321 80 43 46 
289 418 342 136 114 99 
88 552 261 79 100 123 
277 421 363 110 135 173 
78 698 197 123 169 218 
167 165 286 109 70 66 
235 801 218 205 142 103 
256 586 268 97 110 125 
182 494 346 69 92 117 
199 151 238 125 65 22 
174 896 222 86 69 55 
138 564 240 57 74 90 
192 390 200 54 93 125 
166 537 370 79 107 149 
321 148 300 94 75 65 
359 683 262 105 128 157 
281 640 316 108 139 169 
73 766 246 221 95 97 
219 561 363 60 92 131 
131 512 369 85 102 133 
122 506 217 112 128 157 
107 401 239 107 116 131 
205 354 216 123 67 77 
270 593 313 55 63 74 
105 589 281 66 78 91 
136 386 355 132 137 148 
119 361 335 75 55 63 
287 633 224 78 105 133 
152 630 355 62 61 71 
193 770 313 192 150 129 
317 678 297 51 53 82 
161 195 299 85 24 43 
181 769 313 101 114 128 
283 690 219 155 161 174 
313 212 240 79 120 152 
200 198 262 93 67 49 
195 359 206 98 115 135 
128 268 316 47 33 34 
108 420 238 71 98 126 
118 583 199 97 155 199 
65 510 291 93 106 137 
236 597 273 53 50 51 
153 807 260 112 95 81 
290 410 301 171 148 126 
281 599 238 88 107 125 
90 603 234 53 80 110 
233 398 240 115 124 138 
280 200 339 102 85 91 
216 926 237 77 58 42 
323 112 218 123 96 62 
252 588 266 42 55 87 
163 937 329 128 100 87 
220 370 318 59 82 114 
129 688 271 97 112 150 
196 152 238 123 65 15 
154 930 322 171 130 107 
107 777 220 114 116 127 
138 577 198 73 148 202 
43 637 276 81 103 136 
134 408 344 69 90 125 
230 553 223 126 149 180 
154 378 203 151 148 149 
196 154 238 124 67 4 
255 539 325 87 108 132 
205 312 309 83 102 122 
63 355 297 67 84 104 
167 610 365 150 166 191 
277 745 221 131 118 108 
151 583 214 62 103 136 
200 489 361 99 121 149 
207 18 293 121 107 98 
279 671 216 162 157 160 
144 391 325 50 70 121 
257 523 276 102 123 146 
180 904 217 63 51 40 
146 896 312 172 128 103 
306 328 357 152 39 73 
323 176 233 143 121 127 
335 85 241 83 71 58 
346 672 251 67 100 139 
78 320 330 94 53 73 
162 682 197 104 154 194 
199 157 235 114 71 34 
88 399 265 176 128 76 
255 818 246 236 177 144 
137 240 315 67 28 30 
89 641 303 167 111 96 
156 897 238 98 79 61 
276 724 337 190 155 117 
256 533 263 123 130 142 
111 319 319 66 35 38 
147 651 348 92 99 135 
197 156 237 117 69 13 
138 97 275 89 75 61 
262 602 343 86 102 120 
77 491 362 153 12 64 
274 410 283 118 134 154 
150 563 371 80 118 178 
248 549 252 160 163 173 
253 348 254 159 156 159 
328 757 293 167 137 128 
358 695 262 146 158 176 
332 170 262 91 77 90 
226 898 258 68 53 43 
196 985 252 144 112 81 
114 623 355 114 134 199 
181 681 365 83 131 169 
106 746 283 117 31 44 
202 147 239 116 86 68 
203 146 238 116 88 69 
71 657 242 74 103 129 
162 310 310 90 77 67 
196 751 328 206 189 179 
312 334 330 193 162 129 
47 640 193 86 142 189 
118 271 325 102 27 48 
276 189 315 110 20 28 
120 719 269 94 114 134 
139 65 257 131 88 69 
69 519 281 46 79 122 
294 405 325 170 154 145 
294 602 345 87 111 135 
169 826 243 199 148 116 
169 511 192 107 130 186 
334 78 201 162 128 103 
260 337 354 157 66 11 
155 220 299 34 45 86 
145 622 216 106 116 129 
177 858 335 170 129 108 
272 206 286 101 1 42 
320 304 293 125 137 154 
112 736 277 101 114 132 
203 151 237 123 63 17 
297 303 355 133 116 119 
254 337 254 145 143 148 
108 466 229 150 153 163 
250 268 353 80 100 119 
71 394 331 77 105 129 
104 505 376 155 133 108 
55 612 226 96 115 135 
128 749 310 121 103 98 
191 872 224 75 51 40 
373 641 286 66 83 100 
297 389 300 197 82 15 
281 335 277 171 153 142 
328 190 244 119 118 127 
160 363 312 54 88 124 
201 715 348 177 149 132 
286 220 304 53 82 105 
296 399 341 152 95 64 
232 180 262 117 71 55 
209 894 228 67 54 47 
159 207 293 42 37 51 
218 374 223 93 113 136 
237 438 231 103 127 168 
148 715 204 98 38 23 
364 15 207 99 86 74 
247 579 283 58 69 81 
336 134 280 125 104 101 
193 300 315 142 144 152 
233 512 367 96 122 153 
242 452 367 87 113 151 
203 632 216 74 103 129 
165 728 352 216 164 155 
110 532 372 170 154 154 
65 497 288 35 69 118 
213 967 251 148 123 100 
243 281 322 98 107 120 
231 667 352 147 73 66 
187 275 246 129 128 133 
111 655 346 171 123 120 
73 766 245 223 85 84 
139 289 336 140 138 142 
196 375 203 84 106 130 
69 763 252 179 191 210 
106 781 285 117 109 107 
264 391 367 105 122 147 
