ply
format ascii 1.0
comment Created by CloudCompare v2.11.1 (Anoia)
comment Created 2/28/22 9:45 PM
obj_info Generated by CloudCompare!
element vertex 2026
property float x
property float y
property float z
property uchar red
property uchar green
property uchar blue
end_header
72 700 197 121 155 206 
260 629 348 56 54 53 
130 221 243 112 59 63 
303 216 325 95 74 78 
202 861 202 108 89 75 
167 845 300 124 97 67 
189 437 338 128 134 145 
236 624 363 77 59 57 
149 498 192 88 118 161 
188 460 191 138 144 154 
246 302 346 127 100 70 
132 217 243 119 45 43 
128 354 350 106 123 143 
54 668 250 79 54 54 
90 297 324 55 63 74 
64 456 334 158 145 136 
62 519 298 136 145 160 
135 570 243 51 69 84 
342 97 227 141 113 83 
231 369 348 80 98 118 
199 948 240 111 84 59 
104 496 375 138 115 90 
199 351 305 75 94 113 
263 288 359 91 118 145 
261 196 285 74 33 39 
135 217 242 114 50 51 
163 903 338 102 87 74 
356 16 219 121 108 96 
303 123 311 141 68 5 
265 264 359 83 124 157 
135 145 299 108 86 62 
104 441 244 49 95 128 
362 682 321 167 183 206 
173 449 334 72 98 132 
139 97 268 112 92 72 
102 784 282 106 102 121 
121 346 331 118 117 123 
243 554 356 96 124 181 
137 682 328 154 163 179 
133 223 242 64 51 63 
285 283 356 137 131 129 
111 480 228 145 143 148 
329 764 259 207 187 172 
159 126 282 89 67 44 
215 924 324 155 120 100 
150 146 256 88 75 62 
370 653 272 169 173 186 
289 402 308 155 134 114 
178 569 215 149 163 185 
136 209 243 137 50 46 
35 631 200 78 94 110 
125 687 197 160 142 159 
362 655 335 128 149 196 
150 552 235 90 94 101 
272 361 277 144 110 84 
288 395 367 148 127 106 
256 222 292 63 89 111 
125 501 209 115 135 159 
103 326 246 115 130 153 
139 209 243 122 49 48 
138 210 243 126 49 50 
151 768 305 203 177 157 
303 776 292 195 140 111 
202 260 250 159 155 160 
351 681 260 76 112 148 
142 719 346 180 56 72 
279 784 288 194 141 105 
105 594 247 83 104 125 
262 559 330 97 90 87 
107 346 250 94 124 152 
349 611 274 86 100 115 
75 349 316 136 57 68 
141 887 269 155 96 76 
257 296 364 158 156 162 
372 688 276 139 145 157 
144 364 211 107 73 34 
65 295 303 143 60 2 
138 215 243 111 38 47 
139 214 243 111 40 46 
255 451 368 156 163 178 
173 284 298 94 95 99 
187 809 225 208 146 107 
145 807 255 166 156 159 
138 281 229 140 144 154 
129 457 206 87 110 140 
310 340 335 167 13 68 
271 294 274 84 134 175 
157 512 195 60 89 166 
203 475 195 141 145 154 
328 165 249 75 99 122 
239 314 253 132 124 122 
255 274 339 74 79 93 
44 619 226 81 109 133 
193 393 204 49 89 120 
75 579 319 111 130 162 
62 402 315 75 119 153 
140 212 243 108 37 45 
188 596 229 169 165 169 
204 382 310 58 82 113 
175 963 299 143 105 68 
111 590 258 108 115 127 
166 279 291 66 70 81 
85 419 346 122 114 121 
142 366 335 84 95 122 
177 738 342 170 132 124 
140 437 341 110 114 132 
223 394 347 106 114 127 
93 542 250 61 84 113 
56 389 290 123 96 83 
176 66 273 119 96 72 
96 504 369 165 77 18 
62 736 257 113 118 163 
160 442 317 34 62 86 
299 601 345 35 68 106 
327 61 235 84 74 66 
259 333 362 176 150 123 
166 813 265 180 128 104 
130 689 265 101 113 135 
90 361 255 161 153 157 
133 432 352 107 113 129 
174 311 322 145 100 44 
381 683 314 137 143 191 
258 265 363 99 134 163 
149 309 222 93 102 114 
155 339 209 175 137 95 
310 113 294 111 102 95 
96 602 240 77 95 114 
78 592 345 201 203 217 
123 566 190 164 169 182 
234 921 289 89 70 61 
282 232 341 134 124 125 
184 921 342 202 158 137 
131 459 368 70 99 137 
139 219 242 104 34 37 
284 116 266 123 93 74 
69 348 311 124 55 69 
201 259 303 82 92 104 
270 172 323 83 37 51 
174 70 271 140 112 88 
138 909 259 63 51 42 
92 641 302 160 103 94 
148 424 195 95 109 127 
192 755 209 147 116 84 
60 446 318 97 127 155 
256 557 303 78 77 79 
96 324 337 126 68 77 
232 574 356 187 140 133 
232 204 270 51 75 94 
317 237 266 136 61 80 
343 703 257 154 51 50 
306 240 257 143 70 97 
118 586 369 143 166 198 
231 594 265 55 69 84 
131 488 362 109 119 139 
199 403 328 37 56 75 
64 447 322 58 96 139 
192 439 197 86 113 140 
216 200 266 101 84 81 
141 219 242 110 44 47 
308 658 300 102 133 162 
128 691 289 76 105 140 
150 664 343 93 107 141 
278 720 337 160 134 109 
225 298 254 85 98 111 
254 531 273 98 117 139 
148 191 302 63 51 57 
140 127 297 107 87 66 
126 551 247 78 98 118 
281 599 239 62 93 119 
133 569 236 66 79 96 
234 912 275 76 60 51 
264 767 307 206 145 115 
261 401 374 95 123 162 
246 258 365 139 142 152 
167 855 262 141 112 84 
21 701 211 198 191 204 
210 204 266 103 53 53 
110 651 347 196 138 138 
308 765 298 124 134 148 
162 220 281 70 49 59 
204 802 287 183 114 97 
312 627 237 38 80 136 
377 679 320 95 128 194 
244 861 301 156 129 105 
219 451 348 110 120 135 
142 222 242 60 41 49 
256 542 275 94 110 128 
168 507 356 105 118 134 
281 655 218 52 73 99 
104 472 370 168 107 57 
384 32 243 206 185 182 
267 412 368 58 92 163 
276 133 351 97 52 47 
171 831 264 165 120 93 
110 379 338 60 81 98 
123 422 371 109 90 70 
200 771 313 210 152 129 
300 617 335 81 97 139 
72 551 291 143 139 142 
229 788 297 212 143 123 
72 536 363 185 64 9 
169 648 202 117 120 128 
314 685 299 93 69 73 
272 660 215 114 126 154 
197 775 215 144 133 127 
261 492 348 93 111 142 
292 354 366 191 160 128 
205 929 331 189 141 115 
308 163 309 94 90 94 
107 647 348 170 120 118 
309 99 243 97 84 73 
249 479 367 88 105 146 
268 479 337 123 142 170 
300 363 318 194 164 134 
311 758 298 125 127 137 
264 308 359 148 129 111 
101 582 212 93 112 132 
290 639 225 73 108 144 
230 773 214 61 37 38 
194 297 234 114 121 132 
342 98 226 142 114 85 
79 266 272 94 87 81 
270 229 356 147 145 149 
34 635 264 83 123 156 
202 443 347 126 142 163 
184 603 368 170 165 167 
362 689 318 150 179 210 
159 517 361 95 111 131 
365 621 271 80 103 124 
199 895 334 71 49 49 
127 673 337 191 141 132 
130 738 204 139 113 74 
76 468 351 181 149 114 
148 626 357 49 54 78 
218 207 268 102 86 82 
136 618 203 125 161 210 
83 629 191 168 174 190 
120 696 198 80 156 216 
145 933 304 100 77 62 
225 935 254 117 93 69 
176 427 314 68 81 96 
237 244 301 63 59 60 
172 610 367 192 187 192 
263 433 284 41 81 130 
147 425 195 105 115 131 
210 872 242 81 62 47 
163 455 323 47 67 84 
264 657 348 173 118 38 
283 562 310 118 110 105 
148 196 243 134 67 79 
284 403 301 156 134 107 
222 630 216 91 95 101 
220 614 242 119 122 130 
141 688 197 140 168 203 
215 570 363 184 191 205 
247 300 342 135 103 66 
213 14 324 90 60 42 
315 232 329 75 109 136 
228 571 358 115 91 94 
84 612 281 38 61 79 
150 198 243 135 60 50 
236 153 260 47 63 78 
151 198 243 127 56 44 
40 628 260 64 71 84 
194 956 320 101 82 64 
30 720 229 149 156 208 
124 783 286 94 96 102 
195 500 365 101 120 153 
205 853 324 158 125 95 
130 408 208 88 108 130 
137 283 326 136 130 129 
320 285 335 161 115 84 
137 728 323 121 64 81 
72 299 329 152 89 69 
80 300 257 169 69 0 
105 549 250 118 121 129 
239 273 330 120 120 124 
253 529 334 127 147 174 
333 600 284 99 117 136 
160 846 307 142 111 82 
235 913 281 93 73 59 
111 394 235 110 121 136 
308 736 299 131 115 102 
220 443 215 122 129 141 
69 567 324 92 108 152 
252 579 344 166 110 100 
183 888 218 66 50 38 
381 658 325 161 175 194 
300 774 237 105 87 70 
260 482 278 102 126 163 
82 674 194 122 144 172 
361 661 333 126 155 202 
340 49 209 137 125 115 
172 974 236 120 85 55 
298 249 340 131 127 127 
133 452 354 142 137 138 
299 633 308 124 143 165 
223 690 350 148 121 104 
205 841 230 188 131 86 
307 152 310 128 85 76 
332 115 226 177 129 105 
262 145 337 77 31 37 
273 635 344 89 74 57 
380 643 268 77 106 185 
265 487 319 102 111 141 
323 666 306 127 154 182 
294 640 309 106 136 164 
149 200 243 121 50 26 
339 116 252 130 103 77 
251 763 213 92 88 86 
173 451 335 67 93 130 
275 117 313 115 60 23 
145 630 357 74 85 107 
102 596 198 62 98 131 
241 449 369 98 117 155 
93 778 239 183 22 44 
178 207 272 62 54 53 
97 632 229 34 60 86 
175 337 209 114 76 76 
253 198 358 54 60 100 
69 564 322 70 93 148 
167 88 272 123 96 64 
240 327 345 119 118 123 
379 695 289 131 169 205 
101 653 316 169 114 104 
95 342 333 103 28 59 
253 539 315 138 133 134 
175 296 316 111 118 129 
142 732 327 138 33 47 
187 619 367 115 55 70 
330 642 329 80 109 154 
101 390 252 105 116 131 
251 739 214 122 107 94 
72 318 329 116 30 52 
183 451 335 68 81 102 
91 786 256 244 199 143 
271 153 292 80 35 56 
319 779 262 145 117 86 
152 193 242 110 78 107 
146 638 205 117 121 129 
162 459 188 171 169 174 
167 261 283 89 93 99 
266 782 293 212 149 117 
221 614 243 120 127 137 
181 842 327 164 122 107 
355 16 223 101 91 83 
13 650 242 95 120 149 
212 721 341 170 148 128 
159 86 266 119 89 50 
69 674 227 67 79 95 
137 901 278 78 61 47 
159 323 212 99 112 127 
70 546 359 202 88 14 
334 720 253 139 33 53 
294 565 323 126 107 88 
266 234 308 64 55 63 
79 563 365 171 142 113 
94 736 207 210 47 72 
221 760 320 208 156 129 
307 792 249 166 116 81 
328 263 292 100 60 65 
129 631 206 94 112 132 
192 603 240 49 69 87 
189 167 264 70 64 65 
194 749 205 141 126 116 
312 226 257 161 95 90 
250 713 213 152 111 110 
10 649 209 70 44 38 
163 83 269 120 92 57 
225 543 367 136 155 179 
315 655 305 88 118 145 
76 406 339 81 99 117 
17 682 198 198 193 202 
227 904 256 67 55 47 
301 335 323 195 165 134 
258 168 347 93 32 39 
138 418 202 91 112 135 
192 738 339 161 146 139 
83 644 294 163 107 92 
198 610 363 109 41 69 
240 315 351 122 81 52 
179 480 187 149 152 160 
192 902 225 64 50 38 
304 619 329 87 108 143 
106 303 339 128 105 96 
249 559 327 57 66 77 
304 242 335 75 106 134 
166 961 290 104 74 49 
260 402 274 72 105 145 
306 750 239 122 106 91 
354 619 270 68 105 141 
254 540 310 123 123 130 
254 870 303 151 128 106 
112 465 224 60 94 138 
139 929 279 102 86 73 
229 525 368 110 135 168 
304 687 231 125 145 167 
156 748 323 155 130 129 
277 720 338 165 140 116 
142 747 321 105 126 156 
355 708 311 91 128 162 
378 44 212 155 122 97 
134 333 336 116 113 114 
101 284 326 90 77 85 
152 942 310 106 82 68 
66 350 267 166 42 68 
103 465 236 80 102 127 
257 157 275 76 22 27 
150 73 296 114 97 82 
191 318 218 114 108 107 
216 167 259 88 57 53 
350 617 285 111 127 146 
167 486 340 64 88 114 
89 310 324 80 57 60 
242 422 364 71 95 131 
227 677 203 180 176 183 
192 609 246 52 71 88 
67 423 321 153 155 164 
106 673 194 188 187 195 
294 336 284 204 144 85 
151 251 295 59 87 110 
114 589 263 90 91 95 
285 233 243 78 108 135 
186 778 216 177 152 132 
308 79 224 82 71 60 
361 630 280 83 106 128 
88 584 358 124 147 203 
271 158 287 79 37 51 
153 226 293 46 46 80 
154 202 243 109 51 41 
113 614 195 124 146 172 
155 202 243 109 52 39 
266 198 288 108 20 40 
201 399 324 46 64 86 
295 360 292 209 176 144 
206 760 211 156 139 131 
240 467 232 134 139 151 
203 299 241 126 130 137 
72 391 329 102 66 77 
93 391 261 163 129 90 
367 643 334 142 154 174 
222 619 233 121 129 140 
111 459 226 69 95 136 
120 334 345 89 91 98 
291 419 355 139 123 138 
136 507 202 178 179 189 
153 206 244 104 52 40 
278 239 345 150 147 150 
154 205 244 96 51 26 
284 617 328 61 62 94 
301 118 235 136 118 100 
92 320 253 129 125 126 
257 132 267 94 48 37 
158 305 310 82 73 66 
155 207 244 103 44 24 
164 978 243 151 115 85 
217 579 253 65 89 111 
90 441 354 88 72 62 
219 677 202 134 158 189 
177 287 305 89 96 107 
151 355 325 136 133 136 
238 814 265 187 130 102 
156 203 244 98 44 25 
76 584 322 119 125 164 
220 886 314 167 118 91 
102 655 319 173 119 108 
120 381 226 124 125 129 
261 680 352 171 104 46 
253 261 343 84 93 106 
120 530 226 114 118 126 
97 588 193 154 161 190 
145 725 204 122 20 34 
66 291 304 136 58 6 
36 728 238 92 125 205 
28 656 266 116 138 169 
114 399 228 131 133 140 
234 604 354 163 117 111 
336 658 316 131 149 171 
379 684 316 112 128 184 
317 76 233 79 68 58 
67 458 285 102 116 136 
64 454 295 104 54 72 
197 18 284 152 134 121 
170 937 241 94 60 30 
328 593 279 82 107 130 
91 493 248 85 102 134 
357 30 203 128 108 86 
208 966 273 117 89 60 
224 359 334 75 93 110 
221 881 250 74 57 47 
179 161 272 84 74 73 
234 921 271 76 60 47 
185 213 269 61 36 35 
137 400 205 127 134 145 
159 204 246 103 36 27 
359 682 266 117 134 155 
287 254 343 143 143 149 
99 599 254 65 89 110 
273 468 356 144 158 183 
301 357 303 196 171 150 
165 608 219 167 166 177 
55 615 195 136 137 144 
142 142 259 103 84 63 
238 603 262 42 64 82 
172 596 218 112 137 166 
145 208 243 107 57 37 
228 306 250 135 136 140 
183 584 368 170 165 164 
148 454 335 108 115 130 
359 638 260 171 173 187 
331 703 249 47 60 116 
360 686 319 152 174 199 
264 591 247 85 114 140 
241 260 320 90 92 97 
92 366 336 60 101 134 
45 687 244 138 137 143 
329 213 321 106 84 92 
308 575 312 96 88 82 
365 26 202 126 105 82 
147 209 244 104 38 39 
91 327 253 122 117 118 
280 639 337 100 83 118 
7 680 227 125 134 152 
137 66 260 125 86 69 
300 116 311 119 107 97 
163 296 301 82 86 93 
149 938 310 134 107 90 
88 692 235 98 108 122 
138 739 318 120 30 49 
60 626 291 61 96 126 
76 506 266 32 70 100 
215 658 202 150 151 158 
197 183 263 71 70 73 
232 822 261 178 123 96 
282 280 267 84 133 171 
235 932 280 101 75 57 
198 407 204 54 92 128 
336 710 252 122 30 29 
146 212 244 101 34 41 
274 131 307 81 33 33 
77 602 223 100 120 141 
97 332 249 163 157 157 
146 214 244 107 38 48 
295 638 307 101 132 161 
147 214 244 106 38 46 
201 926 231 77 56 39 
258 400 373 51 84 144 
132 118 274 95 80 64 
261 372 269 132 108 103 
176 823 275 159 115 88 
150 946 265 96 78 68 
111 671 321 188 122 121 
74 521 268 125 124 130 
103 785 282 124 115 130 
188 877 219 68 58 51 
294 710 229 119 32 40 
120 675 325 187 127 122 
151 211 243 107 37 45 
210 834 229 195 136 95 
155 334 329 139 85 102 
79 306 261 137 96 89 
262 374 271 142 130 126 
148 743 205 69 40 44 
176 321 318 131 85 29 
185 446 193 155 153 157 
145 517 203 172 172 181 
184 475 188 142 144 152 
278 811 252 231 174 140 
281 435 316 155 158 169 
330 236 312 139 135 137 
139 125 295 99 81 63 
198 852 229 137 109 84 
149 214 244 105 29 41 
233 265 324 84 99 114 
267 463 366 48 89 159 
46 637 278 143 153 168 
110 370 333 53 77 96 
297 807 270 231 167 139 
150 214 244 104 28 43 
101 567 267 85 96 110 
330 215 296 84 50 89 
80 571 362 183 62 99 
109 587 275 48 62 77 
187 480 349 88 110 148 
258 467 268 76 105 140 
213 841 279 172 125 98 
257 359 264 147 136 132 
145 245 313 105 43 61 
183 804 286 189 134 115 
113 353 330 85 86 90 
227 776 307 209 149 124 
72 329 326 79 28 52 
177 970 231 119 85 66 
72 289 325 110 105 115 
188 871 339 188 134 118 
392 670 305 211 216 229 
298 362 363 199 170 140 
277 107 284 115 83 67 
220 830 234 207 152 120 
320 96 213 172 131 102 
169 359 308 39 75 108 
324 74 239 80 70 60 
208 958 244 118 87 57 
253 485 273 144 141 152 
230 794 292 210 143 121 
183 983 244 114 87 61 
295 612 346 120 140 185 
187 623 224 87 39 66 
305 87 205 157 116 92 
147 801 270 121 119 122 
180 394 307 35 65 87 
116 280 243 92 101 111 
315 748 245 161 144 131 
146 223 243 49 41 51 
68 270 287 120 121 125 
250 492 257 97 117 144 
198 956 315 97 77 65 
283 199 342 141 94 87 
130 172 302 110 88 65 
213 470 350 86 113 149 
306 219 249 170 124 99 
184 493 349 56 83 118 
85 407 265 179 136 79 
148 218 244 100 37 36 
183 377 203 100 114 130 
34 627 209 116 120 128 
176 310 321 150 112 73 
85 515 368 193 164 136 
66 676 239 52 60 84 
228 336 240 89 110 133 
209 537 361 80 96 124 
322 199 256 162 82 96 
202 902 229 75 56 38 
178 531 194 63 95 124 
142 658 343 63 86 137 
329 236 328 142 132 130 
145 614 364 142 165 200 
314 578 318 116 98 82 
149 220 244 78 36 35 
232 383 365 75 102 138 
231 697 206 184 46 63 
164 882 252 66 55 44 
86 659 195 159 161 171 
93 381 259 132 141 156 
382 645 271 49 84 182 
150 221 244 57 37 42 
174 888 335 155 118 103 
113 396 231 92 110 133 
216 598 253 81 82 86 
315 643 310 132 156 180 
306 354 355 190 163 136 
330 94 217 151 121 90 
264 676 348 179 68 22 
263 634 347 100 91 84 
170 386 200 52 89 121 
137 93 284 107 87 66 
332 656 246 135 144 162 
107 644 230 47 75 97 
301 114 239 137 120 104 
8 679 233 157 161 172 
339 722 306 97 83 97 
68 492 347 115 102 119 
232 579 266 48 47 49 
67 556 340 107 91 81 
347 613 287 112 127 146 
240 227 281 123 118 119 
163 624 359 180 176 183 
143 898 300 107 85 68 
375 40 234 149 113 85 
109 732 204 134 32 39 
151 551 234 107 106 108 
151 943 259 91 66 49 
304 665 230 44 80 132 
56 407 296 109 49 68 
275 798 276 199 149 121 
66 434 335 135 138 147 
146 528 364 76 101 127 
184 160 268 79 77 78 
201 961 303 109 89 71 
86 407 351 130 139 153 
105 564 369 131 106 129 
149 553 232 67 80 93 
239 626 221 119 124 132 
154 212 245 92 34 40 
93 270 317 95 70 45 
311 112 225 158 116 78 
301 196 238 55 95 126 
333 636 246 67 105 145 
87 451 358 125 90 60 
134 389 348 77 93 120 
271 465 366 98 133 176 
178 781 303 186 145 111 
160 472 188 87 114 145 
296 796 242 206 147 113 
340 115 244 138 105 76 
93 645 278 118 101 115 
283 772 224 83 75 71 
65 534 342 183 71 3 
388 643 295 78 95 112 
156 211 245 88 34 37 
265 186 284 75 46 61 
299 112 294 108 98 91 
270 577 292 78 72 68 
298 362 298 218 186 154 
142 408 201 70 103 131 
83 606 320 72 102 169 
99 605 193 145 124 123 
257 725 215 144 129 120 
247 668 359 144 77 54 
159 209 246 93 35 34 
142 94 258 134 105 78 
210 565 240 160 161 172 
258 569 341 141 102 84 
251 246 365 110 121 137 
323 605 243 81 104 129 
228 675 203 175 169 173 
330 698 247 109 115 134 
130 625 203 121 154 204 
263 202 285 113 35 33 
231 562 360 160 176 201 
295 209 326 121 82 76 
116 581 369 102 129 186 
106 723 261 66 85 110 
212 245 280 90 82 76 
131 397 209 95 108 124 
129 397 211 112 120 133 
92 366 334 65 102 131 
159 213 245 79 36 31 
208 787 300 209 144 123 
93 327 327 110 74 69 
188 576 233 112 123 139 
174 85 287 86 71 54 
271 384 285 160 144 136 
221 707 206 47 51 117 
108 324 334 69 44 45 
112 630 194 111 136 184 
178 796 291 183 133 115 
259 125 267 117 52 10 
290 735 229 119 91 62 
196 493 363 89 119 155 
77 396 266 168 120 61 
231 401 238 82 101 122 
264 309 269 124 133 146 
237 232 285 111 109 111 
154 217 245 82 35 34 
226 343 322 58 82 110 
324 114 293 106 96 87 
159 724 355 196 91 98 
165 729 352 214 171 155 
329 253 294 82 124 156 
155 219 245 85 43 41 
109 381 338 74 43 53 
334 697 250 145 158 175 
82 547 369 138 120 110 
258 589 255 84 111 136 
112 567 202 82 107 130 
153 221 244 64 42 42 
242 908 296 106 87 71 
228 290 318 121 122 129 
90 371 335 57 91 121 
153 223 244 47 37 44 
63 672 239 64 73 85 
304 330 318 190 160 129 
238 730 343 95 100 108 
221 318 315 85 102 121 
115 332 244 87 107 129 
322 261 278 99 136 167 
225 345 237 104 122 143 
368 42 240 127 101 71 
231 711 343 152 137 125 
176 961 235 121 92 65 
107 669 194 108 144 189 
151 229 298 64 37 68 
84 578 284 164 162 167 
116 391 357 141 143 152 
288 741 317 189 174 163 
142 94 293 115 95 76 
342 605 308 103 89 76 
306 234 332 78 110 137 
87 608 247 99 106 115 
233 278 327 116 117 123 
138 88 279 94 79 64 
82 595 307 132 131 136 
184 425 196 102 114 129 
203 638 370 76 56 63 
21 709 217 136 142 185 
273 379 286 158 143 135 
267 144 321 72 35 35 
159 219 244 77 36 45 
281 677 335 131 57 83 
198 943 235 162 128 93 
134 418 365 140 128 121 
115 418 226 109 119 135 
362 64 243 122 97 70 
262 412 373 96 124 168 
69 595 197 107 117 129 
153 937 250 140 109 80 
243 708 210 63 53 113 
126 715 277 129 139 154 
273 111 266 128 92 76 
153 858 300 148 111 84 
269 298 273 82 127 163 
267 141 320 91 39 39 
261 482 290 104 128 153 
124 560 203 89 113 137 
246 459 249 124 138 164 
250 193 275 75 66 73 
232 810 274 188 126 103 
154 865 317 149 108 82 
305 172 234 161 89 85 
224 557 364 159 178 205 
74 572 355 205 27 89 
87 450 357 119 84 58 
128 265 237 109 101 100 
320 177 306 117 41 56 
137 373 214 108 118 132 
302 243 336 74 101 124 
194 314 222 100 112 127 
263 148 343 75 63 73 
282 578 267 56 76 97 
197 421 203 82 110 138 
130 224 242 80 54 66 
284 577 326 137 95 79 
277 182 313 85 34 33 
217 846 244 181 136 102 
130 226 242 67 50 65 
107 320 337 93 34 58 
129 329 228 86 68 71 
183 277 304 67 87 104 
313 278 345 129 58 50 
98 788 269 124 110 121 
106 503 230 69 94 118 
329 209 277 45 81 110 
229 309 322 124 128 137 
160 872 327 166 126 103 
323 87 206 180 136 114 
252 524 258 146 153 169 
295 400 344 148 117 93 
142 577 209 85 135 179 
211 405 213 90 110 132 
82 278 324 112 85 80 
320 589 280 98 113 130 
85 780 257 164 142 151 
242 623 359 53 47 71 
258 208 361 119 38 62 
298 300 274 116 142 180 
132 225 242 57 44 62 
163 850 319 144 113 86 
147 625 214 120 129 142 
297 574 328 135 106 79 
132 227 242 60 46 66 
274 769 220 93 83 75 
205 984 273 139 106 81 
114 781 287 182 157 149 
146 804 240 177 147 116 
228 262 258 161 166 181 
79 487 267 50 83 114 
158 806 232 205 170 133 
318 131 299 132 68 23 
366 675 272 115 124 152 
87 616 301 70 85 100 
132 265 328 78 70 83 
330 174 264 137 97 101 
285 701 224 158 85 80 
111 583 225 114 124 138 
158 655 348 58 70 108 
108 570 202 92 114 136 
239 321 351 98 95 99 
60 724 255 124 132 158 
227 206 270 66 62 77 
280 234 344 149 148 154 
198 931 233 86 63 40 
225 828 264 169 123 97 
134 230 242 60 46 71 
155 432 315 51 78 110 
178 976 291 131 92 62 
160 337 326 138 90 106 
236 329 365 124 125 130 
351 617 253 135 144 159 
11 651 239 66 99 142 
56 352 276 144 75 79 
149 574 205 121 162 199 
139 740 204 110 76 46 
211 503 356 85 109 133 
258 471 270 109 127 154 
182 264 245 111 75 83 
213 474 351 89 117 148 
130 233 242 73 83 105 
283 154 344 102 90 99 
62 499 334 183 150 109 
235 361 246 117 129 146 
197 326 310 69 92 114 
158 665 196 139 95 104 
146 645 201 122 126 135 
168 845 268 144 109 81 
131 793 234 169 148 130 
166 507 190 179 178 189 
256 165 275 83 32 37 
250 347 363 148 71 32 
129 237 242 54 79 111 
272 114 335 131 64 8 
167 931 240 92 67 41 
114 482 223 140 145 157 
109 798 267 164 137 116 
186 726 352 135 157 188 
208 969 240 171 141 111 
386 661 284 207 205 213 
189 270 303 69 92 111 
60 650 193 84 149 202 
301 771 295 194 143 111 
282 563 309 114 106 101 
209 848 315 155 113 81 
189 557 194 167 177 206 
144 411 327 64 85 120 
201 846 227 188 130 76 
131 239 244 52 71 103 
132 232 242 72 58 89 
132 233 242 62 63 96 
133 232 242 63 50 85 
133 233 242 49 56 93 
293 565 322 123 105 88 
361 723 292 213 105 117 
168 66 259 146 116 86 
280 752 223 144 117 87 
364 682 321 168 180 200 
228 746 210 196 176 161 
336 149 283 87 61 79 
198 543 371 111 130 171 
276 711 341 116 109 108 
135 232 243 49 60 91 
140 78 277 107 91 76 
134 234 243 54 74 107 
354 682 322 151 178 207 
65 758 246 191 202 222 
170 753 208 116 111 119 
260 307 267 102 129 155 
260 731 216 145 126 110 
132 236 243 56 75 112 
341 665 253 140 148 163 
46 615 206 120 121 126 
299 167 318 101 107 118 
114 409 361 106 122 139 
216 402 217 95 109 126 
201 313 228 140 111 80 
111 730 202 194 19 38 
286 731 226 143 127 115 
283 708 326 138 108 95 
315 586 260 42 85 129 
173 731 349 94 82 108 
134 237 244 56 80 110 
147 877 271 154 94 69 
168 685 199 77 142 196 
261 796 275 207 145 116 
115 426 369 159 112 70 
193 827 227 194 139 101 
271 471 361 136 152 179 
228 461 219 147 148 155 
275 113 342 135 67 6 
250 153 267 42 36 41 
252 532 333 160 165 178 
175 685 366 112 153 189 
314 155 234 177 75 17 
99 596 197 70 104 136 
265 165 283 82 38 29 
251 299 262 88 118 145 
193 721 350 140 126 123 
272 342 274 133 109 92 
138 225 242 56 42 60 
162 642 360 64 65 72 
273 276 350 69 91 112 
195 936 232 134 110 88 
293 607 350 92 118 163 
129 346 348 73 110 140 
340 663 323 123 150 178 
46 626 268 72 104 131 
102 644 273 122 127 145 
138 285 320 122 117 119 
230 269 261 173 169 173 
228 219 272 116 111 109 
136 230 242 61 45 70 
108 450 371 155 126 97 
189 396 318 86 102 119 
262 583 268 82 110 134 
266 598 240 70 94 117 
91 400 262 167 121 68 
141 918 300 93 74 62 
289 799 239 215 153 118 
97 541 371 166 145 126 
175 864 240 79 62 46 
181 437 325 54 75 101 
230 333 329 69 84 107 
73 562 359 175 70 79 
324 601 330 117 91 65 
144 256 308 87 73 90 
251 314 367 121 137 156 
370 630 305 87 77 67 
277 353 280 161 76 11 
157 793 284 152 144 144 
269 164 287 81 38 40 
228 842 264 143 99 73 
136 567 369 153 171 195 
281 159 349 146 90 69 
204 710 205 65 70 113 
140 226 242 60 47 62 
183 814 280 162 114 90 
46 737 233 214 216 226 
141 226 243 58 48 60 
167 530 202 61 88 114 
330 109 222 164 119 91 
244 262 321 94 96 102 
274 738 329 185 182 184 
73 524 364 207 173 136 
122 647 258 161 160 167 
232 376 245 58 103 140 
109 575 211 98 115 135 
218 410 347 91 105 125 
329 223 282 131 88 81 
240 850 299 149 126 105 
335 117 277 112 96 84 
87 318 257 88 108 136 
181 526 197 90 114 138 
184 479 188 151 150 157 
269 581 263 107 130 154 
194 426 341 100 119 139 
148 895 248 112 85 69 
92 637 311 178 124 107 
281 655 335 80 62 59 
185 442 193 98 121 147 
313 241 264 124 79 100 
118 760 294 103 80 56 
143 229 244 45 41 51 
197 630 365 84 84 108 
103 786 243 87 35 106 
205 682 201 178 175 180 
269 265 354 73 114 147 
394 652 289 172 178 193 
96 777 232 225 188 147 
342 739 263 119 98 93 
136 204 314 133 57 3 
46 718 247 67 99 142 
364 65 220 147 116 93 
214 641 208 107 108 113 
76 726 206 217 208 220 
132 127 264 92 79 65 
141 927 269 76 62 52 
287 404 305 175 152 129 
80 457 361 191 159 123 
153 564 370 159 170 187 
290 718 227 107 31 67 
114 641 200 67 100 147 
278 428 307 91 111 155 
266 727 342 215 195 181 
266 675 213 121 133 164 
82 653 223 89 91 99 
230 325 324 62 81 104 
262 501 297 100 117 148 
245 819 231 232 174 137 
172 643 205 115 118 125 
140 679 337 167 182 203 
254 545 303 95 108 123 
331 761 260 183 152 121 
253 563 296 63 63 66 
355 638 258 112 133 168 
57 473 312 134 147 166 
267 218 297 62 86 106 
186 705 202 134 149 167 
157 186 299 88 38 27 
243 284 335 120 107 98 
73 612 257 77 102 126 
139 236 245 32 50 70 
104 483 373 163 81 20 
61 425 291 113 139 166 
198 888 333 150 113 92 
308 328 328 185 150 112 
244 302 341 134 99 54 
140 232 244 42 50 71 
97 372 257 162 156 158 
29 703 205 109 117 193 
274 204 355 119 84 79 
323 742 300 140 118 97 
117 431 373 133 130 135 
153 548 231 73 84 97 
182 64 292 97 77 55 
140 235 245 33 55 76 
285 742 319 178 167 161 
237 823 259 174 126 89 
204 483 349 67 90 119 
139 450 347 113 117 128 
156 338 328 142 87 103 
314 95 209 166 113 97 
143 233 245 33 49 67 
190 963 314 127 104 85 
58 457 303 95 116 134 
69 555 310 145 144 149 
133 720 309 152 19 42 
63 651 280 163 112 92 
189 273 310 66 90 110 
273 176 320 83 37 49 
144 421 329 30 61 111 
257 460 277 84 109 136 
125 307 237 111 92 84 
316 733 244 118 101 85 
138 653 198 97 117 139 
141 237 245 42 54 71 
140 238 245 40 52 70 
230 631 216 52 65 80 
200 775 214 160 148 144 
180 429 194 97 115 139 
185 666 366 135 156 180 
148 944 269 85 66 57 
75 664 226 65 81 98 
143 236 244 39 54 76 
96 418 256 155 114 66 
166 965 272 106 77 51 
136 328 334 105 106 112 
276 290 273 82 137 181 
114 571 209 87 109 133 
100 595 228 85 109 131 
68 424 322 157 159 167 
216 783 221 139 99 61 
257 322 362 172 147 122 
167 625 361 190 183 186 
135 255 235 69 35 50 
294 405 348 174 155 141 
267 132 325 110 30 26 
371 627 266 134 134 138 
210 559 210 166 170 182 
121 359 338 99 84 94 
228 435 360 60 85 131 
109 325 321 70 65 63 
195 600 239 54 65 75 
119 478 216 92 109 133 
253 529 335 120 142 169 
238 432 364 83 108 145 
128 738 297 82 42 49 
380 635 273 135 143 159 
231 440 224 93 108 125 
99 418 349 101 102 106 
141 605 202 166 166 174 
146 920 249 96 76 58 
62 597 206 83 104 125 
293 729 229 130 126 126 
169 855 256 151 118 90 
235 363 368 110 114 139 
251 444 266 70 99 133 
285 569 304 100 93 89 
332 611 338 126 138 155 
170 419 309 76 87 100 
206 478 350 136 148 165 
38 661 266 162 111 92 
143 243 237 83 70 81 
297 664 226 144 144 154 
218 403 345 82 100 121 
360 622 270 70 105 143 
65 454 338 170 151 134 
328 252 300 155 148 147 
207 378 312 48 71 107 
76 650 270 111 79 70 
308 298 277 105 133 163 
143 246 233 100 67 68 
227 619 232 58 64 72 
63 616 253 110 115 124 
329 250 325 164 160 164 
75 484 358 150 44 57 
171 850 255 156 123 94 
216 759 320 207 155 127 
240 282 363 88 117 143 
256 527 288 87 108 131 
307 357 349 191 163 135 
98 380 336 52 58 67 
279 431 309 170 168 174 
294 638 227 67 106 144 
318 124 299 144 71 3 
60 520 314 64 90 134 
324 742 251 147 134 127 
136 112 266 90 76 61 
108 344 249 90 118 145 
200 28 312 178 160 153 
191 222 269 86 31 48 
144 804 239 210 185 167 
234 936 273 114 81 60 
269 145 229 146 67 0 
304 296 274 129 150 177 
176 623 226 72 107 144 
143 244 237 83 65 72 
194 867 227 99 80 67 
142 244 238 80 68 73 
131 508 207 174 174 184 
100 467 241 82 105 128 
209 877 236 81 66 51 
144 125 261 114 88 57 
258 178 340 87 37 61 
272 259 352 83 121 151 
334 758 265 177 142 101 
324 639 321 106 142 176 
330 124 296 140 71 5 
254 582 287 88 81 77 
282 268 260 131 142 177 
309 315 317 197 164 128 
140 251 231 90 86 97 
316 82 200 182 120 87 
137 257 231 82 68 69 
176 951 237 97 77 54 
105 755 211 177 7 39 
138 505 200 74 101 149 
112 419 363 161 141 121 
97 645 315 172 118 103 
70 592 202 98 111 126 
74 651 272 115 79 67 
374 685 277 136 148 167 
20 642 209 119 118 121 
329 249 323 162 160 166 
143 251 230 83 100 120 
140 252 231 87 94 108 
331 599 325 120 97 71 
160 92 269 113 85 46 
320 222 325 82 104 124 
204 960 234 146 111 70 
291 776 230 140 108 74 
339 631 338 81 89 151 
107 797 266 197 155 121 
116 785 227 158 146 141 
167 845 274 148 111 83 
189 526 194 67 103 132 
118 473 217 142 144 152 
91 672 194 116 144 177 
214 780 218 146 96 66 
253 654 360 161 125 97 
308 341 334 167 22 66 
117 605 360 117 146 207 
157 810 236 155 111 64 
334 723 305 105 121 140 
168 78 268 156 125 97 
65 549 322 84 111 147 
258 776 214 130 97 59 
267 253 329 85 90 99 
213 734 335 100 94 96 
209 647 373 109 111 143 
202 135 256 94 67 61 
330 209 297 45 69 110 
252 252 346 89 94 104 
164 316 324 152 125 93 
189 546 367 84 105 150 
213 311 313 126 127 134 
345 651 330 83 120 170 
128 574 260 71 73 78 
302 235 252 173 74 102 
278 603 350 111 134 171 
82 270 313 76 63 47 
138 78 258 112 89 68 
194 779 216 149 157 170 
121 414 217 92 111 133 
164 593 213 72 112 147 
262 415 279 74 104 142 
184 960 318 93 72 57 
124 366 359 76 119 154 
222 925 309 124 107 97 
73 579 325 112 125 160 
192 967 302 107 86 71 
332 723 305 149 151 159 
117 483 219 104 118 137 
250 547 259 97 120 144 
50 624 270 66 105 138 
283 604 351 90 121 160 
329 205 269 111 59 77 
155 796 227 182 169 164 
70 553 298 57 86 138 
265 315 270 143 142 146 
198 617 235 92 76 73 
224 288 258 78 106 132 
305 207 321 74 84 98 
285 412 367 118 140 169 
306 786 288 203 147 115 
272 712 343 164 139 123 
73 599 192 155 167 194 
137 253 233 78 81 90 
389 656 285 92 122 177 
277 657 342 164 145 130 
207 762 211 143 132 125 
59 602 216 110 120 132 
157 539 211 54 77 100 
95 518 248 81 97 116 
168 708 202 153 177 204 
351 642 257 133 154 182 
228 395 350 101 110 124 
74 265 279 114 64 7 
278 700 341 112 102 97 
353 713 309 112 110 126 
105 388 244 77 102 126 
101 567 266 73 89 107 
253 817 250 230 175 142 
147 170 293 82 67 56 
311 292 348 148 100 70 
76 587 205 105 123 142 
274 448 366 55 83 140 
130 443 358 91 101 122 
267 584 325 124 87 70 
326 129 231 145 115 84 
301 113 303 110 100 94 
66 600 195 85 114 140 
177 900 220 86 68 52 
227 312 319 90 104 124 
59 473 301 103 110 122 
290 111 303 102 91 84 
381 638 272 75 103 131 
251 540 256 121 135 154 
15 702 221 104 115 172 
283 114 346 136 76 15 
257 243 342 89 94 103 
315 673 236 53 101 137 
326 114 275 107 97 88 
172 314 216 105 45 30 
280 631 225 98 114 133 
336 133 276 161 79 11 
13 674 197 144 91 110 
233 319 328 114 116 122 
140 250 233 90 67 71 
295 706 309 141 152 169 
356 65 209 150 120 99 
142 236 319 117 31 22 
63 487 341 127 91 119 
124 716 202 139 160 188 
219 845 247 184 137 104 
61 626 291 62 94 123 
197 302 233 95 116 137 
305 608 350 152 171 196 
201 654 202 154 153 159 
20 678 195 151 120 134 
207 982 269 153 125 95 
194 31 310 173 151 148 
302 736 302 161 137 120 
131 509 367 82 94 115 
251 622 224 72 94 114 
171 487 186 157 160 170 
225 819 226 227 164 127 
194 331 309 121 126 136 
201 716 206 174 25 29 
226 537 206 64 112 177 
342 602 276 123 130 141 
151 895 322 144 115 87 
211 433 346 140 141 147 
130 243 244 70 97 121 
277 232 311 56 86 109 
131 242 244 62 88 114 
138 759 211 168 147 131 
330 173 267 128 86 81 
92 591 195 136 149 184 
240 324 345 121 117 120 
234 445 226 105 122 144 
171 449 189 94 115 140 
229 834 248 222 167 134 
269 653 215 148 149 156 
195 983 244 188 143 111 
62 665 234 31 41 63 
213 303 247 106 117 130 
238 298 361 113 105 100 
129 247 245 75 42 35 
177 879 342 186 134 120 
172 969 286 124 98 71 
79 616 295 46 18 31 
131 244 245 48 62 87 
261 483 287 74 107 150 
85 618 306 82 96 111 
121 348 353 90 121 148 
98 726 265 85 96 110 
130 247 246 82 52 53 
177 931 236 123 93 61 
72 296 259 103 92 80 
191 13 328 129 102 89 
111 567 202 81 109 134 
197 636 211 71 96 125 
161 519 198 133 140 170 
231 401 359 92 102 117 
21 642 204 70 76 85 
138 120 260 127 98 58 
305 98 223 96 79 61 
133 243 245 49 68 88 
172 139 256 111 95 84 
220 850 251 128 92 68 
312 634 324 134 142 185 
135 213 311 94 55 52 
82 610 254 59 79 97 
252 612 349 90 113 174 
71 431 277 114 128 146 
320 291 329 186 154 119 
150 309 322 121 120 126 
230 615 359 105 74 71 
264 268 262 116 136 169 
132 244 246 51 61 75 
159 875 326 174 133 113 
91 541 371 159 111 57 
244 357 253 137 141 152 
271 308 363 126 23 56 
92 469 360 162 136 109 
213 855 308 158 111 82 
259 515 326 92 112 140 
140 497 360 144 146 154 
228 808 277 194 125 103 
336 130 273 178 87 12 
277 359 281 114 114 124 
184 961 316 87 67 57 
78 291 274 100 90 81 
181 288 316 124 124 130 
131 258 239 98 34 23 
142 544 236 85 96 110 
371 711 284 120 27 35 
162 856 322 148 116 89 
227 840 258 137 95 67 
158 596 210 85 121 151 
128 248 246 94 69 62 
376 28 249 147 131 131 
184 568 366 162 162 170 
185 442 330 117 122 132 
293 373 295 186 121 72 
262 178 333 81 32 59 
63 644 286 160 114 94 
219 391 223 64 93 120 
207 718 206 139 25 35 
130 249 246 79 57 40 
240 531 224 139 149 174 
166 321 214 106 89 86 
234 464 363 112 126 146 
259 664 210 57 95 145 
195 522 366 101 119 144 
256 145 270 32 53 74 
25 670 261 107 134 179 
97 274 249 129 18 47 
59 453 315 148 143 144 
152 403 311 31 63 108 
277 346 279 171 145 118 
130 255 242 87 53 71 
347 67 207 149 113 89 
150 940 259 109 86 65 
238 415 240 102 118 139 
147 237 311 75 33 40 
118 578 190 180 178 192 
283 709 326 120 106 98 
307 338 310 184 148 121 
187 509 187 128 137 178 
132 705 326 133 153 175 
181 589 369 92 135 169 
231 385 358 107 112 124 
169 855 258 149 117 89 
342 613 290 82 91 102 
81 369 332 60 88 112 
238 607 254 37 90 127 
226 636 361 138 84 55 
130 252 245 72 57 48 
181 548 367 115 124 148 
53 619 248 76 92 107 
302 82 208 129 96 71 
131 252 245 69 64 60 
262 184 281 72 48 66 
128 125 276 97 82 67 
188 976 293 166 132 99 
134 424 359 82 81 99 
101 698 240 57 85 118 
154 951 264 78 57 48 
184 829 232 177 131 100 
172 858 251 146 115 87 
182 197 269 55 55 59 
111 684 195 163 86 108 
192 740 208 131 108 84 
308 779 290 200 145 117 
156 144 270 98 71 55 
90 340 252 79 109 136 
214 390 217 88 110 131 
76 658 224 47 69 88 
210 701 204 179 14 45 
247 475 249 101 118 139 
199 344 212 129 94 94 
60 441 317 141 149 163 
192 710 357 173 145 119 
295 734 310 118 99 85 
15 660 252 99 128 161 
173 855 331 114 76 62 
144 648 350 67 85 149 
291 784 290 193 145 111 
218 625 371 105 97 94 
170 255 280 85 86 91 
135 766 303 108 109 124 
176 20 326 114 105 100 
275 445 366 98 127 165 
135 396 352 69 90 116 
241 445 368 95 117 155 
184 376 302 78 90 104 
170 280 237 113 108 107 
220 746 332 103 144 179 
340 753 281 144 120 99 
94 424 348 80 64 53 
250 228 353 123 79 47 
225 302 251 103 114 129 
379 690 283 122 137 156 
52 733 250 101 118 168 
319 57 209 112 101 92 
66 315 306 84 52 52 
219 868 263 116 86 61 
142 678 340 155 180 208 
231 544 218 133 157 190 
262 634 348 111 97 83 
135 771 215 148 115 89 
241 499 226 91 113 136 
175 879 233 80 63 49 
255 347 363 135 117 109 
131 459 366 74 101 141 
124 477 373 151 137 131 
321 291 298 144 149 160 
267 359 272 152 134 116 
193 987 273 110 71 46 
279 648 316 111 144 174 
330 72 205 134 99 58 
191 906 225 62 48 42 
205 630 218 68 92 111 
357 79 238 138 110 83 
207 655 372 176 144 108 
68 303 288 144 59 0 
56 662 194 79 122 157 
45 660 194 88 129 164 
284 576 288 75 69 66 
137 242 245 43 58 75 
308 149 231 188 86 8 
233 169 263 107 44 57 
136 242 246 55 70 86 
181 505 188 191 183 186 
278 774 222 163 141 123 
385 39 223 216 184 184 
271 686 344 157 45 39 
277 265 258 138 153 183 
72 424 277 113 120 135 
84 418 349 160 138 117 
28 713 246 28 60 163 
105 654 196 67 98 134 
159 125 276 86 68 47 
100 274 320 82 76 83 
139 74 268 120 101 83 
282 752 225 146 117 83 
137 247 240 84 66 65 
99 778 222 214 34 60 
271 791 222 177 128 91 
200 150 259 107 84 60 
291 259 255 180 173 177 
279 190 307 85 31 24 
79 295 318 79 35 47 
87 589 191 180 186 203 
110 560 256 54 85 126 
122 753 296 134 60 53 
141 909 300 87 69 55 
178 309 321 164 133 103 
236 866 303 162 127 97 
139 244 242 70 69 73 
243 482 369 95 111 170 
193 737 340 102 79 88 
227 537 367 106 138 174 
138 211 309 50 33 34 
250 320 257 95 81 89 
210 203 266 103 61 56 
219 879 248 72 56 46 
221 245 297 105 102 103 
93 606 193 89 122 149 
184 458 341 60 82 108 
251 372 261 107 121 141 
137 244 244 59 54 57 
268 340 368 165 152 143 
161 850 317 147 114 85 
188 480 351 69 95 144 
162 981 267 154 123 93 
158 615 362 116 131 173 
299 196 321 121 105 94 
210 546 363 98 110 128 
141 243 240 78 76 80 
67 488 285 58 92 120 
312 97 210 165 107 92 
250 281 345 86 69 69 
86 402 340 131 133 140 
192 935 235 128 101 72 
178 305 321 157 141 128 
286 416 328 180 120 131 
142 241 241 40 68 98 
164 542 371 114 138 170 
26 698 203 87 157 206 
287 170 335 136 77 77 
241 482 234 152 154 162 
65 513 285 66 93 135 
216 613 244 71 95 128 
200 426 343 154 157 165 
225 474 347 97 103 118 
64 357 297 68 89 110 
142 242 240 53 72 88 
142 242 241 56 71 91 
142 243 240 69 74 81 
120 324 327 99 44 23 
252 485 369 175 181 193 
261 794 278 217 157 125 
140 241 245 41 59 79 
260 509 318 94 112 143 
128 569 189 200 201 213 
259 223 363 127 132 142 
140 242 244 44 61 82 
254 509 367 134 153 179 
164 761 210 158 127 101 
125 758 212 109 134 157 
140 245 241 79 72 72 
93 603 293 33 55 73 
295 208 326 119 80 74 
240 463 371 133 150 173 
137 784 218 179 154 136 
136 248 241 87 69 64 
212 315 312 107 113 125 
264 259 254 158 138 114 
141 420 199 99 116 135 
290 715 315 103 95 95 
29 634 250 112 116 122 
243 565 257 114 127 143 
333 750 295 177 150 126 
252 742 214 44 41 49 
121 297 328 76 56 64 
42 659 268 161 112 89 
378 30 205 160 140 126 
208 928 234 101 76 50 
161 591 368 100 80 107 
282 410 303 159 169 186 
95 602 262 65 87 107 
149 235 239 33 70 98 
225 884 262 72 56 42 
70 761 235 171 107 126 
275 210 303 93 43 58 
233 487 218 137 139 146 
202 871 331 178 131 105 
170 963 287 91 63 38 
129 384 357 132 136 146 
95 773 279 142 91 88 
329 603 291 59 74 88 
153 921 329 183 138 115 
77 455 355 174 144 111 
199 300 235 114 125 139 
157 369 314 49 91 123 
283 424 309 111 135 170 
204 307 234 92 107 123 
252 524 343 95 121 171 
70 533 356 186 80 9 
105 470 232 125 134 149 
131 249 320 51 25 32 
166 624 223 72 110 145 
228 459 351 75 82 113 
177 971 292 142 113 85 
143 424 331 69 87 120 
358 612 263 123 127 136 
148 237 238 40 66 95 
179 642 364 72 106 134 
198 943 328 107 82 68 
182 904 344 174 137 112 
242 691 351 86 71 75 
110 327 330 69 58 58 
129 771 298 113 116 132 
271 143 285 93 31 22 
112 571 263 72 88 107 
149 238 236 56 73 93 
57 727 209 63 96 186 
349 88 227 173 136 112 
148 238 238 45 70 94 
355 711 310 111 99 120 
325 631 330 27 70 141 
234 504 212 147 148 155 
292 630 311 98 121 144 
178 568 203 134 166 199 
270 582 326 129 94 75 
185 260 281 97 98 102 
291 286 356 169 146 122 
160 511 192 122 148 187 
268 122 246 172 87 53 
104 626 341 136 146 183 
103 596 259 89 100 113 
129 655 347 110 80 77 
103 660 331 184 123 117 
203 862 328 160 123 93 
311 587 253 12 67 119 
370 640 281 67 86 104 
84 418 267 156 83 104 
273 594 311 55 63 71 
201 483 349 80 93 117 
121 349 334 122 120 125 
199 893 333 86 70 60 
157 231 235 60 57 68 
14 667 250 84 110 160 
41 731 243 69 82 180 
201 601 249 65 63 65 
310 664 232 32 67 111 
159 231 234 52 55 66 
78 587 307 100 114 135 
297 365 300 207 183 162 
222 684 351 126 109 108 
48 670 257 85 65 80 
103 269 321 85 67 80 
265 159 354 110 43 39 
323 266 317 155 137 120 
376 681 319 106 147 208 
158 745 328 170 138 140 
189 649 202 139 137 139 
214 740 208 121 108 99 
89 585 359 172 187 214 
265 240 333 90 91 98 
285 120 330 128 87 46 
261 211 337 98 53 68 
27 644 261 121 137 157 
89 637 244 68 88 111 
147 335 213 135 99 49 
214 756 323 188 140 115 
139 919 265 94 68 57 
158 228 239 52 54 67 
300 364 312 194 161 126 
257 170 276 85 41 36 
156 973 246 126 95 74 
157 101 301 124 100 76 
175 279 293 61 77 93 
261 494 289 78 110 151 
127 670 291 46 63 119 
100 632 335 123 94 89 
62 662 238 73 79 88 
169 842 262 154 118 89 
157 239 231 109 51 62 
315 151 302 99 84 79 
100 424 352 122 19 53 
207 982 272 160 130 98 
256 535 318 100 115 133 
158 239 231 116 50 63 
198 269 310 91 106 122 
36 642 194 82 125 160 
253 406 371 119 135 157 
187 772 214 199 179 167 
305 644 231 48 73 122 
281 427 366 111 142 178 
157 581 216 54 98 137 
216 527 358 66 86 110 
125 542 237 115 119 128 
257 528 308 95 106 128 
236 331 358 96 103 115 
66 632 293 95 72 69 
223 692 204 155 166 186 
215 261 257 130 150 180 
284 156 341 108 101 102 
182 851 231 112 86 62 
280 227 317 51 80 103 
154 811 249 217 186 157 
167 534 371 78 99 144 
134 619 202 98 128 203 
258 513 337 56 87 153 
158 789 289 186 175 171 
168 354 206 124 82 90 
175 240 274 90 88 88 
135 553 197 93 119 145 
103 326 342 116 51 70 
270 190 358 50 69 93 
260 339 263 128 134 146 
238 478 371 125 146 172 
85 779 251 151 43 56 
270 401 369 40 78 148 
311 312 348 187 158 127 
235 200 271 56 84 106 
325 641 316 119 149 178 
173 866 244 74 58 45 
196 906 341 173 135 106 
73 272 322 66 84 104 
134 741 205 216 178 125 
241 626 221 129 128 131 
220 719 208 162 57 54 
328 591 268 134 134 139 
304 680 298 62 89 121 
256 620 349 70 81 95 
245 576 350 182 126 119 
96 673 225 62 83 127 
158 276 300 108 105 107 
325 233 329 85 103 124 
154 237 233 91 49 58 
259 286 363 161 158 161 
234 349 365 125 23 74 
175 779 304 92 119 146 
123 382 221 101 114 129 
157 316 216 101 108 116 
141 299 319 108 111 119 
96 559 369 160 144 131 
262 125 243 177 80 21 
294 659 225 161 156 158 
156 432 191 76 99 129 
167 784 219 198 174 157 
151 874 315 155 113 88 
296 113 263 109 95 81 
234 898 296 144 103 77 
156 233 235 55 59 68 
130 410 208 63 93 123 
152 494 191 91 121 169 
243 616 351 33 56 97 
90 642 193 178 179 195 
129 690 275 83 102 148 
308 353 348 184 152 116 
40 726 221 152 168 197 
336 65 246 80 69 58 
138 307 325 94 103 116 
99 406 253 83 44 22 
256 511 286 135 144 158 
309 678 299 122 41 44 
235 314 333 92 104 118 
167 517 194 134 144 174 
306 792 284 205 145 117 
229 428 362 87 114 151 
155 416 310 70 88 111 
214 649 204 130 131 138 
166 847 278 151 115 86 
61 641 192 99 156 197 
131 461 360 102 110 136 
148 108 261 116 87 49 
239 795 288 207 141 120 
134 697 322 94 114 135 
238 595 353 120 75 80 
156 237 233 98 44 51 
89 617 314 67 83 115 
270 251 319 83 86 92 
58 411 290 169 164 166 
238 826 252 211 158 128 
326 640 322 85 114 167 
74 753 267 151 168 190 
232 462 363 119 136 158 
234 315 331 80 94 111 
256 129 266 97 91 95 
30 687 195 205 192 198 
139 272 323 61 81 102 
151 136 262 88 71 50 
238 374 367 44 96 150 
249 379 363 84 79 116 
279 584 251 56 100 132 
320 671 238 79 100 135 
32 631 204 81 75 76 
237 230 282 118 114 115 
56 500 314 186 156 124 
124 675 331 195 138 130 
249 777 304 212 148 123 
212 478 199 81 105 129 
314 587 286 66 92 114 
146 226 243 46 38 48 
142 414 330 82 95 123 
309 602 336 33 62 101 
193 439 197 86 112 139 
174 147 276 52 71 89 
146 229 243 45 41 45 
176 913 343 193 152 130 
354 731 279 134 88 96 
200 12 324 113 84 69 
312 108 222 172 126 89 
336 730 303 130 96 106 
63 477 293 75 99 132 
292 393 318 193 102 45 
86 600 345 205 215 231 
239 541 228 137 150 177 
71 306 285 125 61 9 
265 283 357 133 139 149 
224 792 294 211 144 123 
236 472 364 94 113 145 
274 388 290 175 156 140 
159 669 359 120 145 171 
243 546 246 170 170 179 
200 273 313 72 101 125 
147 230 244 42 43 50 
147 231 244 47 51 61 
372 637 293 57 77 94 
176 459 340 72 101 145 
233 335 244 88 111 134 
149 225 243 44 42 52 
179 844 238 144 112 78 
153 526 208 73 85 100 
138 790 225 208 183 157 
114 707 252 67 81 123 
150 224 243 43 44 53 
258 119 268 114 66 48 
236 352 246 121 132 149 
59 467 300 128 101 66 
147 884 310 164 118 95 
173 83 281 104 85 65 
299 682 301 132 64 62 
298 284 352 168 146 122 
208 503 189 88 105 123 
160 785 293 187 113 134 
137 377 339 82 95 127 
334 132 268 160 79 6 
228 804 223 205 146 107 
170 642 364 179 177 184 
309 686 298 122 26 39 
136 409 362 132 136 145 
286 424 345 85 107 146 
239 665 357 150 108 78 
111 617 195 130 155 185 
279 672 217 148 147 155 
283 752 317 148 127 109 
79 718 203 129 129 148 
338 169 304 112 50 58 
288 751 315 127 137 153 
244 562 344 88 102 128 
221 274 314 77 56 67 
131 461 363 78 95 125 
267 483 336 75 97 163 
324 188 254 154 92 107 
137 95 279 95 80 63 
201 707 352 167 98 71 
158 888 246 85 68 52 
344 614 290 76 87 100 
154 973 258 144 115 86 
263 330 267 146 143 147 
305 178 313 107 77 76 
147 234 242 36 58 78 
192 41 297 109 83 61 
98 387 257 101 118 137 
155 761 313 118 100 94 
313 123 228 129 99 61 
251 487 369 168 177 192 
143 163 295 113 84 61 
273 182 319 72 44 55 
157 339 209 161 123 85 
135 801 267 153 136 125 
133 554 208 98 122 146 
113 463 223 49 85 127 
95 410 258 155 112 66 
164 106 276 102 82 58 
255 456 262 114 130 150 
146 234 244 39 56 76 
165 427 190 68 94 138 
110 498 375 148 132 120 
97 487 367 158 125 90 
175 465 337 95 114 142 
54 678 194 135 89 104 
210 944 248 121 95 71 
245 436 371 96 125 158 
321 751 250 152 132 114 
212 840 234 197 150 111 
270 151 228 128 69 24 
192 827 283 158 115 89 
91 537 249 77 101 124 
144 238 243 36 64 90 
290 317 365 117 129 144 
236 706 209 160 23 33 
146 236 241 37 72 96 
263 412 280 79 105 137 
129 678 195 121 151 197 
209 699 351 197 78 36 
231 424 365 110 134 166 
134 368 351 134 136 143 
97 425 255 110 122 139 
120 672 241 122 128 140 
187 421 198 55 92 126 
132 450 368 125 103 112 
146 238 241 43 67 91 
146 239 240 46 69 96 
158 810 259 189 135 111 
52 652 194 90 155 208 
66 358 270 160 38 68 
344 738 299 145 117 102 
69 621 293 54 93 129 
137 463 353 117 122 133 
257 516 362 61 80 126 
233 352 357 67 91 111 
334 625 345 153 171 203 
279 235 317 54 77 97 
320 105 258 88 77 66 
116 266 246 116 60 67 
181 406 197 88 112 137 
372 696 276 177 188 205 
95 568 366 122 140 181 
388 38 230 189 166 155 
305 773 242 126 127 132 
185 500 187 156 162 178 
254 285 264 125 131 142 
293 144 228 144 64 0 
169 528 370 146 157 173 
97 646 317 169 114 101 
161 689 366 146 170 196 
76 607 192 88 112 136 
319 598 245 45 87 118 
376 632 269 131 135 143 
143 314 326 87 102 119 
22 702 243 48 100 182 
297 687 306 133 63 73 
248 422 370 154 162 175 
112 368 237 141 138 140 
298 356 323 199 167 129 
173 639 207 94 86 93 
60 394 306 133 22 65 
295 587 325 131 91 74 
65 622 288 59 97 132 
365 64 220 142 109 87 
179 584 368 107 49 73 
226 932 294 98 79 68 
333 198 315 95 88 89 
232 543 218 133 160 193 
155 227 242 40 50 63 
87 476 360 125 70 51 
373 47 224 139 110 83 
170 620 229 65 95 124 
124 732 203 88 62 149 
7 651 221 162 160 167 
162 533 205 59 81 104 
324 72 239 83 72 61 
291 206 330 130 41 73 
211 935 322 139 107 88 
155 783 293 112 106 111 
152 228 242 46 46 56 
208 965 238 133 103 69 
234 323 331 88 97 110 
67 679 242 61 72 91 
252 564 282 90 95 101 
267 144 346 85 52 64 
70 302 251 205 77 6 
208 804 286 184 118 102 
153 403 310 74 94 123 
99 334 342 115 49 78 
109 311 335 48 51 71 
103 422 353 129 103 77 
280 291 272 84 138 181 
299 228 330 76 106 132 
113 670 327 191 133 125 
285 577 278 75 72 72 
197 499 365 85 110 153 
22 710 217 149 148 206 
83 573 285 95 109 134 
100 399 253 161 130 98 
317 696 240 148 159 175 
310 263 266 98 94 102 
205 882 329 191 139 114 
289 116 341 123 104 84 
318 285 282 176 169 169 
