ply
format ascii 1.0
comment Created by CloudCompare v2.11.1 (Anoia)
comment Created 2/28/22 9:45 PM
obj_info Generated by CloudCompare!
element vertex 2025
property float x
property float y
property float z
property uchar red
property uchar green
property uchar blue
end_header
165 847 299 135 95 54 
344 616 343 124 137 155 
37 720 245 79 47 123 
320 215 327 83 54 70 
237 241 324 73 83 93 
81 535 363 188 76 20 
369 657 338 116 139 172 
155 805 236 168 138 111 
234 145 268 86 61 45 
240 221 306 99 99 103 
208 13 314 106 83 69 
345 637 347 80 109 180 
245 331 261 137 136 140 
190 861 218 133 98 67 
115 556 248 129 130 137 
9 682 215 82 83 103 
346 45 226 134 113 91 
306 285 310 166 161 164 
227 184 240 132 47 40 
246 212 305 105 0 55 
63 395 313 133 15 72 
226 187 241 67 59 89 
252 522 269 130 138 151 
112 286 332 128 77 64 
171 822 259 187 137 111 
256 788 294 212 151 123 
203 901 229 84 61 42 
210 722 342 183 151 122 
111 793 275 129 110 108 
91 774 229 115 35 102 
85 629 189 197 196 207 
36 687 190 219 206 209 
235 217 362 152 131 109 
178 815 275 174 127 103 
226 612 243 118 127 139 
226 550 365 49 100 152 
237 146 269 76 64 58 
165 223 281 49 44 53 
69 594 211 128 135 147 
153 889 259 107 73 44 
100 413 254 153 109 42 
252 319 268 145 143 146 
306 799 257 218 153 123 
145 575 208 127 165 203 
231 129 261 116 55 6 
105 351 253 89 120 148 
140 411 332 78 98 128 
231 256 264 117 115 118 
228 187 241 87 50 57 
297 323 329 203 171 138 
157 109 276 99 80 56 
149 133 296 115 88 62 
190 885 222 69 57 45 
330 174 316 92 35 42 
215 559 215 152 164 186 
227 429 375 80 101 154 
231 168 272 90 42 57 
357 616 313 104 88 73 
369 626 326 112 92 70 
267 107 338 115 96 83 
208 490 357 98 115 137 
227 251 364 104 124 145 
168 261 294 90 87 88 
325 156 313 48 67 86 
310 634 325 129 151 177 
155 319 216 85 106 127 
219 676 355 99 90 87 
237 623 224 28 72 104 
152 574 208 141 173 206 
223 288 347 86 99 114 
117 638 346 104 96 107 
278 233 355 65 88 111 
195 536 369 100 116 165 
312 766 303 93 99 110 
204 359 219 121 129 143 
220 958 260 129 103 77 
373 707 307 228 107 115 
85 765 221 130 145 166 
189 258 243 132 130 131 
293 359 347 204 166 123 
233 186 240 126 41 30 
352 737 276 135 127 127 
166 941 328 163 126 112 
209 667 364 194 151 114 
339 598 292 92 112 134 
217 844 242 196 148 115 
138 377 210 132 131 135 
305 271 293 160 157 162 
64 509 286 107 124 147 
318 133 304 129 61 2 
288 574 286 75 75 77 
200 371 336 34 66 101 
234 921 264 82 66 56 
37 657 191 168 167 175 
363 701 321 171 63 63 
226 504 199 92 103 117 
121 352 237 77 87 99 
289 722 323 111 104 99 
242 418 257 159 160 169 
121 671 332 176 122 117 
97 521 370 165 141 116 
298 298 346 189 163 137 
126 589 364 163 178 201 
239 566 255 122 131 146 
119 691 242 134 135 143 
99 595 196 88 127 161 
153 655 345 160 161 169 
264 243 375 153 151 155 
197 510 186 118 143 177 
250 141 274 78 53 60 
271 113 281 92 85 78 
92 288 251 109 120 133 
330 698 254 135 26 25 
78 380 333 61 45 50 
328 587 275 107 113 123 
240 216 302 98 31 63 
134 291 238 100 75 82 
288 636 230 80 109 138 
239 532 218 128 152 183 
141 444 338 85 98 123 
61 481 332 109 129 153 
164 943 243 128 97 68 
322 173 318 83 39 44 
57 726 249 101 122 161 
230 418 378 97 116 156 
384 636 330 79 95 111 
198 959 309 100 84 70 
265 435 316 100 119 152 
83 599 304 141 138 142 
271 599 347 90 107 126 
131 365 355 139 142 151 
240 166 234 58 63 99 
89 332 253 133 127 126 
267 288 281 77 123 159 
301 208 334 67 96 120 
357 618 293 52 92 132 
192 927 338 193 139 115 
307 666 238 21 66 125 
153 406 194 69 102 132 
395 665 315 206 212 228 
189 902 223 64 51 42 
243 166 234 65 67 90 
111 746 283 111 62 74 
104 579 190 173 188 211 
141 314 332 81 100 118 
142 288 314 113 113 117 
327 669 253 139 143 154 
244 162 235 61 84 117 
136 420 201 79 105 130 
136 562 190 180 183 195 
245 162 235 52 81 117 
136 104 266 103 85 65 
105 596 262 71 87 103 
306 699 304 149 106 107 
72 498 348 154 44 64 
247 161 235 56 86 118 
230 554 363 123 147 188 
246 163 235 48 72 106 
292 181 253 124 126 135 
244 361 388 128 115 106 
176 214 276 51 47 50 
225 943 259 119 89 63 
158 881 267 122 89 59 
309 252 350 163 160 165 
293 213 338 58 76 90 
234 756 328 215 156 128 
244 167 234 52 51 72 
67 751 254 144 159 185 
265 120 328 119 58 29 
277 740 226 111 105 103 
246 164 235 36 54 82 
94 721 261 84 93 106 
118 712 257 101 101 119 
134 269 322 60 84 105 
290 195 257 82 110 135 
154 95 303 121 98 74 
73 569 301 159 160 171 
71 569 349 168 19 63 
333 147 280 84 90 107 
308 749 306 164 145 133 
229 847 270 160 117 88 
322 654 314 121 149 178 
42 628 195 72 87 104 
183 805 227 212 147 106 
238 436 242 160 159 163 
225 501 372 133 150 174 
126 471 366 92 112 142 
157 332 214 148 112 81 
92 514 367 172 74 12 
137 549 368 129 141 176 
82 284 258 63 66 75 
152 451 322 78 87 99 
251 501 281 78 105 135 
253 517 273 169 169 176 
99 265 317 101 62 64 
249 349 265 149 150 157 
295 313 300 157 162 173 
172 428 316 59 74 89 
95 385 344 54 71 87 
240 173 235 124 43 36 
241 172 235 118 61 44 
238 824 238 228 170 134 
240 174 235 139 47 62 
302 130 315 144 73 6 
95 678 225 83 98 131 
154 871 320 151 110 86 
243 537 229 135 146 177 
69 528 356 201 167 129 
243 172 235 71 44 47 
103 379 253 147 143 145 
270 352 379 184 152 117 
275 751 322 176 126 96 
353 642 270 89 112 170 
67 389 315 102 80 93 
169 936 332 198 149 130 
149 750 318 150 123 122 
152 688 197 157 86 113 
129 699 196 82 153 206 
90 298 254 114 122 133 
254 524 282 155 152 156 
97 520 236 106 119 135 
211 822 228 192 136 100 
246 168 235 62 49 61 
144 331 338 74 84 101 
290 340 339 152 0 62 
23 643 207 119 120 125 
83 472 356 107 20 33 
300 753 242 157 127 93 
247 170 235 61 52 60 
186 538 189 106 124 155 
62 658 267 145 96 80 
98 638 243 65 83 108 
6 663 218 62 71 83 
295 684 315 86 67 88 
141 225 308 111 35 28 
142 203 301 47 27 26 
232 433 234 82 108 134 
338 630 350 118 138 189 
94 659 218 88 105 125 
90 260 318 98 54 55 
205 974 235 156 119 78 
141 292 231 81 106 129 
249 531 336 134 142 156 
267 208 249 161 116 104 
117 658 346 191 139 137 
95 257 249 128 102 72 
220 904 236 94 69 48 
201 586 363 187 180 181 
162 246 287 62 76 90 
127 626 353 117 139 190 
94 263 250 130 103 70 
333 77 267 111 89 66 
44 623 223 78 107 132 
60 630 188 169 167 171 
245 238 345 86 86 90 
125 700 197 77 158 219 
169 487 186 161 162 173 
251 163 235 43 68 99 
264 556 324 103 91 82 
68 334 285 116 98 98 
224 886 251 78 63 51 
177 734 207 103 84 65 
224 899 305 98 69 54 
251 161 236 46 76 107 
133 541 230 122 122 128 
282 800 283 213 164 135 
143 374 206 130 130 135 
252 516 358 51 38 79 
57 678 190 114 47 64 
197 28 312 152 139 135 
97 619 335 189 200 216 
297 135 326 135 64 5 
193 594 226 149 150 157 
59 710 198 92 120 171 
123 720 269 97 118 140 
230 909 259 68 56 50 
83 594 344 82 109 187 
74 494 268 55 83 107 
152 869 312 145 104 80 
264 744 333 201 155 124 
193 478 355 71 83 111 
88 395 350 152 153 160 
310 80 261 86 73 62 
159 117 293 113 84 65 
174 982 244 119 85 51 
141 308 327 85 98 113 
265 399 299 67 104 148 
126 794 238 116 100 88 
170 700 364 124 140 159 
324 118 253 146 115 87 
136 564 222 63 88 111 
125 594 202 76 110 137 
163 870 328 165 126 102 
224 817 274 187 135 113 
47 655 267 160 113 90 
108 600 196 73 77 94 
156 101 303 125 100 75 
230 925 301 101 80 65 
133 319 232 83 91 102 
130 576 242 57 74 91 
154 152 274 74 66 59 
247 485 276 120 128 146 
324 235 302 102 130 154 
365 52 245 150 107 100 
112 321 335 89 53 46 
74 696 245 80 82 87 
287 350 330 193 164 135 
79 523 363 180 149 116 
61 748 248 95 116 179 
254 164 236 32 53 91 
251 586 341 125 78 72 
141 406 328 54 80 119 
248 306 390 144 13 63 
68 435 322 154 157 168 
126 650 255 126 132 151 
71 612 251 94 114 135 
319 588 330 122 97 69 
339 659 262 134 142 157 
148 753 315 134 122 122 
67 596 211 132 137 146 
332 767 286 200 185 177 
89 766 274 103 117 133 
96 319 251 92 104 119 
59 743 248 84 117 171 
316 584 328 121 98 72 
221 855 279 156 118 91 
222 297 358 120 74 2 
189 330 218 125 81 88 
389 667 326 87 119 190 
134 719 324 170 23 42 
165 314 326 150 118 80 
198 623 224 76 93 112 
252 225 338 42 62 76 
269 188 243 160 48 78 
193 814 228 199 139 101 
210 856 240 132 100 70 
292 575 268 89 114 139 
70 568 316 89 116 157 
75 540 362 192 72 14 
203 209 270 103 62 59 
55 617 232 112 121 134 
312 134 247 152 135 118 
179 648 368 101 121 143 
211 954 252 130 105 82 
224 274 348 128 127 131 
125 790 280 208 181 163 
133 575 363 95 113 148 
251 742 338 197 168 146 
256 559 325 81 80 82 
302 132 316 144 73 4 
221 912 237 71 55 43 
9 679 216 81 99 161 
260 146 283 34 53 83 
290 346 315 193 164 134 
288 207 256 130 83 90 
133 426 343 94 103 128 
251 549 268 109 122 139 
279 441 368 89 113 168 
225 638 362 142 95 61 
111 506 219 120 136 158 
319 581 320 111 96 81 
254 171 235 72 54 71 
255 170 235 65 44 58 
396 663 307 116 150 205 
190 567 364 116 136 159 
138 916 264 132 111 95 
86 555 261 78 106 138 
189 253 312 77 71 67 
294 600 348 63 89 114 
279 217 356 126 13 53 
196 938 233 108 73 48 
195 891 223 55 45 41 
239 781 306 212 148 126 
329 627 255 86 116 152 
104 418 357 158 136 115 
244 864 308 135 116 99 
306 647 239 68 84 117 
217 928 317 127 100 84 
223 626 221 122 126 133 
71 297 309 31 66 98 
126 362 348 121 118 120 
223 898 305 107 76 59 
312 203 327 85 87 95 
243 596 270 35 56 92 
119 580 229 81 107 132 
57 410 299 123 104 112 
65 449 330 104 121 141 
298 259 279 180 171 167 
311 656 242 46 76 111 
212 758 324 199 152 125 
257 479 296 104 123 150 
218 601 255 72 73 76 
259 194 241 170 86 73 
298 565 319 104 94 85 
104 348 252 78 113 144 
162 343 315 101 108 120 
201 943 325 141 106 87 
230 902 268 77 63 50 
132 606 200 112 132 154 
106 360 252 85 50 57 
232 233 366 142 71 9 
86 673 192 152 160 177 
152 498 192 69 103 163 
61 509 298 72 109 144 
127 300 331 86 107 130 
146 890 309 166 122 97 
270 427 351 64 82 119 
243 179 236 125 36 55 
240 180 236 116 34 45 
103 597 244 99 112 127 
267 355 380 169 85 12 
370 705 313 161 183 209 
291 580 256 74 110 142 
180 363 209 148 145 148 
303 699 304 119 102 86 
64 281 293 122 108 97 
241 183 236 129 20 33 
184 901 220 69 56 46 
166 575 219 190 184 190 
296 696 314 140 117 100 
218 517 189 98 121 158 
239 537 364 59 130 181 
229 488 208 80 98 117 
176 432 194 153 150 152 
297 101 242 71 61 52 
244 176 235 118 29 36 
260 207 370 107 80 70 
368 716 297 74 59 149 
134 301 321 96 106 118 
244 178 235 124 38 58 
245 710 353 128 107 96 
221 672 354 103 92 92 
328 234 323 111 47 45 
279 803 275 215 161 133 
246 177 235 123 41 48 
320 104 229 173 135 109 
126 494 365 79 98 130 
81 567 359 179 137 101 
261 706 353 179 162 152 
234 669 207 145 158 176 
168 774 307 118 125 137 
43 620 213 76 104 129 
90 305 253 119 110 101 
251 730 217 97 106 116 
104 574 192 140 144 154 
149 85 302 111 91 72 
233 607 352 80 77 107 
240 680 358 155 96 95 
232 925 300 94 76 63 
217 662 205 153 152 158 
197 534 369 107 124 164 
259 596 325 45 37 35 
236 444 240 155 161 174 
211 17 329 114 84 56 
315 640 317 127 150 176 
295 684 316 89 53 77 
252 543 259 120 134 154 
310 578 283 121 125 132 
281 683 325 140 84 101 
60 306 266 134 62 4 
219 735 337 122 73 62 
92 617 327 178 181 194 
233 885 289 152 103 81 
167 982 248 179 148 118 
203 742 210 114 81 50 
116 705 199 103 110 120 
168 776 217 185 151 112 
204 403 213 86 110 133 
196 844 328 169 127 103 
81 563 280 134 135 142 
233 607 255 88 100 115 
190 710 358 183 151 141 
223 939 299 83 66 56 
138 294 233 77 100 122 
219 861 252 135 100 73 
150 769 304 182 158 137 
252 331 267 144 145 152 
220 406 377 111 135 172 
148 788 284 174 163 160 
372 27 258 133 123 116 
72 761 231 180 121 139 
320 227 293 128 30 69 
137 483 354 126 129 140 
177 300 220 110 79 66 
157 144 268 87 73 60 
199 721 348 87 69 74 
164 659 199 117 131 150 
297 319 324 196 166 134 
191 703 361 192 147 86 
122 624 196 135 147 165 
227 912 251 74 56 45 
210 602 246 75 76 80 
177 408 313 64 79 93 
226 789 300 213 145 127 
30 655 262 75 101 156 
215 150 264 106 70 60 
326 185 319 133 60 55 
276 646 327 112 145 176 
209 758 325 181 137 114 
184 135 275 102 70 49 
123 401 222 114 125 141 
71 271 330 62 88 113 
150 365 317 92 107 126 
56 420 298 154 155 163 
349 707 268 57 55 106 
168 564 196 191 190 202 
290 625 234 66 100 133 
226 445 221 152 151 156 
149 163 289 84 66 52 
240 247 377 119 128 143 
278 296 287 166 165 171 
362 27 252 111 102 96 
297 142 244 167 77 7 
194 592 367 168 161 163 
306 75 220 117 98 79 
240 201 360 89 41 60 
262 149 361 80 61 72 
224 834 270 173 124 96 
140 561 220 55 80 109 
226 399 232 102 114 131 
257 469 293 85 115 144 
267 184 323 57 35 37 
190 851 222 145 110 89 
245 645 213 123 126 133 
271 743 222 175 155 140 
143 893 281 101 77 53 
310 108 273 71 60 50 
147 577 364 39 78 154 
271 207 367 119 95 86 
84 485 262 79 100 123 
255 500 339 85 101 147 
142 911 304 113 89 70 
247 191 237 168 69 57 
180 606 367 178 170 171 
180 441 342 111 122 138 
57 474 311 161 162 170 
131 685 195 184 182 194 
183 386 320 66 87 115 
197 524 192 103 118 136 
287 732 231 79 61 64 
269 781 222 148 110 69 
63 541 328 171 81 3 
249 354 266 143 113 105 
282 356 368 195 162 126 
277 560 310 118 109 103 
244 196 367 41 77 111 
334 158 286 134 94 95 
104 570 204 74 100 126 
152 158 286 83 66 53 
337 37 232 116 99 81 
252 552 312 67 75 84 
329 768 268 130 122 119 
200 847 325 161 124 96 
118 492 212 125 134 150 
107 377 250 142 138 141 
265 330 281 103 123 146 
285 146 349 67 86 103 
111 325 335 84 46 41 
127 608 198 36 97 137 
301 115 285 93 84 77 
228 610 356 92 71 75 
125 353 229 132 130 133 
48 628 265 61 71 81 
221 710 346 177 155 137 
312 172 317 82 41 54 
250 183 236 122 35 54 
263 136 333 107 32 31 
252 199 368 47 65 93 
185 686 200 191 186 195 
310 774 300 196 144 115 
67 331 265 114 80 108 
161 529 207 79 93 109 
122 597 199 118 129 143 
159 805 234 141 110 90 
136 786 285 213 182 153 
275 110 311 97 82 74 
254 176 235 73 51 74 
273 224 257 72 83 108 
127 413 367 151 141 140 
227 454 220 106 119 137 
233 801 288 200 136 116 
219 914 235 96 74 54 
57 483 302 136 134 138 
119 545 236 104 116 132 
223 882 299 152 111 83 
268 704 220 130 144 157 
267 166 364 142 68 69 
134 385 341 70 90 128 
330 97 244 144 111 86 
389 659 328 174 192 217 
273 424 351 68 89 140 
261 701 218 109 85 84 
62 420 286 109 132 170 
105 320 338 113 22 53 
156 693 363 91 142 181 
321 584 284 95 107 121 
106 685 232 92 105 134 
223 474 207 76 101 124 
64 534 303 126 138 153 
248 627 360 59 50 98 
210 849 290 169 125 96 
200 446 353 85 103 133 
133 556 194 92 120 147 
317 786 288 210 149 118 
269 357 377 173 90 16 
343 641 264 159 163 175 
161 542 368 79 112 162 
329 667 255 103 115 133 
216 321 331 113 116 124 
260 477 337 114 128 146 
130 658 256 112 115 143 
269 440 332 132 145 165 
123 378 354 117 120 129 
141 692 331 104 121 139 
151 419 314 44 73 105 
169 426 192 115 128 146 
166 962 264 111 82 67 
383 635 329 66 66 68 
269 707 221 128 143 158 
56 384 291 134 95 95 
276 272 279 93 134 167 
330 160 314 46 59 71 
389 639 316 70 67 66 
194 366 308 64 92 116 
159 93 304 124 99 73 
251 186 237 133 28 63 
266 457 351 67 80 119 
248 188 237 147 88 69 
98 426 349 119 15 49 
249 188 237 154 86 70 
300 159 324 130 82 72 
191 226 272 90 23 48 
72 490 344 146 5 58 
235 888 282 150 98 73 
71 537 275 152 147 150 
106 743 208 201 19 37 
219 751 330 166 130 105 
189 797 223 173 126 85 
254 503 292 126 126 134 
178 457 345 59 85 113 
298 88 241 91 79 67 
251 618 230 58 83 105 
65 437 332 139 141 149 
115 269 328 123 27 57 
322 239 302 94 133 165 
211 450 204 59 93 120 
86 557 261 89 111 140 
312 155 256 149 139 137 
350 685 326 127 150 174 
178 666 199 84 139 185 
250 199 347 89 45 74 
197 268 242 97 112 128 
75 566 356 185 159 131 
95 449 354 153 127 98 
343 60 222 141 125 110 
76 382 264 80 99 120 
145 887 268 153 97 75 
72 359 317 103 99 116 
331 592 289 74 101 125 
197 855 330 153 113 94 
55 396 284 150 3 61 
276 138 242 152 74 0 
232 533 210 97 124 181 
136 746 206 141 60 63 
140 576 362 76 101 164 
257 401 378 121 136 154 
146 889 288 115 86 63 
344 179 302 107 57 42 
178 966 305 99 80 67 
299 690 310 126 51 57 
189 340 216 125 54 69 
76 668 223 53 76 96 
173 836 270 147 108 81 
220 883 247 72 56 46 
139 386 205 83 103 122 
253 191 239 168 80 68 
165 587 365 85 138 177 
115 539 234 123 125 132 
333 642 337 35 61 139 
171 698 364 112 151 184 
127 677 324 98 67 94 
125 420 368 121 108 96 
254 191 239 170 84 75 
213 228 297 84 60 44 
131 257 244 105 82 70 
95 409 258 166 122 71 
291 338 323 146 104 126 
285 271 278 134 157 184 
244 813 232 233 171 135 
197 932 334 202 151 130 
37 637 194 78 101 126 
176 918 231 95 72 46 
54 744 238 42 84 171 
180 708 362 110 40 78 
223 356 233 114 123 136 
398 644 309 42 72 95 
291 597 244 110 123 138 
281 802 239 222 165 127 
262 463 377 143 157 177 
61 615 190 152 152 159 
142 898 292 86 69 56 
284 371 329 192 161 127 
73 613 256 77 103 126 
230 351 242 155 151 152 
218 220 280 96 73 71 
111 694 239 73 95 130 
147 271 303 64 86 106 
331 671 256 124 134 151 
17 646 228 105 124 144 
341 32 269 116 104 98 
235 889 289 149 103 82 
229 252 336 61 72 91 
209 219 272 81 71 80 
148 227 299 55 35 48 
203 207 239 71 59 69 
120 373 352 78 68 76 
205 207 239 97 65 62 
193 193 245 74 43 34 
135 374 342 113 118 130 
106 277 333 131 66 73 
239 463 252 160 161 169 
239 527 217 77 111 162 
192 194 245 64 46 24 
192 195 245 67 41 32 
280 430 357 205 207 219 
174 916 341 194 153 130 
183 833 287 159 121 96 
248 795 221 178 126 89 
260 181 238 119 52 73 
190 191 271 77 51 57 
95 322 336 122 62 73 
286 380 367 174 77 6 
235 505 209 135 137 144 
89 422 346 91 74 61 
289 227 347 115 106 103 
379 669 290 87 107 136 
256 810 266 211 150 118 
235 588 265 66 84 105 
149 287 315 115 115 120 
210 484 195 127 131 140 
255 535 293 149 142 140 
128 121 272 94 80 65 
171 571 218 131 157 187 
57 479 301 130 129 135 
193 199 243 77 56 42 
305 691 238 145 160 178 
242 128 265 117 57 11 
149 884 315 176 133 109 
291 652 318 122 150 178 
99 646 274 88 93 131 
192 848 330 155 118 96 
131 118 268 91 77 63 
214 752 330 201 176 153 
262 135 245 120 61 5 
190 948 230 85 70 54 
205 141 262 101 60 55 
255 532 288 121 126 136 
282 676 322 66 77 120 
138 415 334 82 88 118 
255 866 312 160 131 106 
115 482 217 99 114 135 
228 948 275 110 89 70 
144 438 331 95 105 122 
167 853 273 144 111 84 
66 321 262 128 65 65 
274 125 316 124 55 3 
273 237 359 68 93 116 
199 13 286 136 115 94 
43 723 211 205 202 219 
139 432 337 59 75 117 
200 877 222 84 64 49 
92 423 344 82 68 61 
241 465 257 114 127 146 
239 219 357 77 74 68 
83 394 340 128 131 140 
133 452 350 130 128 134 
166 562 192 214 210 223 
126 565 251 91 97 107 
279 123 360 140 75 7 
243 205 367 110 56 69 
242 276 267 120 132 148 
266 220 372 110 51 72 
182 244 278 93 92 94 
196 986 259 133 106 78 
226 269 260 134 132 134 
362 704 320 173 64 74 
349 742 291 137 129 130 
156 671 197 180 177 183 
231 879 288 118 73 49 
217 870 255 87 65 52 
105 411 362 163 139 118 
335 90 241 150 118 94 
101 508 372 136 121 106 
199 197 245 75 52 53 
285 721 328 149 128 113 
241 213 300 94 34 60 
126 289 331 139 138 143 
276 589 249 60 97 127 
192 201 241 74 51 49 
198 838 231 187 127 84 
23 670 255 56 106 169 
280 730 228 138 123 111 
108 686 194 88 134 169 
166 945 241 94 77 62 
67 321 276 109 72 82 
33 720 234 111 126 202 
257 520 300 113 122 135 
197 624 222 69 57 73 
104 558 253 88 106 129 
225 884 252 76 60 48 
32 665 261 57 34 87 
196 735 341 166 141 119 
287 615 235 116 131 150 
152 738 202 205 159 97 
129 250 318 65 19 24 
250 380 385 153 138 133 
212 802 290 206 140 121 
41 646 190 87 114 138 
250 115 262 123 112 102 
268 714 349 182 151 123 
192 205 240 106 44 34 
330 626 346 42 68 126 
213 971 265 127 97 71 
269 381 304 168 148 127 
125 630 197 122 142 198 
264 376 294 161 148 143 
214 967 266 125 96 68 
188 636 366 64 94 123 
72 293 309 90 100 113 
72 297 310 58 72 99 
207 598 360 129 86 88 
67 642 284 157 111 92 
327 92 227 172 138 117 
219 125 260 110 61 5 
128 708 277 83 117 145 
50 740 234 25 70 182 
338 179 293 143 60 35 
72 328 265 100 71 99 
348 72 248 149 116 98 
275 393 342 134 118 107 
261 150 361 80 65 77 
387 678 298 126 139 182 
106 337 334 69 60 62 
166 963 230 162 125 84 
364 708 316 109 54 69 
67 451 340 132 26 53 
360 37 270 176 163 159 
327 183 319 126 61 60 
159 442 189 78 108 143 
30 662 262 122 137 175 
169 446 333 78 98 128 
155 148 256 110 103 99 
198 200 245 63 65 72 
356 622 267 105 127 155 
157 278 225 131 129 130 
131 441 349 84 100 126 
201 489 359 76 90 113 
164 278 309 93 92 94 
140 614 358 156 169 190 
257 466 296 131 142 158 
185 291 317 124 125 131 
320 763 258 186 175 170 
274 138 363 46 72 100 
151 608 362 129 161 196 
264 278 279 85 135 178 
154 260 231 88 112 134 
181 248 282 91 91 94 
202 528 364 75 100 131 
129 446 352 97 102 126 
279 658 332 96 128 164 
238 217 367 148 130 110 
79 477 358 139 37 52 
163 541 221 83 88 96 
127 751 310 113 88 88 
181 425 337 64 83 123 
194 36 293 137 105 83 
202 192 244 87 50 45 
228 614 361 99 65 58 
202 193 244 88 45 38 
132 575 364 92 109 147 
145 697 354 117 141 166 
134 114 292 103 86 68 
170 357 304 49 75 97 
148 741 204 92 10 55 
121 482 209 93 113 142 
208 24 314 140 109 90 
92 579 358 136 153 195 
250 236 334 100 100 104 
225 887 260 65 51 43 
237 265 265 114 117 125 
252 215 321 61 79 93 
294 562 319 111 99 90 
132 573 234 71 86 102 
161 461 326 56 72 87 
94 688 231 122 123 131 
187 350 215 81 103 125 
253 167 288 89 34 45 
370 712 301 98 69 89 
289 120 326 85 78 73 
337 628 351 164 178 211 
205 235 291 87 69 48 
165 867 265 107 86 63 
242 196 287 74 75 97 
200 199 244 88 49 39 
200 199 245 86 47 48 
263 718 220 116 28 39 
201 12 316 119 97 85 
71 654 191 88 148 194 
191 596 367 191 181 181 
93 419 344 82 75 71 
325 102 269 118 99 81 
86 274 256 108 102 96 
112 568 193 116 134 153 
172 367 303 44 68 88 
292 278 361 162 20 75 
112 296 332 57 58 66 
73 586 326 96 115 157 
170 69 308 124 96 73 
68 321 263 120 56 48 
237 129 263 118 53 10 
185 126 273 107 70 22 
125 393 220 71 94 120 
159 947 317 101 82 70 
70 553 293 77 96 150 
112 594 359 113 134 194 
61 386 300 146 82 78 
67 307 309 100 70 61 
163 603 363 123 147 175 
54 660 263 151 101 82 
202 743 210 91 79 68 
313 138 249 156 129 94 
84 468 263 77 100 123 
172 768 214 214 170 111 
105 511 226 119 129 146 
169 731 349 122 97 134 
204 196 243 95 44 20 
204 120 261 114 81 53 
140 896 275 106 67 48 
205 197 243 97 44 21 
204 198 243 96 45 21 
118 412 229 112 122 136 
336 48 226 130 114 97 
180 880 215 115 102 92 
102 672 193 78 122 170 
267 649 219 103 121 145 
307 803 268 235 162 133 
224 565 254 84 112 139 
207 196 243 93 38 25 
226 504 375 114 138 165 
213 927 235 106 81 56 
291 668 318 134 35 49 
323 618 251 136 145 161 
332 144 279 135 134 139 
329 49 263 89 74 60 
15 674 240 117 142 168 
263 559 315 89 81 80 
327 590 312 91 83 76 
259 569 298 94 89 87 
130 694 288 116 134 155 
310 134 245 130 118 108 
290 707 319 110 99 101 
96 523 370 163 140 119 
271 424 343 125 130 140 
84 686 192 143 170 205 
172 811 232 192 136 100 
189 644 368 141 159 181 
262 154 334 63 39 49 
305 799 255 221 157 126 
109 585 361 56 95 175 
102 510 372 133 116 106 
269 812 259 227 170 139 
218 800 291 214 141 124 
220 809 282 197 128 108 
202 200 242 103 41 26 
283 344 368 174 144 110 
275 154 239 126 92 84 
232 520 203 148 155 171 
153 951 265 88 61 47 
199 251 315 97 108 122 
110 575 262 71 86 105 
152 293 221 97 114 132 
203 202 241 105 54 24 
25 641 224 82 94 107 
69 708 196 141 174 215 
203 842 297 161 119 87 
200 204 240 56 59 68 
216 258 258 136 132 133 
116 630 347 110 116 157 
297 168 335 102 100 105 
200 206 240 46 59 75 
224 489 202 124 132 145 
120 453 218 78 104 130 
225 426 225 124 133 147 
298 85 228 100 84 70 
109 506 373 133 84 57 
72 353 273 111 27 46 
241 309 389 170 145 120 
138 161 300 114 89 61 
363 684 328 158 182 210 
129 126 291 101 85 69 
71 573 346 144 13 46 
269 408 314 148 156 171 
148 875 280 158 112 88 
285 718 329 148 131 118 
242 472 378 164 173 191 
205 202 241 100 50 16 
87 422 351 112 62 48 
232 289 261 89 119 145 
174 448 338 58 81 107 
74 462 352 169 139 105 
246 220 371 142 141 145 
206 200 242 101 43 23 
155 647 353 105 117 159 
206 202 240 102 45 27 
177 873 345 138 110 86 
72 487 355 146 11 50 
229 649 360 165 110 60 
207 203 240 107 42 28 
11 671 197 177 161 155 
77 757 265 163 175 193 
226 580 254 60 82 101 
107 595 260 89 99 112 
204 206 240 90 53 44 
175 865 248 83 66 49 
55 732 213 204 193 220 
160 82 268 130 94 61 
188 137 272 91 79 71 
270 435 341 175 170 173 
141 488 355 97 109 133 
226 238 261 136 155 177 
75 763 232 197 77 80 
131 410 360 61 77 105 
89 605 240 80 95 111 
120 768 214 130 117 113 
78 267 310 86 74 64 
88 663 193 147 152 165 
152 470 189 93 120 162 
141 669 196 89 123 174 
87 527 364 156 62 12 
267 124 354 136 64 9 
216 905 322 176 133 107 
276 697 223 175 46 48 
222 750 213 76 69 65 
342 752 281 189 165 148 
267 248 270 110 135 173 
273 737 224 134 107 75 
195 209 238 129 44 30 
182 406 201 27 74 111 
128 559 205 87 114 140 
230 269 349 103 105 110 
209 477 354 44 70 94 
147 753 315 162 126 115 
125 364 228 128 128 133 
206 571 364 123 142 171 
40 631 256 113 110 111 
273 234 260 182 4 79 
112 434 238 74 101 128 
193 213 239 171 48 1 
164 569 201 198 196 205 
181 839 304 113 87 58 
228 260 340 108 109 113 
114 708 249 80 93 121 
227 358 236 135 139 150 
253 342 269 125 140 159 
249 386 386 114 124 156 
164 920 236 88 67 50 
139 920 277 73 61 51 
311 250 347 169 163 165 
226 245 329 74 90 106 
275 456 364 142 155 175 
167 965 275 103 76 46 
49 625 252 65 83 102 
311 79 260 86 73 61 
339 595 287 59 92 119 
364 710 279 84 63 114 
66 643 283 158 112 91 
261 249 373 144 144 150 
153 148 276 66 54 41 
187 609 233 54 69 84 
71 380 326 93 49 69 
92 655 195 173 174 184 
51 740 240 65 92 161 
223 298 354 101 56 11 
158 548 190 143 147 156 
297 100 231 76 64 53 
61 289 260 120 105 93 
121 606 197 108 139 172 
225 158 268 83 71 81 
255 506 294 101 113 129 
148 899 321 157 121 97 
26 644 198 77 90 105 
119 590 202 72 111 144 
228 182 273 102 62 71 
249 506 257 126 139 157 
310 721 244 111 93 77 
276 594 245 77 102 123 
70 646 284 162 113 94 
55 302 257 178 82 26 
270 368 301 154 112 86 
244 502 235 99 120 143 
159 260 296 63 78 94 
179 485 186 125 140 164 
200 210 239 56 50 63 
143 466 344 95 106 127 
114 355 246 80 111 137 
201 211 239 52 58 82 
186 290 226 114 124 137 
83 747 271 124 140 159 
363 638 272 183 185 199 
316 68 243 89 78 67 
215 315 329 75 94 118 
343 666 329 121 145 171 
287 134 340 136 59 3 
303 115 232 191 140 107 
127 688 280 90 110 133 
263 669 356 183 108 56 
213 595 359 155 153 159 
279 634 227 136 138 147 
204 789 225 133 100 60 
269 115 262 120 96 76 
148 780 218 177 152 132 
95 410 342 61 70 80 
62 514 295 141 151 166 
143 545 367 137 151 170 
278 142 309 109 28 24 
80 274 329 112 94 105 
299 88 247 86 75 65 
204 704 206 162 183 207 
206 209 239 93 63 76 
148 603 205 147 148 156 
225 923 244 83 64 53 
194 214 240 181 44 0 
194 215 240 183 46 0 
155 378 308 71 89 109 
237 268 381 72 107 136 
185 451 347 139 146 159 
183 142 275 71 69 70 
261 228 375 144 144 150 
69 341 269 151 53 47 
264 488 362 127 150 181 
304 763 308 156 144 137 
57 428 292 125 143 165 
273 227 367 87 117 142 
32 707 248 72 52 137 
74 587 339 137 158 202 
197 369 213 70 101 130 
250 516 344 122 141 167 
282 428 359 104 129 175 
157 118 295 118 88 69 
192 219 241 184 52 28 
148 366 207 141 112 81 
191 510 368 81 108 145 
58 379 277 75 97 132 
59 502 298 77 117 149 
100 279 324 93 75 82 
302 139 318 126 95 74 
237 540 221 111 148 186 
204 676 203 168 167 178 
301 633 313 105 126 148 
213 643 372 98 100 136 
174 959 317 116 98 84 
300 678 233 70 102 140 
224 383 381 106 133 159 
148 620 211 140 156 192 
120 561 248 75 93 113 
333 654 259 125 137 155 
159 473 188 116 128 146 
195 418 205 83 108 132 
183 949 328 103 82 68 
260 209 326 85 39 30 
212 173 269 53 74 91 
274 114 268 105 89 76 
247 223 316 85 62 62 
159 885 257 93 74 53 
158 465 188 138 146 161 
118 644 243 70 98 140 
264 198 325 98 16 32 
164 793 289 110 113 120 
243 806 226 221 156 118 
177 72 298 105 81 60 
109 285 336 136 66 69 
354 34 231 127 112 97 
17 646 217 101 103 107 
187 579 365 124 147 173 
372 630 314 88 77 66 
157 327 329 128 77 98 
309 596 252 58 90 118 
18 654 196 88 105 126 
114 474 220 141 141 147 
154 937 248 156 122 86 
199 126 264 107 63 5 
209 562 364 102 117 141 
204 352 220 107 120 135 
73 344 324 106 63 60 
220 465 207 87 106 124 
106 646 346 163 114 113 
243 707 352 158 138 121 
198 216 240 175 66 29 
203 594 233 145 143 147 
240 315 260 123 114 113 
219 744 334 107 132 157 
220 785 225 139 101 59 
68 492 277 28 71 107 
163 369 304 50 76 99 
199 218 241 176 81 54 
198 218 242 180 82 42 
72 567 307 137 149 167 
148 757 311 164 145 136 
176 711 361 111 93 98 
52 695 244 108 116 128 
342 50 263 117 93 65 
215 489 196 143 141 144 
197 220 243 161 19 46 
273 116 314 115 55 7 
313 170 268 123 118 121 
318 622 249 91 99 129 
280 635 227 103 115 131 
171 610 218 172 173 186 
216 321 334 123 123 128 
187 476 188 163 159 161 
254 511 283 149 150 158 
188 771 315 212 185 161 
101 631 236 62 81 105 
82 266 265 102 91 80 
84 584 211 101 118 137 
231 387 238 93 113 135 
176 849 330 134 107 82 
252 820 246 246 181 145 
318 590 301 72 79 87 
248 431 266 124 137 156 
129 400 354 45 70 109 
342 125 294 113 95 77 
122 563 250 70 85 101 
138 737 320 120 52 46 
135 409 203 66 101 130 
400 653 315 190 199 218 
180 519 196 63 96 158 
344 152 295 105 52 57 
201 214 240 62 53 50 
235 924 277 82 69 57 
168 564 195 183 184 199 
157 976 247 169 139 115 
147 400 198 53 93 125 
64 395 280 139 86 104 
123 646 265 108 115 152 
223 881 254 76 57 48 
100 367 342 65 77 89 
318 174 276 152 101 82 
205 208 240 103 63 59 
124 801 267 187 167 151 
115 353 245 79 109 136 
294 702 315 76 64 85 
286 166 245 167 110 95 
277 247 362 85 58 56 
364 667 338 136 161 207 
185 659 367 131 155 180 
149 881 315 168 125 101 
160 93 272 121 92 54 
224 740 212 108 85 58 
207 210 240 107 51 40 
207 211 240 111 70 75 
160 940 325 136 104 90 
388 669 296 72 99 144 
308 643 241 35 68 112 
124 802 264 201 177 159 
388 654 291 107 132 174 
156 336 326 126 83 101 
158 876 273 108 81 43 
206 347 324 66 86 119 
88 626 315 206 205 212 
287 587 322 109 77 64 
231 533 369 45 76 105 
225 892 257 69 57 46 
115 611 195 114 146 182 
296 600 347 48 74 103 
48 614 212 99 117 136 
113 667 230 80 96 131 
173 976 286 144 105 76 
221 946 294 84 66 53 
358 624 301 66 67 69 
270 121 354 136 73 7 
269 427 322 185 178 180 
162 949 240 83 59 35 
130 574 233 78 94 112 
87 293 324 71 65 73 
353 614 309 91 80 71 
182 951 232 78 64 48 
213 910 327 173 132 105 
229 493 378 103 131 175 
236 809 228 220 155 114 
201 218 242 131 46 36 
254 668 361 181 135 76 
256 236 265 129 145 175 
62 415 285 136 146 172 
165 759 318 189 163 137 
344 143 292 121 121 124 
300 758 312 94 123 149 
44 705 198 89 164 216 
344 744 297 145 127 116 
217 351 380 131 115 109 
281 170 243 119 99 120 
274 123 251 138 119 106 
201 701 355 187 91 35 
21 651 245 123 142 166 
103 618 343 101 122 189 
202 220 243 145 36 64 
242 383 388 137 151 169 
52 611 219 103 121 140 
161 268 301 84 82 85 
264 706 352 160 144 136 
95 589 355 113 142 201 
321 153 312 58 59 68 
195 839 297 114 88 61 
291 182 254 120 124 138 
145 901 248 82 52 43 
95 580 211 110 123 140 
200 223 246 139 118 139 
74 574 307 159 164 177 
93 450 352 131 94 65 
299 169 323 93 84 93 
111 340 336 90 85 90 
312 728 246 78 94 112 
203 221 245 171 0 64 
169 201 279 36 31 39 
264 470 375 87 119 167 
232 384 383 115 138 166 
112 715 255 90 94 118 
340 84 254 146 116 90 
198 807 288 179 119 98 
76 659 222 47 70 91 
353 727 275 136 103 59 
197 547 193 98 119 188 
138 463 349 96 110 133 
371 629 322 104 88 71 
75 569 294 145 139 139 
196 34 296 130 101 84 
134 727 301 91 124 151 
122 700 249 73 84 119 
72 277 308 115 66 21 
205 219 243 130 45 59 
182 282 319 116 117 124 
223 169 269 90 61 54 
75 658 192 165 166 173 
198 11 314 125 107 96 
87 604 305 108 125 153 
167 329 318 129 100 68 
232 935 265 108 85 66 
78 687 233 59 69 87 
238 256 377 148 149 156 
87 408 352 141 140 146 
190 211 272 71 50 42 
147 623 357 155 168 190 
270 459 354 86 115 154 
71 566 311 83 89 130 
285 749 323 140 124 117 
296 286 288 114 137 164 
302 637 237 51 88 137 
101 605 348 195 203 226 
73 762 234 154 158 169 
71 301 327 79 65 71 
324 695 309 133 33 54 
59 493 321 176 150 120 
378 662 289 75 104 160 
63 727 253 150 154 171 
204 223 246 143 78 98 
247 523 348 91 123 162 
370 687 326 175 193 218 
284 756 316 168 117 89 
63 398 314 83 111 131 
37 631 200 108 108 113 
342 754 290 158 128 97 
188 829 234 182 131 97 
23 695 200 65 139 196 
280 764 309 197 133 106 
156 797 280 155 146 145 
194 865 221 106 85 71 
219 910 315 154 117 91 
232 911 304 116 94 71 
243 158 276 48 50 64 
252 512 336 166 163 169 
262 289 277 76 110 139 
194 859 222 135 108 85 
173 877 340 169 121 104 
344 603 320 114 95 74 
145 563 238 80 87 97 
262 150 286 23 36 65 
147 507 353 78 86 97 
133 199 309 133 54 6 
159 516 363 89 108 131 
211 386 221 86 109 133 
160 419 192 104 117 138 
337 85 259 131 103 81 
139 160 299 115 89 62 
49 725 245 106 124 159 
235 472 230 65 97 131 
102 603 353 115 145 204 
172 230 279 65 51 53 
140 770 299 156 137 125 
303 203 266 109 110 117 
301 192 326 120 65 51 
268 565 305 108 99 94 
98 274 319 80 72 77 
188 442 196 83 106 131 
198 243 296 75 72 75 
322 752 305 204 166 121 
244 713 352 179 144 114 
338 654 330 128 151 176 
254 598 335 58 49 43 
293 771 301 198 144 111 
319 93 213 185 131 108 
222 338 233 88 56 26 
158 430 190 105 122 142 
190 744 335 186 161 140 
120 799 270 189 163 141 
100 363 338 57 68 79 
166 529 370 124 145 170 
228 472 373 110 130 159 
202 367 340 25 57 103 
171 565 366 118 125 140 
211 199 241 110 40 24 
159 738 203 124 58 54 
96 626 328 97 112 168 
376 640 336 102 129 177 
192 867 335 191 140 118 
118 411 365 111 102 104 
172 778 218 198 160 118 
204 926 231 76 57 39 
246 649 213 143 145 154 
240 248 334 64 82 98 
332 222 325 158 35 87 
258 564 307 65 62 63 
339 753 297 183 154 127 
297 613 350 113 128 181 
303 596 332 80 73 71 
131 802 267 232 186 131 
256 597 331 55 48 42 
296 253 276 123 49 39 
226 289 375 111 125 141 
114 272 328 124 38 64 
213 197 241 75 50 40 
179 973 229 101 69 43 
132 723 290 107 109 122 
63 321 307 111 72 76 
214 882 325 176 129 102 
300 778 241 144 110 76 
133 346 221 125 126 131 
329 49 230 135 112 96 
255 580 285 89 83 78 
247 227 318 110 106 107 
241 482 241 156 156 164 
71 412 276 102 90 101 
246 612 238 87 112 136 
164 685 366 141 176 209 
324 700 310 111 23 42 
28 706 208 185 179 184 
244 271 385 83 115 143 
189 486 365 81 107 141 
279 655 321 108 140 171 
150 127 297 117 89 65 
239 712 350 140 115 94 
157 83 267 127 90 59 
62 459 294 117 89 51 
248 502 255 99 115 133 
168 232 280 68 44 45 
116 565 368 118 146 186 
145 409 323 52 73 114 
359 719 310 187 81 80 
96 404 257 158 111 45 
279 301 290 151 161 184 
159 880 327 173 130 110 
207 333 320 78 96 117 
372 623 281 109 119 133 
183 261 308 57 73 95 
66 468 340 134 14 48 
196 491 188 162 161 168 
71 396 322 94 71 90 
161 786 221 189 147 101 
119 378 233 137 135 138 
96 787 263 181 68 107 
109 640 250 71 86 113 
203 689 358 175 82 65 
257 176 340 81 35 58 
205 865 330 163 124 95 
169 417 308 54 71 86 
127 630 199 128 148 210 
210 204 241 117 45 43 
168 446 331 68 85 116 
57 489 314 181 160 142 
315 263 333 138 140 147 
337 597 270 123 129 139 
347 26 276 156 142 138 
161 896 331 77 62 55 
175 580 366 96 99 119 
277 644 329 104 141 174 
258 486 310 148 149 157 
204 334 222 130 67 67 
306 281 309 167 163 167 
234 901 281 175 114 77 
294 175 340 54 97 127 
218 787 302 215 149 130 
273 367 372 177 67 5 
131 700 286 122 134 149 
345 78 247 157 120 98 
126 776 291 80 76 83 
306 640 240 45 81 115 
91 709 249 82 88 96 
129 380 217 83 100 119 
328 700 253 159 33 39 
217 471 201 143 148 157 
221 258 260 130 127 127 
170 849 266 141 109 81 
187 313 220 110 118 127 
357 622 340 32 46 100 
236 538 218 121 144 174 
210 267 252 89 109 132 
277 387 338 181 80 8 
171 137 273 107 57 16 
120 301 243 169 163 165 
374 36 253 156 142 133 
192 597 367 192 183 184 
165 174 285 90 47 50 
214 204 240 108 46 19 
364 54 246 151 102 95 
312 743 245 162 151 145 
237 452 382 179 182 193 
92 459 355 103 109 119 
87 610 324 190 201 220 
131 460 354 103 115 132 
184 569 218 167 179 198 
135 588 360 92 115 159 
308 685 239 102 112 125 
186 555 363 94 126 165 
118 677 236 129 132 141 
115 729 268 94 110 128 
306 259 353 128 139 156 
85 755 218 183 122 141 
33 709 248 76 64 137 
217 194 242 55 40 53 
105 372 251 132 131 135 
103 668 224 107 118 137 
272 367 372 178 68 5 
260 468 378 181 182 192 
222 934 303 120 97 84 
183 666 365 117 140 165 
8 674 222 143 147 169 
208 353 339 33 64 103 
54 332 273 65 101 129 
86 456 264 83 103 124 
298 599 336 47 68 91 
103 454 248 68 97 122 
203 923 334 184 138 110 
146 941 268 84 69 61 
147 410 195 38 82 117 
196 903 338 126 104 81 
146 198 299 52 38 44 
191 893 219 55 42 38 
296 642 234 51 93 133 
336 638 338 59 58 131 
272 397 370 134 106 91 
41 672 257 115 128 180 
126 708 199 85 111 133 
66 545 342 182 88 7 
251 813 264 207 148 117 
327 31 253 88 82 79 
145 222 305 84 35 49 
219 199 242 61 45 53 
133 663 262 136 137 150 
150 950 291 90 72 63 
270 412 343 124 41 61 
251 528 252 101 120 142 
6 668 203 150 149 155 
116 533 228 112 114 121 
155 810 254 105 128 150 
293 181 339 53 89 116 
250 691 358 118 120 136 
223 291 372 81 94 106 
153 574 205 103 158 203 
308 652 307 120 143 168 
328 103 260 132 105 78 
232 499 208 118 125 136 
251 161 360 98 45 39 
222 428 220 90 109 131 
222 194 241 42 52 75 
192 560 200 134 159 197 
214 906 324 174 135 108 
374 630 318 98 83 68 
147 454 331 86 99 116 
274 168 240 74 101 129 
276 409 334 161 25 78 
220 197 242 54 48 51 
143 365 331 66 81 118 
221 197 242 55 48 51 
374 692 284 140 149 163 
202 456 353 82 96 140 
66 339 266 158 67 55 
106 284 250 182 112 58 
134 556 366 109 121 172 
222 197 242 58 46 55 
353 66 244 152 115 106 
200 983 253 166 142 121 
200 579 365 120 137 158 
199 356 315 87 107 129 
189 418 343 75 98 129 
273 746 329 194 156 120 
102 726 262 90 102 117 
113 404 240 111 121 136 
216 200 241 89 39 49 
307 602 349 31 68 109 
189 282 316 122 123 129 
163 258 233 87 112 137 
117 466 372 161 142 123 
342 64 223 150 137 128 
67 306 258 133 130 135 
163 953 315 81 67 61 
177 882 232 74 61 50 
157 895 242 125 100 76 
260 397 288 87 111 150 
70 271 326 71 56 68 
198 958 232 133 98 52 
185 306 220 111 40 35 
330 89 231 175 139 117 
230 786 302 216 152 129 
252 228 335 50 53 58 
179 561 196 155 176 203 
150 871 301 147 109 82 
125 647 200 121 128 139 
269 421 350 61 83 123 
176 507 363 104 119 136 
76 666 192 169 168 174 
251 766 317 212 152 120 
185 616 233 57 86 113 
294 633 234 132 142 156 
173 899 338 136 107 83 
342 636 347 110 133 187 
169 869 257 100 78 55 
258 640 355 175 148 121 
200 400 352 76 93 114 
20 648 239 66 93 135 
219 204 241 125 31 23 
16 646 228 109 125 145 
120 354 346 110 127 146 
303 225 272 162 93 93 
192 882 216 89 72 59 
140 263 236 130 127 128 
335 648 331 96 116 145 
206 935 235 146 114 86 
259 497 304 124 134 151 
366 707 281 123 31 86 
143 140 262 96 79 62 
169 200 279 39 32 39 
185 907 343 166 131 103 
120 449 219 62 93 124 
230 802 288 201 135 116 
225 525 373 106 130 176 
121 403 223 71 99 127 
255 324 272 153 150 153 
268 115 278 89 81 75 
116 722 263 107 117 131 
224 169 269 94 61 59 
107 651 224 61 85 115 
183 791 222 95 101 110 
106 594 240 86 106 127 
227 408 378 101 122 163 
87 584 353 125 146 203 
251 516 370 138 154 184 
222 835 238 202 153 115 
49 624 245 65 69 84 
61 387 278 134 75 79 
110 591 248 67 90 115 
214 601 359 166 128 117 
158 812 247 160 119 84 
129 581 254 69 75 83 
145 715 351 106 151 186 
81 544 267 77 94 123 
177 228 277 72 47 54 
196 301 316 119 123 132 
190 661 367 87 86 101 
310 158 312 51 68 82 
223 205 242 148 45 51 
102 473 371 172 101 62 
273 352 301 199 162 112 
73 305 279 111 70 35 
316 76 210 149 130 114 
184 417 339 94 112 134 
77 499 360 165 131 87 
131 135 260 123 95 60 
210 931 325 158 120 95 
195 815 228 183 130 89 
208 210 240 121 57 36 
275 409 336 161 26 85 
180 897 340 167 127 104 
197 380 335 46 69 106 
137 780 290 190 163 139 
221 280 341 115 116 121 
220 302 244 129 128 132 
344 604 270 147 149 156 
179 520 370 120 140 163 
222 746 212 213 187 168 
166 921 338 184 139 118 
201 734 208 83 100 116 
292 622 323 96 118 141 
83 611 268 83 109 134 
38 630 226 76 99 124 
16 685 199 183 178 183 
142 630 355 86 90 111 
209 824 283 170 121 93 
160 506 191 188 188 197 
208 214 241 103 69 107 
208 215 241 109 62 101 
218 315 354 80 98 116 
94 325 328 115 66 66 
205 937 237 140 106 67 
223 765 320 213 157 132 
336 74 223 100 80 55 
214 939 314 134 103 87 
210 213 241 157 61 57 
93 777 238 168 33 48 
227 508 376 137 158 189 
147 892 257 109 70 54 
342 604 329 117 95 70 
326 767 263 157 146 141 
222 801 290 210 141 122 
139 925 277 88 69 56 
120 799 251 208 182 158 
205 832 287 164 118 89 
259 159 290 59 26 34 
170 848 270 142 109 82 
189 158 269 83 78 78 
236 819 267 186 134 110 
133 467 197 92 115 145 
120 580 197 99 157 201 
254 144 349 80 32 32 
145 126 300 115 90 64 
250 297 268 113 136 159 
195 248 283 74 86 101 
208 587 360 193 156 146 
284 806 275 220 165 138 
197 785 221 122 102 84 
271 415 322 146 155 172 
234 179 276 116 61 63 
272 635 348 91 81 82 
260 195 309 73 26 36 
90 780 249 182 35 51 
327 38 243 102 87 76 
213 339 363 34 76 111 
270 429 373 89 117 156 
136 570 246 106 101 99 
337 88 257 139 109 85 
143 928 267 87 73 62 
338 204 316 46 78 110 
347 605 269 131 137 147 
153 341 329 125 67 83 
151 943 308 110 86 71 
223 355 232 118 125 135 
191 728 208 110 88 60 
241 361 257 166 162 164 
254 505 294 122 126 135 
202 787 223 135 97 61 
210 680 358 178 84 30 
154 123 276 111 87 64 
136 333 222 135 133 137 
285 614 338 106 122 160 
173 865 251 97 76 53 
214 214 243 193 40 17 
103 640 192 186 189 204 
367 714 303 204 86 93 
180 510 187 121 130 175 
276 595 320 46 59 71 
218 572 248 112 122 137 
75 375 334 58 88 110 
113 624 350 126 143 193 
150 703 198 144 177 212 
138 797 236 184 157 131 
255 763 218 93 84 76 
164 336 317 102 90 86 
344 603 319 113 94 75 
85 379 257 139 140 149 
285 211 255 143 109 107 
209 231 301 78 75 73 
170 727 352 126 111 115 
72 389 321 137 75 97 
139 922 277 87 73 59 
161 957 304 87 74 67 
150 723 351 138 74 129 
215 366 226 85 105 128 
146 676 196 166 169 184 
66 471 284 148 142 143 
165 743 205 232 200 169 
105 544 243 131 127 127 
238 829 254 223 170 136 
173 906 228 70 55 41 
281 572 290 76 69 64 
302 743 240 142 126 114 
286 198 352 138 107 96 
224 295 356 123 65 0 
157 106 273 115 89 58 
183 809 227 214 147 108 
68 732 258 137 149 172 
188 986 264 96 70 48 
223 948 286 88 69 56 
193 11 315 125 110 101 
208 222 247 163 41 80 
250 607 242 79 106 130 
195 660 372 93 101 113 
159 559 369 86 118 163 
70 614 189 153 158 170 
356 613 288 101 118 137 
223 882 300 152 111 81 
346 11 253 67 64 63 
168 750 329 219 203 194 
317 692 246 150 159 173 
171 364 207 116 123 133 
200 339 313 94 106 123 
174 539 373 129 153 183 
24 693 245 73 117 166 
202 368 217 84 108 135 
188 963 314 112 91 72 
123 780 289 108 112 123 
107 318 335 75 31 45 
167 755 209 54 39 39 
244 317 263 92 63 62 
181 539 365 113 123 141 
82 505 256 48 80 113 
62 473 335 133 122 136 
104 792 261 112 121 133 
118 408 364 107 128 149 
170 534 197 66 102 136 
256 782 219 142 107 69 
213 219 246 138 68 94 
284 122 336 116 104 93 
247 423 385 91 120 166 
61 348 267 169 45 65 
202 972 278 126 100 73 
165 104 293 110 82 63 
88 406 351 150 149 155 
148 356 326 108 115 128 
130 209 307 95 59 55 
292 736 234 102 83 62 
229 911 257 69 57 50 
310 238 341 86 71 78 
64 521 284 72 94 132 
174 325 314 103 94 89 
332 599 258 120 126 137 
233 405 239 134 139 149 
339 740 267 165 133 100 
72 471 342 169 135 94 
204 813 227 154 116 77 
153 805 238 139 122 119 
198 820 228 169 122 83 
107 779 220 208 171 130 
145 918 312 134 105 86 
235 201 282 50 81 104 
208 223 248 134 113 133 
364 643 275 174 180 201 
328 103 251 125 100 72 
233 706 211 173 42 51 
184 872 341 118 70 63 
303 703 305 38 26 51 
187 899 338 123 95 69 
62 470 336 144 29 59 
182 744 337 165 136 124 
213 222 248 165 39 80 
128 649 266 145 146 154 
163 805 273 188 139 113 
130 428 360 58 76 99 
256 599 336 52 46 41 
80 576 292 125 129 142 
159 548 225 77 86 98 
198 411 208 50 87 122 
227 286 375 67 99 126 
279 439 359 83 106 172 
256 539 276 98 113 130 
250 193 348 76 49 48 
331 703 255 63 58 52 
216 208 241 177 47 44 
103 468 242 90 105 122 
250 269 270 131 140 157 
163 613 221 148 149 158 
63 539 328 181 62 0 
103 313 340 136 119 119 
202 472 193 144 144 149 
293 707 316 76 86 105 
176 479 349 122 130 144 
298 96 239 75 65 55 
125 731 285 100 118 137 
309 576 311 94 88 84 
352 692 325 162 93 104 
226 417 228 105 117 132 
116 370 239 140 137 139 
297 150 333 130 75 73 
319 168 317 43 44 53 
136 473 195 112 127 149 
183 332 309 105 112 124 
138 358 344 125 90 49 
70 511 348 186 153 115 
69 450 279 106 91 115 
220 444 215 102 117 135 
256 275 381 124 134 147 
256 738 341 159 145 135 
69 684 241 61 71 95 
134 263 240 138 132 130 
211 299 321 128 129 135 
241 254 346 69 76 87 
82 521 363 196 162 124 
135 473 196 107 124 147 
131 128 293 100 84 67 
76 594 335 218 215 222 
235 488 376 113 137 181 
280 122 254 138 117 101 
83 647 285 158 105 90 
242 595 272 45 45 70 
266 677 354 167 50 49 
215 503 361 63 91 128 
113 618 194 83 113 152 
93 449 259 80 104 131 
368 644 340 127 143 178 
218 214 244 186 42 9 
256 508 317 134 140 152 
129 685 284 61 80 110 
133 734 303 106 108 126 
204 315 316 99 113 129 
235 922 286 106 84 65 
306 269 346 126 79 112 
123 655 349 185 138 128 
184 784 303 204 148 130 
383 641 299 53 76 95 
119 746 287 84 30 39 
207 382 358 103 108 121 
142 367 333 85 96 126 
70 300 327 78 64 70 
60 409 284 171 165 164 
106 648 196 153 170 200 
155 551 218 77 88 102 
125 766 299 151 118 98 
261 577 281 59 66 75 
124 652 282 66 78 133 
71 528 359 205 170 127 
217 458 361 64 69 104 
30 681 189 141 35 49 
149 511 198 56 87 163 
222 211 244 181 21 26 
223 211 244 180 30 35 
69 611 189 131 143 166 
220 213 244 183 15 27 
203 301 229 93 108 125 
261 130 275 120 54 5 
85 562 266 74 98 145 
95 674 223 84 100 130 
161 690 365 144 172 201 
204 376 353 74 96 123 
169 237 281 67 50 51 
151 217 296 50 32 50 
58 292 261 102 91 85 
296 294 292 140 153 172 
179 409 199 56 89 122 
123 358 231 142 138 139 
232 612 353 131 98 81 
222 843 247 200 150 115 
153 518 361 136 140 151 
92 601 234 82 99 117 
212 631 374 107 96 93 
137 507 361 93 113 143 
209 777 218 101 143 178 
167 575 365 62 99 129 
217 216 245 187 41 25 
105 573 263 113 114 119 
240 562 351 102 130 168 
196 681 368 144 93 64 
153 810 251 166 162 164 
197 13 330 132 99 81 
247 510 240 168 169 177 
164 661 352 37 46 70 
119 331 344 107 113 124 
251 549 317 76 97 117 
94 523 369 147 126 107 
280 216 349 111 15 55 
174 486 186 156 162 180 
75 763 230 155 160 176 
227 597 259 67 72 80 
242 433 251 108 126 146 
130 721 283 120 136 155 
342 709 319 168 114 102 
197 659 372 89 67 62 
216 220 247 158 19 60 
147 403 316 57 80 111 
205 347 321 76 95 121 
215 121 258 127 81 45 
76 513 262 99 113 129 
220 217 246 184 33 9 
343 42 265 125 99 69 
320 84 269 86 71 56 
184 836 322 120 92 69 
166 928 239 83 60 38 
209 387 219 86 107 129 
279 722 226 87 35 63 
180 65 297 100 78 55 
254 713 217 144 110 114 
197 711 352 161 154 153 
189 459 348 120 135 162 
148 877 304 146 108 80 
330 83 268 113 91 66 
161 969 235 132 102 75 
294 179 253 123 123 134 
367 17 274 135 122 113 
75 334 265 74 66 84 
258 423 377 74 107 154 
111 607 194 162 164 175 
259 736 341 175 171 174 
246 534 233 117 138 168 
153 925 244 103 81 58 
177 528 372 87 118 166 
144 511 354 92 102 120 
192 959 229 106 79 45 
111 575 214 95 110 131 
54 318 268 52 72 99 
217 222 250 120 104 118 
358 704 321 145 165 185 
169 565 368 162 168 181 
93 462 356 139 126 116 
218 221 249 170 34 62 
83 377 334 55 87 112 
121 257 248 85 43 69 
187 986 263 93 71 48 
287 273 371 138 135 136 
160 616 220 142 143 154 
