ply
format ascii 1.0
comment Created by CloudCompare v2.11.1 (Anoia)
comment Created 2/28/22 9:45 PM
obj_info Generated by CloudCompare!
element vertex 2028
property float x
property float y
property float z
property uchar red
property uchar green
property uchar blue
end_header
388 684 311 139 159 196 
161 62 257 127 99 63 
47 697 241 19 31 97 
247 497 253 104 121 141 
130 674 291 42 54 111 
296 129 322 99 89 83 
187 354 309 52 83 107 
339 602 310 84 79 76 
230 279 255 79 105 130 
134 709 294 124 134 152 
163 62 259 132 99 53 
203 307 371 129 113 100 
152 661 343 129 134 152 
116 656 230 84 102 130 
271 374 342 181 82 8 
293 294 318 136 153 174 
242 672 360 174 159 156 
172 538 373 130 157 188 
154 125 293 111 82 62 
86 417 347 105 89 72 
147 878 276 149 101 82 
326 125 288 116 105 95 
272 806 273 219 161 130 
161 457 329 60 74 91 
195 367 357 25 58 106 
166 384 198 88 112 134 
221 934 244 91 65 43 
242 725 217 145 123 102 
283 325 315 167 34 80 
177 755 211 125 119 119 
217 858 287 168 125 97 
223 166 273 87 80 80 
199 164 268 85 70 73 
171 852 269 137 107 81 
217 511 370 123 142 173 
85 299 325 65 63 74 
169 665 200 131 54 66 
274 195 258 156 84 85 
206 954 236 136 110 84 
350 615 308 81 76 74 
122 653 198 142 144 152 
193 261 236 139 135 134 
134 719 313 127 122 136 
221 874 303 153 113 83 
395 643 298 131 147 168 
240 575 352 154 113 115 
166 63 263 140 113 82 
324 15 271 97 87 81 
313 799 281 203 138 109 
178 664 202 101 138 170 
116 801 263 166 144 119 
213 836 285 167 119 92 
9 676 204 115 117 126 
164 56 265 118 97 72 
164 57 264 119 96 68 
114 554 244 99 110 125 
120 369 349 94 90 94 
220 749 214 136 122 112 
100 596 281 60 77 104 
165 56 267 121 98 71 
114 597 356 144 161 199 
206 432 207 47 86 118 
270 720 349 172 148 131 
232 732 216 85 121 150 
271 386 326 172 149 124 
271 786 295 210 151 116 
229 444 390 97 118 174 
293 124 313 101 89 81 
60 730 206 114 135 212 
335 595 319 102 88 75 
203 326 381 88 114 138 
183 642 209 120 110 106 
266 209 377 113 86 78 
166 59 266 137 111 82 
209 390 388 37 80 146 
201 564 210 125 133 182 
254 349 392 194 163 129 
297 249 367 155 152 156 
70 402 280 103 47 45 
262 816 242 236 174 140 
198 555 197 209 204 209 
76 582 314 116 125 162 
222 757 214 127 108 88 
336 151 284 142 142 148 
281 331 316 157 42 53 
194 231 278 108 104 103 
225 254 352 69 58 63 
111 368 250 147 142 142 
257 125 280 119 55 5 
331 146 306 115 113 112 
176 966 302 129 105 80 
198 853 225 105 94 84 
307 638 244 69 94 123 
184 802 227 208 141 101 
170 876 334 151 106 91 
157 493 190 149 166 191 
102 468 367 151 126 107 
62 516 299 51 81 133 
265 817 252 241 180 142 
89 734 204 218 206 215 
174 873 250 72 58 47 
356 44 266 155 139 129 
138 531 362 86 108 138 
101 289 333 99 83 101 
239 379 394 149 136 130 
316 734 310 155 136 120 
159 812 250 184 157 131 
287 175 354 75 109 137 
276 792 232 180 131 95 
265 325 288 109 127 148 
144 507 201 133 145 170 
143 605 359 127 144 175 
146 173 289 82 60 46 
234 217 372 104 72 77 
119 621 352 206 213 226 
250 292 271 99 125 153 
268 312 384 175 150 126 
200 345 335 34 63 100 
172 406 316 66 82 98 
199 975 278 133 103 78 
226 857 255 120 86 60 
236 933 279 125 99 70 
144 912 312 150 116 88 
226 886 251 71 54 39 
193 668 371 80 59 55 
225 218 366 155 135 116 
278 120 367 123 106 89 
176 889 231 71 58 45 
260 429 314 93 118 152 
374 694 288 145 160 179 
272 190 256 154 80 76 
314 618 350 127 148 183 
222 363 396 143 125 106 
201 591 363 145 141 143 
177 716 360 205 170 135 
188 744 336 225 183 135 
235 827 243 236 178 142 
168 63 267 131 105 76 
239 364 252 102 118 139 
249 136 280 92 92 93 
77 348 260 71 105 132 
161 514 195 146 158 186 
257 166 244 58 82 115 
269 193 374 89 90 100 
282 809 250 240 178 141 
142 803 243 198 168 141 
378 703 299 161 183 209 
319 185 322 103 43 50 
221 237 363 93 83 75 
186 938 238 128 94 65 
208 694 206 123 157 189 
82 322 328 72 57 69 
221 759 326 207 153 129 
249 413 384 77 113 148 
71 305 285 131 58 7 
331 200 311 60 48 61 
299 241 299 86 133 169 
343 664 334 120 146 173 
194 519 366 116 131 164 
377 652 289 196 191 195 
303 654 240 88 107 130 
275 363 340 193 165 138 
198 498 363 91 103 135 
92 323 328 111 57 64 
266 460 376 94 130 181 
354 713 277 126 27 20 
135 486 199 85 108 153 
209 220 284 108 58 60 
77 745 213 138 150 205 
162 973 259 76 50 37 
265 244 370 58 83 104 
216 880 242 76 55 43 
166 50 272 92 77 60 
233 240 382 106 111 120 
177 72 294 103 80 59 
274 629 345 89 72 91 
308 77 222 140 117 95 
323 587 294 73 98 122 
242 291 264 87 114 138 
196 284 317 113 108 110 
198 863 220 122 102 88 
272 153 246 130 89 72 
178 620 228 60 93 125 
343 753 290 185 162 142 
113 782 222 191 150 149 
348 720 319 152 144 147 
249 190 342 58 41 51 
224 461 212 61 86 110 
238 171 285 101 46 59 
332 750 309 182 156 133 
253 501 327 103 114 149 
303 654 239 103 117 136 
224 865 263 128 97 75 
258 592 333 107 77 64 
68 395 316 78 119 146 
234 584 355 116 96 80 
245 286 397 141 125 110 
169 49 277 104 91 78 
295 268 350 163 129 92 
254 811 235 236 172 138 
244 163 360 92 46 26 
393 640 325 74 66 59 
68 299 259 165 84 44 
116 717 199 123 135 151 
393 666 306 183 184 192 
168 436 330 47 65 86 
192 367 340 47 69 102 
278 189 367 124 80 79 
75 493 357 159 4 68 
299 808 277 228 162 135 
106 698 240 119 126 137 
245 721 353 183 151 118 
133 582 205 133 156 187 
70 702 193 138 134 139 
252 526 249 145 152 165 
111 263 247 128 43 64 
64 618 254 88 98 110 
192 753 211 128 103 98 
261 478 356 116 135 166 
253 501 371 100 125 172 
228 650 359 166 91 64 
251 546 324 89 110 132 
153 867 304 151 112 85 
223 570 359 111 92 94 
102 645 303 158 103 91 
115 582 193 155 117 152 
60 512 303 61 106 144 
333 702 261 92 86 80 
164 984 246 190 156 122 
124 334 336 66 86 106 
315 95 278 115 92 66 
221 794 228 148 111 72 
283 617 333 58 72 114 
321 26 252 117 109 103 
262 163 301 65 29 37 
128 652 251 102 115 145 
271 139 328 100 45 34 
249 420 275 78 112 149 
85 558 360 130 115 103 
295 665 233 112 121 138 
65 370 274 61 80 117 
300 258 308 87 125 156 
261 142 338 104 31 32 
171 53 276 112 95 79 
179 802 290 179 125 109 
296 745 321 161 147 139 
235 802 290 200 136 118 
155 672 361 128 154 181 
299 240 298 93 134 167 
207 830 289 163 116 87 
319 104 268 128 104 77 
101 276 327 104 66 70 
115 619 194 64 103 142 
255 313 398 146 7 70 
113 646 279 45 81 155 
94 669 220 95 106 129 
13 677 219 171 166 170 
252 905 302 141 109 89 
59 383 276 131 88 89 
344 747 305 100 82 79 
216 398 389 69 100 163 
157 79 261 164 122 97 
123 262 317 46 27 26 
214 561 217 205 199 203 
172 54 276 111 95 79 
83 614 275 99 104 111 
306 76 222 140 117 95 
57 450 295 85 132 169 
135 658 262 136 137 151 
361 634 347 159 162 172 
86 487 258 73 96 121 
327 207 305 65 72 106 
226 345 240 138 141 150 
169 720 205 56 48 42 
100 417 348 139 116 94 
173 789 297 140 100 80 
147 572 194 82 160 213 
176 395 329 93 108 126 
60 721 202 135 162 219 
213 521 187 170 172 181 
63 752 234 128 159 198 
130 264 246 123 115 111 
291 574 291 66 74 84 
279 805 275 216 161 134 
281 172 258 127 103 130 
147 548 201 75 114 147 
324 602 341 74 85 100 
167 644 206 132 132 137 
68 467 281 115 122 133 
60 291 264 112 96 83 
142 585 359 105 126 175 
285 130 357 147 69 5 
274 390 358 163 68 24 
153 297 222 96 111 128 
94 309 326 79 76 84 
167 427 190 113 123 141 
197 348 354 37 75 101 
112 570 192 124 136 151 
171 367 205 144 140 141 
122 541 231 64 85 115 
265 753 325 206 149 117 
284 357 362 195 166 138 
250 223 265 117 118 128 
213 496 192 88 107 130 
357 640 349 61 95 159 
193 580 364 109 138 173 
161 443 320 41 64 83 
203 843 310 133 91 60 
255 525 278 132 139 152 
214 851 243 143 101 67 
314 659 310 97 126 153 
299 254 358 135 148 166 
368 712 314 200 135 130 
81 598 315 115 126 163 
377 637 308 53 76 95 
84 430 349 98 29 40 
235 440 242 108 128 153 
221 876 258 84 63 50 
89 354 252 88 120 147 
100 784 246 207 20 75 
344 19 289 129 116 108 
222 245 263 99 101 107 
51 315 263 59 78 106 
284 246 368 83 86 97 
319 659 314 112 136 161 
319 219 339 119 56 71 
155 786 289 128 124 134 
198 173 270 83 62 69 
85 258 325 125 51 69 
257 512 314 153 158 169 
269 559 334 125 106 88 
296 724 321 52 50 54 
213 23 323 144 108 83 
378 685 329 143 179 217 
167 153 280 85 57 47 
75 624 295 57 56 79 
303 693 241 153 160 174 
343 18 299 157 143 134 
104 597 256 84 101 118 
250 531 243 173 174 183 
314 21 280 97 81 86 
175 56 279 111 94 77 
95 534 239 48 81 112 
165 333 213 122 76 78 
257 525 289 85 106 128 
219 846 244 188 139 108 
304 68 254 89 78 67 
221 940 250 71 49 40 
103 478 238 86 102 121 
150 632 211 112 119 130 
209 146 266 107 63 59 
176 751 211 134 122 120 
172 60 272 125 103 80 
169 343 210 122 58 69 
226 243 267 124 123 125 
144 566 190 171 174 189 
99 258 316 81 60 54 
275 569 303 102 94 88 
133 577 196 90 161 214 
89 669 191 159 163 173 
71 446 273 106 122 143 
65 509 284 118 131 149 
133 99 277 88 75 61 
55 387 289 115 83 82 
153 874 320 154 114 89 
328 58 271 111 89 66 
313 67 247 95 83 72 
102 710 249 83 90 109 
210 270 240 88 111 135 
276 164 369 111 98 105 
155 153 271 63 56 53 
300 600 346 31 58 89 
174 61 277 121 99 77 
199 500 187 81 109 141 
91 612 331 125 140 191 
116 399 359 126 136 150 
90 658 218 69 87 105 
78 670 190 148 151 162 
286 161 255 139 88 71 
211 466 371 123 134 165 
236 903 287 190 130 103 
146 934 308 128 101 84 
143 391 200 94 114 136 
224 764 217 146 123 113 
147 370 314 48 69 92 
197 200 272 74 66 75 
153 281 316 105 104 105 
183 681 364 80 113 141 
135 384 333 87 99 128 
179 592 217 79 105 131 
82 556 360 170 152 142 
123 750 291 128 26 37 
121 753 289 116 57 60 
117 737 204 112 120 161 
175 670 200 76 135 182 
117 668 308 147 101 96 
150 298 328 89 101 115 
270 275 285 93 135 170 
138 748 315 177 168 168 
178 32 284 104 84 62 
268 449 359 148 156 170 
320 780 298 201 146 115 
38 645 262 111 129 149 
205 713 348 103 102 110 
134 794 277 183 150 116 
74 685 236 58 67 90 
179 607 216 158 165 181 
307 100 283 104 85 66 
242 723 352 149 142 141 
155 418 191 96 114 136 
352 738 296 102 68 61 
188 226 276 72 72 75 
251 402 279 75 106 150 
215 970 261 135 104 78 
83 311 327 87 43 60 
207 608 242 49 75 98 
236 160 281 41 57 75 
300 88 276 93 77 60 
178 606 366 180 174 177 
197 956 318 101 79 67 
249 422 278 86 108 140 
244 286 397 142 126 109 
176 38 284 103 88 73 
131 786 222 217 178 132 
68 320 310 67 86 107 
129 370 357 140 146 157 
98 454 364 161 91 52 
283 765 309 198 133 102 
74 574 310 106 127 156 
207 654 207 146 148 156 
106 518 368 162 145 132 
176 398 331 56 80 121 
249 534 361 118 147 177 
80 532 259 75 95 117 
166 92 300 123 96 76 
180 33 284 111 92 72 
65 664 243 100 72 64 
323 167 319 47 40 47 
177 539 190 96 118 142 
57 618 230 124 133 146 
170 550 370 84 119 184 
137 322 226 97 109 123 
345 54 246 99 81 64 
257 419 378 68 97 143 
283 270 375 109 137 165 
162 400 305 44 64 81 
364 723 301 187 104 92 
65 618 259 98 107 118 
118 793 243 137 102 119 
91 491 359 167 127 86 
142 338 340 90 73 69 
164 742 337 172 150 133 
294 117 242 168 117 80 
131 801 246 176 154 135 
182 36 283 114 94 75 
225 254 348 55 56 62 
92 393 256 139 88 30 
221 193 277 106 82 83 
365 627 308 77 73 71 
308 578 332 120 96 70 
85 580 283 111 122 140 
316 50 271 96 77 57 
100 670 222 96 114 136 
325 197 324 99 61 57 
293 632 237 56 96 134 
176 40 283 99 82 65 
120 326 247 120 100 100 
107 595 260 71 88 105 
290 298 313 156 153 157 
177 41 283 109 90 71 
254 376 281 103 125 155 
108 285 250 181 89 23 
179 433 191 125 131 144 
284 771 232 126 111 98 
248 811 233 228 167 130 
178 41 283 112 93 73 
257 193 319 74 31 50 
167 701 200 143 162 184 
142 366 327 81 96 121 
287 117 286 90 81 73 
327 201 300 73 48 76 
210 676 206 161 164 176 
171 446 341 70 85 110 
327 213 321 52 73 143 
176 142 279 107 63 29 
303 113 231 199 134 119 
286 564 332 147 110 91 
194 147 268 73 68 67 
156 495 190 97 121 172 
62 478 293 148 142 142 
156 858 302 144 109 80 
210 645 209 96 50 42 
236 563 241 113 130 168 
257 545 273 104 125 149 
95 342 342 72 113 145 
81 292 260 69 53 61 
148 767 214 164 124 88 
163 955 313 89 76 68 
207 308 330 117 120 128 
85 571 356 100 109 171 
109 280 249 156 133 115 
223 887 302 156 113 85 
318 157 320 43 64 82 
122 558 243 117 119 126 
199 609 362 64 103 132 
61 603 203 118 123 130 
198 932 334 197 147 124 
172 808 231 195 139 99 
185 935 337 210 157 139 
172 897 335 132 103 86 
308 751 312 114 104 99 
175 818 271 176 128 104 
126 580 243 93 97 104 
184 448 350 126 137 155 
182 40 283 118 99 81 
99 364 340 53 66 79 
230 698 351 59 67 91 
278 216 353 88 73 82 
195 986 252 140 107 77 
245 192 371 42 66 90 
106 691 234 54 69 117 
65 352 270 136 44 66 
164 589 363 102 121 144 
195 912 228 54 43 38 
376 629 283 118 122 128 
77 653 273 143 97 80 
227 877 284 140 104 76 
348 735 275 139 131 128 
190 258 316 70 83 98 
161 973 261 85 65 55 
88 607 305 149 155 166 
198 683 365 122 111 104 
273 734 226 123 110 102 
142 909 302 118 94 74 
250 395 274 88 113 144 
349 619 268 181 177 183 
249 639 218 93 108 125 
164 617 217 174 173 182 
184 859 337 97 68 62 
129 433 347 126 129 140 
182 44 284 120 98 81 
205 239 257 131 126 126 
336 70 266 134 106 84 
230 281 254 81 110 135 
139 698 338 124 143 166 
122 405 363 117 134 154 
191 682 369 173 32 46 
141 139 300 112 88 63 
258 137 360 112 44 37 
191 886 336 187 134 114 
105 662 318 160 107 101 
188 410 352 111 119 131 
314 106 279 107 88 66 
70 551 351 154 132 110 
50 638 270 143 152 166 
118 787 234 137 150 166 
84 451 348 94 36 34 
86 729 202 217 207 219 
215 311 394 124 135 150 
48 629 257 75 82 92 
352 663 340 105 142 184 
121 377 238 134 132 136 
195 853 211 133 107 84 
62 510 327 183 154 124 
294 692 235 172 115 115 
199 338 361 79 89 112 
170 795 226 184 170 165 
196 632 366 97 106 119 
110 641 342 72 58 58 
127 682 195 189 188 198 
155 667 355 133 154 177 
317 115 263 119 96 73 
115 656 344 178 129 125 
135 440 342 114 118 129 
263 413 320 150 158 172 
56 721 245 107 120 161 
244 446 387 125 143 165 
53 623 241 87 75 71 
271 144 369 45 74 106 
61 333 280 97 87 98 
185 38 284 128 102 81 
174 468 187 99 118 143 
204 301 374 116 105 99 
186 37 284 132 107 86 
199 479 189 79 104 137 
238 486 375 80 106 159 
196 657 372 130 114 110 
186 39 284 129 102 80 
151 215 300 71 35 51 
319 788 287 211 147 117 
333 130 285 125 111 99 
220 256 346 72 67 64 
63 478 337 117 136 155 
235 661 359 130 111 106 
321 127 311 93 84 76 
201 298 320 125 127 133 
213 748 334 131 150 171 
168 901 233 79 63 48 
261 195 252 167 90 63 
269 214 375 133 69 83 
215 254 257 134 129 128 
151 592 364 124 151 183 
186 924 232 100 76 47 
195 416 359 91 104 124 
275 590 315 58 62 70 
172 849 268 138 107 79 
301 663 238 127 129 138 
351 727 314 89 74 79 
200 383 377 97 117 148 
190 34 284 131 106 84 
149 702 357 166 71 90 
275 125 295 118 56 5 
218 387 227 64 91 118 
120 758 294 105 81 65 
134 125 296 101 85 68 
86 608 308 77 80 141 
214 607 360 96 67 67 
183 350 307 54 78 99 
147 480 342 69 84 111 
188 37 285 132 104 84 
189 36 285 132 105 85 
229 453 225 151 153 160 
284 793 293 192 141 109 
237 301 257 82 107 130 
262 143 246 107 93 82 
279 174 368 115 89 99 
186 961 320 99 83 70 
166 312 219 113 104 101 
239 225 381 134 132 134 
128 298 324 88 99 113 
237 404 249 140 149 164 
363 678 336 152 177 204 
354 36 260 173 152 143 
89 599 229 53 83 112 
215 581 358 79 90 109 
213 579 359 100 130 161 
129 686 277 78 102 127 
378 701 299 187 210 238 
222 910 236 105 81 61 
194 978 235 137 106 74 
323 632 338 74 107 169 
55 389 282 149 99 99 
226 146 271 98 73 61 
264 134 290 113 54 6 
25 659 250 107 135 167 
188 488 371 101 127 163 
150 875 300 141 105 77 
49 649 187 88 147 194 
330 47 236 110 100 90 
256 553 290 74 72 74 
86 761 221 116 120 139 
200 968 228 127 93 58 
134 88 286 103 85 66 
245 548 352 87 130 167 
206 584 233 132 134 142 
216 573 359 113 131 159 
303 679 239 70 98 137 
319 635 252 71 47 82 
240 885 296 149 113 79 
256 194 375 42 69 91 
128 399 219 108 123 141 
163 683 366 123 160 194 
262 437 342 93 112 149 
236 833 256 220 164 130 
366 615 280 113 123 136 
187 43 287 133 103 77 
93 294 251 144 99 74 
232 707 349 145 128 118 
144 261 236 150 143 142 
309 159 274 67 96 124 
235 221 375 127 127 131 
111 577 363 117 147 189 
165 949 321 87 67 60 
185 45 287 126 100 75 
128 657 346 154 115 108 
123 752 210 168 16 31 
138 140 261 111 88 61 
208 948 312 116 86 72 
212 689 355 161 78 41 
134 97 278 91 77 62 
247 255 276 111 116 125 
220 222 318 84 84 87 
210 740 212 191 144 100 
139 802 268 111 104 105 
155 263 232 133 122 116 
81 734 265 94 102 123 
319 154 279 73 77 111 
283 189 361 63 93 117 
240 915 304 117 97 82 
145 245 300 72 21 37 
262 404 313 110 125 150 
149 115 302 120 94 69 
260 293 392 144 93 55 
68 314 331 131 32 56 
177 50 282 113 93 74 
253 489 334 145 146 155 
68 404 326 67 104 134 
225 783 226 144 102 68 
161 292 324 85 95 107 
123 472 369 104 126 154 
289 292 348 154 85 83 
285 573 282 71 71 77 
379 636 312 54 66 77 
218 440 383 103 127 166 
236 738 217 111 76 44 
263 881 304 114 99 88 
42 687 187 170 148 141 
281 347 326 185 163 144 
179 821 239 191 138 102 
78 272 266 128 110 95 
141 686 327 129 144 163 
117 525 223 112 118 129 
227 119 263 106 89 75 
66 730 252 148 152 168 
359 729 296 149 134 126 
160 108 281 96 75 52 
149 462 330 42 64 86 
282 342 327 186 161 137 
286 792 295 193 143 111 
197 367 369 81 102 124 
217 594 241 113 113 117 
124 532 224 105 111 121 
217 820 282 174 123 96 
214 732 340 80 84 96 
142 530 215 117 119 125 
257 533 297 126 125 130 
214 656 361 177 125 50 
220 955 257 120 101 82 
343 41 243 146 122 95 
324 607 350 62 94 121 
254 326 278 146 147 154 
238 652 364 166 98 54 
107 593 197 84 142 186 
263 794 287 210 149 120 
237 246 388 105 117 133 
300 713 317 149 112 84 
251 426 283 88 112 142 
196 413 206 47 87 118 
255 343 392 185 156 127 
184 280 316 116 119 127 
211 674 205 161 162 175 
106 636 191 110 133 158 
181 763 213 153 130 109 
72 514 358 204 171 135 
109 541 367 98 126 177 
206 308 351 76 94 113 
107 495 369 175 163 159 
88 360 331 72 66 75 
251 428 284 91 112 143 
355 609 277 95 115 135 
278 399 366 159 143 132 
182 49 285 115 95 76 
255 474 286 131 147 167 
176 388 330 50 80 121 
322 582 281 84 98 113 
81 668 190 172 170 177 
288 124 247 119 99 78 
89 710 251 83 87 94 
193 297 315 122 125 132 
188 478 187 154 157 168 
257 499 299 127 133 147 
228 564 242 118 143 170 
67 305 291 147 68 9 
248 431 273 68 99 131 
212 271 366 102 111 123 
65 541 333 183 74 2 
351 677 335 148 171 198 
263 568 340 153 110 95 
203 593 230 151 149 154 
278 139 251 131 54 5 
125 447 359 60 70 116 
170 71 272 137 109 85 
302 129 312 103 92 81 
181 54 287 126 99 74 
346 603 268 94 104 117 
158 884 326 177 135 114 
174 153 283 51 54 69 
107 467 237 101 111 124 
267 806 275 217 156 128 
288 100 269 78 67 55 
211 172 271 67 82 98 
213 854 304 144 102 72 
264 800 230 227 164 128 
249 575 278 54 66 80 
302 799 256 221 158 124 
74 332 318 123 46 70 
49 619 201 126 128 133 
53 713 244 123 137 162 
216 603 252 69 72 78 
134 212 301 56 31 27 
87 513 360 164 109 54 
196 354 359 60 91 116 
184 597 367 194 183 182 
350 651 343 90 123 151 
225 923 310 110 91 75 
180 873 237 97 81 68 
357 615 286 55 93 122 
177 58 280 126 105 84 
195 365 354 76 94 111 
285 303 348 181 152 123 
60 400 280 165 45 75 
139 672 196 135 158 190 
240 709 215 155 23 20 
329 70 275 115 92 67 
293 769 307 199 145 112 
192 365 340 55 75 102 
178 57 283 118 98 78 
253 507 322 120 133 150 
151 123 298 116 90 67 
64 627 283 57 84 112 
177 865 338 168 125 105 
243 369 259 143 148 159 
327 205 328 59 68 81 
384 668 335 156 171 214 
226 685 209 102 137 178 
253 744 221 46 44 50 
215 630 219 82 49 46 
94 316 328 110 70 71 
295 749 241 130 113 97 
349 731 313 145 127 112 
173 665 369 129 161 192 
282 263 285 174 174 184 
336 51 237 130 113 95 
164 578 364 43 96 136 
163 300 326 120 90 56 
301 223 351 120 34 64 
162 807 236 130 107 83 
192 463 189 134 139 150 
339 25 296 146 108 86 
188 608 230 90 80 82 
356 730 283 142 127 115 
177 60 283 115 94 71 
174 845 291 105 79 51 
177 61 283 117 95 72 
221 320 401 203 173 142 
177 836 283 154 116 90 
192 369 213 87 108 131 
130 743 299 101 35 42 
243 743 219 69 62 55 
86 258 323 125 59 72 
234 515 203 131 142 163 
177 707 203 146 177 208 
232 241 337 80 91 104 
122 280 326 98 90 86 
172 267 226 100 79 70 
147 926 254 114 89 64 
254 642 363 152 115 73 
341 602 314 91 81 72 
97 376 254 165 158 159 
178 61 284 119 96 73 
348 731 274 88 81 78 
88 602 295 106 125 151 
105 321 247 118 121 129 
353 740 287 176 127 101 
320 110 257 121 98 75 
69 329 335 58 39 73 
179 61 287 117 96 74 
292 780 238 153 112 72 
204 482 359 56 79 105 
56 480 305 162 164 173 
344 637 353 111 134 195 
83 701 192 162 193 229 
162 569 195 190 188 196 
146 666 339 148 145 148 
297 279 339 103 127 152 
293 595 330 108 108 112 
249 202 319 78 28 41 
265 360 301 165 97 15 
246 328 265 147 147 152 
267 627 227 121 122 127 
299 153 259 163 101 113 
180 57 286 121 97 72 
101 731 264 82 101 119 
161 676 367 144 169 197 
220 888 314 165 116 89 
153 435 315 37 56 73 
318 603 344 25 42 87 
120 655 293 98 72 76 
282 573 287 65 63 65 
255 481 306 116 128 145 
315 132 264 160 142 124 
243 485 257 128 138 153 
141 903 292 72 56 43 
161 33 311 125 99 82 
185 949 328 108 83 69 
243 565 348 74 79 90 
175 698 362 73 111 153 
202 314 370 124 93 47 
161 268 306 62 57 58 
303 160 326 52 58 65 
138 143 260 101 85 68 
154 595 363 115 142 174 
264 868 298 139 122 108 
319 230 328 87 113 137 
70 747 254 105 133 171 
162 35 311 119 93 74 
186 837 322 119 90 64 
88 610 267 61 97 125 
97 430 358 165 137 108 
113 536 368 69 104 170 
143 557 364 139 159 193 
121 259 315 52 26 24 
232 260 388 93 87 91 
318 580 285 130 131 137 
169 356 207 115 80 78 
253 494 293 97 108 132 
187 636 365 61 98 128 
275 350 313 205 176 149 
140 384 204 101 115 132 
142 401 198 47 83 116 
63 437 333 131 135 144 
211 306 384 152 150 155 
146 331 333 95 69 85 
70 311 329 95 45 66 
212 819 285 173 122 94 
137 715 336 91 130 166 
226 313 242 144 147 156 
73 556 354 158 136 119 
157 443 188 75 102 137 
143 651 202 87 111 134 
117 577 190 209 206 219 
96 638 316 159 113 100 
165 35 311 120 96 70 
308 64 276 88 73 57 
310 753 250 136 116 97 
151 318 331 98 60 71 
123 382 345 116 121 133 
28 654 252 67 99 148 
167 35 311 123 98 73 
188 342 309 72 90 111 
88 688 230 56 75 106 
218 570 360 187 192 206 
214 416 384 98 117 166 
182 792 224 104 87 69 
114 289 328 62 44 48 
243 604 256 37 86 121 
256 886 304 126 107 94 
247 223 265 121 109 129 
66 556 319 68 86 147 
116 379 244 141 140 143 
144 556 237 66 79 94 
146 459 335 96 105 120 
225 593 356 62 53 82 
94 673 221 91 109 131 
255 528 272 124 135 151 
145 469 341 98 107 126 
254 700 358 87 89 108 
148 569 362 130 154 186 
212 887 327 192 143 118 
292 229 279 142 41 76 
198 187 271 86 52 55 
269 194 374 101 96 110 
181 597 367 195 186 186 
83 550 265 113 118 129 
260 597 325 31 33 40 
348 694 326 166 99 112 
147 416 317 44 69 97 
160 40 309 122 100 79 
271 627 348 101 77 99 
124 382 342 119 123 136 
243 912 298 102 84 69 
60 688 189 154 142 139 
97 627 325 99 105 156 
102 654 219 78 95 116 
160 43 309 114 94 73 
164 105 288 97 78 59 
252 501 335 103 116 152 
259 285 282 79 108 135 
69 757 243 163 176 210 
60 707 194 137 170 219 
273 751 325 192 138 106 
348 21 289 133 117 105 
93 465 360 165 127 94 
262 432 345 158 156 164 
254 514 321 149 151 160 
163 42 310 111 90 67 
217 943 250 83 56 39 
206 605 240 50 67 83 
22 697 204 227 216 216 
100 569 261 85 96 113 
287 219 271 152 106 103 
208 747 213 133 119 111 
195 570 229 110 138 169 
61 422 285 104 128 158 
42 724 216 151 149 188 
254 459 296 110 122 142 
167 902 336 109 88 66 
162 44 310 109 89 68 
57 439 298 103 130 156 
101 337 249 101 68 76 
171 303 320 119 95 69 
127 666 293 22 26 60 
60 368 272 84 69 99 
211 735 212 86 87 89 
228 605 355 113 80 84 
207 698 353 178 66 37 
163 47 310 110 90 70 
245 578 275 55 70 88 
214 247 259 86 99 114 
236 123 267 106 71 42 
80 676 221 72 81 94 
351 709 323 120 34 58 
311 38 266 99 83 66 
293 654 321 101 127 153 
210 273 346 121 121 126 
84 757 220 184 96 102 
308 51 266 86 73 59 
212 962 284 102 81 65 
182 900 340 142 108 83 
166 42 310 115 92 67 
226 730 343 119 115 117 
119 801 260 80 95 114 
78 352 330 71 46 57 
164 44 310 111 90 68 
157 908 335 119 102 89 
46 710 199 187 189 212 
182 869 235 108 91 76 
236 729 347 140 109 97 
206 960 229 150 114 75 
318 119 290 73 61 48 
163 970 261 84 64 50 
166 44 310 113 90 65 
296 289 331 144 150 163 
225 789 227 143 108 67 
199 969 285 114 97 81 
141 937 288 88 70 58 
226 753 330 214 164 138 
360 727 301 157 118 97 
66 551 337 166 144 124 
67 326 295 113 73 66 
235 429 241 87 112 140 
252 816 238 233 173 137 
69 400 326 60 92 119 
65 371 311 140 107 105 
213 228 261 151 150 156 
171 34 311 124 97 72 
311 739 310 138 113 89 
170 433 330 55 68 97 
142 600 203 143 148 161 
228 444 390 97 117 172 
270 578 332 136 99 81 
104 317 338 125 112 116 
68 529 350 197 161 116 
227 564 244 124 144 166 
198 601 227 161 158 163 
169 39 310 115 89 60 
142 756 211 82 55 98 
65 451 319 72 116 152 
224 564 238 159 167 184 
271 155 305 40 40 60 
130 537 226 116 119 126 
46 633 264 86 117 146 
76 547 274 156 149 150 
293 287 311 135 151 172 
268 236 273 186 172 178 
265 237 273 183 172 176 
171 613 219 179 177 183 
34 718 230 79 109 198 
261 618 232 94 107 121 
198 344 319 66 92 121 
253 343 276 99 94 94 
155 956 283 109 89 70 
301 613 350 101 121 172 
174 35 311 126 100 75 
63 308 259 158 80 79 
73 304 324 76 57 56 
298 667 319 70 117 151 
243 672 361 185 171 173 
132 106 274 93 79 66 
276 649 351 80 61 56 
172 38 311 121 94 66 
198 372 216 66 96 124 
177 845 329 163 123 105 
277 269 286 82 114 142 
311 244 338 168 162 165 
99 599 350 136 164 214 
66 656 188 78 143 196 
200 856 232 104 90 78 
160 67 309 117 96 76 
174 38 311 120 92 65 
119 332 340 76 106 131 
199 889 221 72 61 52 
210 460 373 155 165 181 
147 305 333 107 112 121 
90 544 249 78 107 137 
91 509 365 172 68 17 
167 950 234 124 98 67 
156 647 204 127 128 135 
168 34 312 124 97 70 
120 658 295 121 87 82 
85 374 342 73 102 129 
345 639 268 67 105 153 
72 522 359 190 155 117 
206 432 373 87 110 152 
205 706 207 173 30 66 
90 441 348 113 44 52 
101 714 197 126 128 138 
189 764 321 98 93 93 
66 377 335 86 117 143 
100 778 230 223 164 92 
205 304 326 128 128 133 
279 280 368 186 158 129 
240 374 254 66 106 138 
227 320 399 184 153 121 
312 115 251 162 117 92 
322 765 263 152 142 139 
222 233 365 134 63 2 
241 481 260 115 128 146 
185 180 272 95 43 48 
252 504 334 159 158 164 
347 606 313 89 80 72 
152 154 272 68 61 54 
229 269 389 75 112 143 
200 277 319 69 101 127 
173 480 357 120 134 152 
211 278 369 62 88 109 
207 281 233 118 125 135 
251 504 371 87 109 154 
325 671 315 99 129 156 
251 514 251 136 147 163 
89 609 307 39 66 135 
211 290 333 122 122 127 
223 874 292 145 105 81 
64 354 310 108 92 110 
175 422 337 75 94 124 
341 32 253 120 105 91 
267 346 299 157 79 10 
279 315 306 202 171 140 
235 268 396 71 100 130 
301 199 340 130 85 61 
173 162 282 64 47 45 
205 881 227 100 78 58 
153 580 365 102 130 167 
197 232 306 80 70 62 
118 379 241 136 133 136 
360 701 279 152 147 147 
195 790 223 137 111 89 
170 453 344 64 93 134 
345 703 325 145 54 69 
61 685 189 204 191 187 
364 622 294 40 79 112 
200 329 376 92 116 139 
155 544 203 72 107 140 
262 135 364 94 61 64 
235 402 244 122 132 149 
174 40 310 120 93 65 
63 381 275 99 76 96 
93 429 259 143 45 78 
250 647 368 206 154 89 
278 752 324 171 121 92 
284 326 318 161 27 75 
144 520 356 67 83 102 
73 726 258 141 151 166 
185 867 233 101 80 63 
172 45 310 116 91 62 
140 694 327 107 121 138 
278 366 351 214 179 142 
199 970 229 120 84 46 
277 144 307 67 31 43 
291 285 308 132 147 168 
90 594 286 113 119 130 
296 84 259 92 80 68 
206 846 301 153 112 81 
90 351 330 96 89 97 
120 284 246 89 100 112 
157 718 357 180 30 52 
199 780 221 140 130 131 
282 686 327 147 90 53 
59 454 308 103 46 57 
276 192 370 106 110 116 
82 576 351 222 214 214 
367 669 285 132 140 156 
293 111 282 82 70 59 
265 563 311 99 95 95 
73 335 270 111 46 58 
235 580 260 90 92 97 
241 425 253 104 123 146 
84 518 360 169 137 99 
300 92 277 89 73 55 
231 311 249 148 145 149 
333 636 261 39 90 134 
304 750 314 173 155 140 
76 428 338 106 99 112 
233 665 357 153 111 100 
284 686 326 159 128 86 
163 50 310 106 86 66 
165 455 333 76 90 116 
113 744 280 111 89 94 
70 568 341 141 121 101 
70 732 257 131 141 166 
256 662 215 68 106 158 
132 387 341 92 107 130 
280 115 302 93 85 80 
238 473 254 111 123 140 
287 247 367 104 102 104 
315 120 261 117 96 79 
319 41 250 106 93 81 
63 719 249 143 153 177 
41 650 265 120 141 175 
240 398 392 59 91 146 
218 852 282 169 125 96 
240 198 354 68 36 36 
238 668 210 134 148 168 
78 276 332 96 85 102 
242 363 393 127 108 86 
308 796 259 199 141 106 
150 377 309 54 71 89 
165 48 310 110 89 66 
155 777 297 218 186 155 
285 793 237 188 136 97 
164 51 310 108 87 65 
391 639 323 72 68 66 
57 613 221 91 113 135 
159 335 316 87 53 61 
158 404 306 55 70 85 
167 48 310 112 89 64 
117 774 291 157 144 141 
280 677 343 157 65 64 
167 948 324 98 79 70 
91 337 335 93 44 70 
107 662 223 94 111 132 
268 322 385 147 98 65 
129 486 357 112 116 138 
164 53 311 114 91 70 
307 157 324 67 57 47 
156 867 289 135 107 79 
146 787 221 168 146 129 
88 678 191 177 180 191 
124 468 207 108 126 147 
155 658 200 104 125 151 
158 477 341 114 119 129 
293 810 264 242 174 140 
166 52 310 112 88 66 
242 220 329 68 83 97 
305 679 240 46 62 101 
332 65 231 137 120 105 
258 131 343 117 51 36 
255 167 297 95 42 54 
260 174 308 77 16 27 
224 564 245 165 165 176 
154 126 278 90 75 59 
332 772 288 184 173 169 
247 259 389 95 117 139 
105 747 275 39 58 90 
71 485 272 54 86 112 
324 686 312 120 89 87 
86 563 359 189 171 161 
351 609 322 113 93 74 
73 585 331 36 76 173 
259 156 243 105 80 69 
152 628 212 126 131 141 
84 605 325 138 146 196 
281 345 333 132 141 157 
58 365 286 108 52 73 
203 674 365 178 118 71 
62 487 289 83 105 130 
67 377 330 91 43 63 
249 404 276 89 115 148 
305 728 312 142 120 105 
266 396 350 135 119 106 
142 98 299 115 94 73 
140 638 206 130 134 142 
160 60 309 115 95 75 
159 975 253 105 85 69 
208 625 369 62 47 91 
170 900 336 114 92 70 
107 457 367 142 127 115 
230 903 257 67 54 43 
237 295 401 100 116 133 
255 561 293 79 78 79 
312 713 308 98 95 96 
86 263 258 101 92 86 
26 710 216 199 199 218 
87 503 250 61 89 115 
253 191 334 55 38 46 
109 586 227 83 111 136 
231 417 236 128 132 140 
160 445 319 43 63 80 
156 415 191 92 108 128 
239 734 346 131 130 136 
159 258 231 84 111 137 
180 283 224 144 142 145 
204 518 192 116 119 125 
92 580 355 108 130 185 
208 445 367 90 88 124 
162 304 327 128 98 63 
220 870 309 169 122 94 
193 246 292 56 78 98 
254 494 329 162 161 167 
280 371 368 185 150 111 
296 195 278 84 104 124 
297 210 277 186 125 101 
143 636 352 91 116 164 
122 555 243 116 119 128 
153 768 305 172 141 118 
301 253 307 88 124 155 
235 343 251 107 121 142 
206 975 237 139 106 71 
311 39 263 97 82 66 
131 579 201 133 173 210 
141 524 358 64 90 124 
283 128 364 155 75 9 
146 363 320 48 74 101 
290 714 235 158 129 91 
131 226 305 51 28 30 
202 356 383 132 123 119 
200 970 280 132 106 81 
214 975 253 110 71 50 
342 686 325 121 70 83 
274 374 336 182 82 4 
239 191 369 63 72 95 
330 638 259 78 111 142 
196 569 228 110 141 174 
144 483 347 79 90 123 
167 62 310 115 93 69 
71 373 337 71 105 133 
195 151 268 66 65 68 
269 117 283 86 80 74 
193 138 273 92 77 68 
135 469 197 100 120 146 
208 896 330 181 138 111 
188 699 365 149 102 88 
98 648 239 83 93 108 
222 867 262 117 86 65 
236 243 386 99 117 137 
283 167 254 160 92 92 
134 717 322 118 107 141 
113 490 216 151 149 154 
194 364 322 51 77 107 
198 238 287 74 90 106 
120 756 290 125 85 66 
62 691 242 93 103 125 
106 646 227 47 68 93 
208 582 236 122 124 132 
248 497 254 115 128 145 
140 729 325 122 61 66 
207 207 274 116 74 70 
202 167 269 85 68 72 
186 478 364 81 103 140 
101 396 351 136 139 148 
199 591 227 134 137 145 
250 447 278 71 103 141 
314 173 280 118 114 118 
185 167 271 89 68 52 
118 397 239 79 100 122 
249 511 371 94 121 174 
224 387 395 77 104 153 
174 822 247 206 150 116 
170 55 311 120 95 69 
218 731 340 140 134 135 
84 373 333 52 85 112 
128 395 353 78 87 119 
238 220 347 65 56 64 
194 818 231 203 138 103 
142 462 193 102 123 149 
249 587 272 51 70 88 
183 874 343 100 57 51 
67 438 288 124 67 76 
169 806 231 135 102 76 
280 122 317 105 75 60 
156 366 306 53 74 93 
112 590 250 107 115 127 
164 471 343 76 94 120 
154 342 319 80 76 92 
219 789 303 215 148 128 
160 763 213 50 34 47 
314 741 310 154 122 84 
282 603 243 76 100 126 
130 684 282 57 79 109 
206 370 386 27 82 129 
176 559 190 129 160 215 
384 638 312 55 73 89 
281 794 291 188 138 107 
274 682 353 179 84 27 
290 176 348 98 103 111 
256 563 292 84 87 91 
183 535 362 156 159 168 
268 561 337 139 111 92 
215 480 356 99 103 124 
41 670 255 76 92 137 
215 868 320 166 119 91 
285 234 275 147 73 96 
66 613 189 146 148 155 
180 553 361 102 128 163 
135 90 290 111 90 71 
113 647 263 130 134 147 
115 670 193 100 125 171 
112 426 244 74 97 119 
346 26 295 138 114 91 
226 398 395 79 109 159 
128 763 300 152 130 132 
243 680 359 71 76 95 
259 362 288 151 135 126 
179 824 277 160 117 89 
227 263 384 93 76 73 
328 145 313 114 115 117 
203 19 289 157 137 125 
211 278 330 96 76 79 
63 310 307 126 106 96 
303 241 304 137 63 78 
80 435 264 155 22 73 
171 58 310 116 93 66 
188 433 353 107 120 138 
226 777 313 210 153 127 
269 449 364 159 169 187 
271 289 289 143 69 77 
73 382 274 86 92 105 
176 764 214 204 183 165 
276 153 247 126 78 84 
72 261 306 88 57 54 
198 336 317 81 95 119 
252 500 342 91 105 148 
122 395 360 140 145 156 
72 444 270 94 115 141 
271 315 294 126 142 160 
301 207 281 118 98 126 
191 925 232 79 59 38 
308 626 246 50 79 116 
241 175 359 85 33 31 
240 822 267 185 130 102 
255 483 340 163 160 165 
62 626 277 66 101 132 
164 316 320 114 92 70 
375 627 293 37 78 110 
173 57 310 117 92 66 
173 59 309 118 94 68 
102 790 263 147 99 100 
184 414 199 48 86 117 
190 960 228 111 85 53 
198 710 352 144 129 121 
285 591 250 71 98 122 
373 652 343 136 157 198 
272 335 379 156 14 72 
111 381 248 137 134 137 
377 693 324 151 175 203 
87 614 280 83 93 104 
256 279 280 84 120 150 
72 432 273 114 125 142 
187 847 236 109 91 74 
71 405 336 85 104 124 
256 612 350 77 101 136 
269 403 333 164 139 107 
300 573 331 121 98 74 
129 739 296 73 38 45 
74 733 260 97 115 154 
173 543 189 74 109 142 
164 360 205 113 75 78 
111 483 222 149 145 148 
245 553 339 92 114 140 
79 588 307 85 112 156 
329 210 322 52 90 149 
259 588 257 51 95 128 
186 856 228 111 99 91 
276 707 348 83 81 84 
247 290 399 120 51 54 
316 55 264 96 78 57 
92 413 344 71 73 78 
174 61 309 118 93 68 
218 495 375 78 103 154 
272 379 322 168 148 131 
301 242 302 91 139 175 
175 571 214 187 193 209 
194 668 203 157 151 157 
252 872 301 137 118 101 
292 679 231 144 149 163 
315 239 326 92 129 161 
26 700 235 46 92 181 
159 605 206 146 147 153 
139 627 200 106 144 198 
356 43 261 145 131 123 
28 647 195 78 91 108 
57 694 189 214 210 223 
295 236 286 125 106 112 
177 402 336 84 103 127 
324 126 280 126 112 99 
127 793 237 165 126 94 
312 632 328 131 151 177 
155 546 209 64 88 113 
307 71 233 108 91 74 
266 694 356 124 89 90 
55 622 190 124 124 129 
214 324 396 177 152 127 
191 298 315 114 117 125 
201 326 362 104 109 119 
145 924 260 80 64 50 
322 123 281 124 113 104 
260 299 281 108 117 131 
186 426 351 75 92 118 
215 973 259 133 93 77 
99 554 362 159 142 128 
255 500 371 128 150 183 
199 342 372 37 78 114 
105 535 237 97 104 115 
137 804 250 136 103 92 
260 778 223 137 104 67 
128 690 292 51 78 118 
198 354 372 60 95 127 
244 157 287 47 64 80 
315 108 278 107 87 67 
66 613 240 96 118 141 
367 708 320 74 80 147 
201 275 319 72 105 131 
302 119 292 68 58 48 
193 365 332 57 80 107 
63 322 308 95 87 103 
187 44 289 136 106 77 
215 929 236 102 78 57 
278 752 323 175 122 92 
83 594 299 33 53 108 
164 363 303 50 71 89 
346 666 270 83 109 141 
362 655 281 86 112 151 
112 305 332 53 39 42 
203 963 224 160 125 86 
141 732 323 129 68 96 
258 809 274 213 150 121 
164 875 330 170 130 107 
244 820 239 239 182 144 
166 631 362 139 135 145 
76 349 265 65 86 104 
181 258 233 129 126 127 
199 347 337 51 74 100 
186 256 301 102 104 110 
240 317 259 127 128 133 
135 669 260 140 141 150 
328 69 239 82 54 24 
169 563 192 213 208 219 
297 133 246 123 114 106 
95 679 223 89 103 132 
60 441 308 116 135 156 
188 41 288 137 107 80 
300 241 362 144 138 138 
301 807 280 229 164 138 
197 389 212 62 94 126 
306 180 335 133 36 68 
254 558 327 66 69 74 
88 652 246 91 99 112 
188 42 289 139 108 81 
340 629 265 143 154 173 
196 272 317 70 101 127 
263 153 245 153 117 102 
136 417 336 94 102 127 
199 210 274 86 58 52 
186 737 343 237 214 199 
226 849 272 160 118 94 
154 264 232 142 135 132 
205 312 357 84 99 116 
205 23 325 112 73 53 
146 337 334 87 80 100 
392 642 291 71 111 143 
221 930 310 134 116 102 
297 256 363 112 137 162 
157 627 215 124 127 135 
189 42 292 132 105 78 
338 21 270 105 96 90 
295 136 330 143 63 5 
115 422 365 135 122 109 
83 273 261 94 100 107 
171 751 330 195 177 165 
252 361 277 135 44 88 
238 543 225 153 165 189 
191 40 292 135 108 81 
145 718 347 181 114 111 
191 41 293 129 101 77 
140 428 196 87 106 130 
278 231 359 96 89 86 
216 344 399 170 68 9 
299 741 319 157 151 152 
156 964 252 110 82 53 
114 578 190 189 195 217 
234 893 296 125 91 64 
76 283 315 129 54 20 
319 25 253 122 113 108 
97 292 324 59 74 96 
200 779 220 145 134 134 
381 634 286 175 174 184 
168 399 306 61 75 89 
320 628 253 94 97 117 
166 727 352 185 158 139 
238 191 296 122 73 64 
273 116 351 117 100 87 
200 892 224 64 53 44 
235 899 280 145 93 70 
170 606 365 192 185 188 
111 648 227 58 79 112 
242 647 213 89 119 146 
150 734 342 153 78 107 
237 424 245 108 121 139 
70 574 319 76 99 147 
275 582 325 113 78 63 
127 657 279 87 93 138 
265 394 314 160 53 92 
69 293 330 122 78 65 
270 665 220 84 114 148 
203 130 269 104 60 7 
95 513 242 84 100 119 
226 338 241 113 127 144 
329 152 309 57 60 87 
187 44 302 103 79 55 
243 790 300 211 142 120 
235 732 216 88 73 66 
294 274 345 104 132 161 
112 666 329 192 128 124 
108 337 340 75 82 91 
87 778 253 116 84 151 
295 682 321 107 25 56 
215 213 294 89 34 54 
163 972 271 127 101 74 
94 577 269 112 110 115 
186 47 302 99 77 51 
156 718 357 180 59 75 
210 934 324 152 116 95 
220 273 381 75 108 135 
104 402 343 97 106 119 
316 586 306 74 76 80 
232 562 235 132 156 187 
171 69 308 118 92 69 
189 43 299 109 84 60 
218 855 246 128 91 63 
279 393 363 151 85 41 
125 476 364 76 97 135 
325 214 331 83 71 106 
151 379 200 81 101 122 
263 817 258 226 168 134 
55 368 285 93 73 97 
262 135 289 99 69 47 
240 209 350 73 0 35 
240 439 250 144 152 165 
273 204 260 120 111 119 
155 790 286 186 162 148 
62 720 201 110 141 205 
298 209 344 58 90 114 
302 568 325 116 98 82 
283 128 365 152 73 6 
198 12 294 132 113 96 
16 685 224 176 172 175 
160 919 238 73 58 45 
197 353 322 71 96 120 
242 217 260 175 54 63 
177 846 256 158 123 94 
277 274 382 158 54 62 
319 203 332 84 67 71 
166 313 321 114 87 55 
201 325 370 117 117 125 
259 809 273 214 153 124 
196 362 324 60 78 106 
196 769 216 203 184 173 
294 561 322 110 98 88 
303 270 325 159 160 169 
344 751 284 203 182 167 
315 655 248 55 83 134 
171 776 306 152 122 110 
138 308 232 81 105 125 
123 617 353 100 126 189 
316 600 256 82 114 142 
147 93 302 116 97 78 
203 944 323 142 107 86 
45 636 264 98 125 161 
241 217 321 64 83 98 
77 359 332 70 50 66 
207 271 237 72 82 94 
96 640 323 156 112 102 
135 326 229 94 107 121 
270 395 330 171 155 146 
253 351 391 196 163 124 
64 379 305 152 111 83 
325 692 254 145 158 175 
231 850 265 131 92 66 
334 190 308 117 38 57 
169 295 323 84 99 116 
248 534 336 156 153 157 
232 907 267 66 53 44 
173 639 209 121 123 128 
125 458 358 125 128 139 
235 141 272 80 57 43 
188 353 309 64 91 114 
197 889 215 61 50 40 
152 156 271 66 56 49 
230 406 236 60 91 127 
244 292 267 88 122 150 
119 675 319 182 122 117 
357 649 350 107 135 191 
120 469 370 101 92 132 
93 644 290 158 102 89 
325 159 317 26 77 114 
222 724 343 184 158 135 
147 592 361 127 149 174 
154 206 296 71 29 33 
71 616 260 90 96 105 
304 266 319 138 128 125 
201 868 228 91 76 64 
103 273 248 119 89 98 
236 515 206 129 141 159 
168 611 211 131 153 183 
94 738 268 116 124 138 
200 332 353 70 85 104 
228 577 252 102 113 127 
177 36 311 117 89 63 
116 563 248 86 99 124 
147 298 327 89 103 119 
320 744 255 163 149 140 
235 221 320 98 95 96 
74 332 266 79 51 74 
224 249 377 106 116 129 
217 684 354 96 76 78 
178 36 311 118 90 65 
101 462 366 168 83 13 
302 577 273 59 84 105 
181 404 199 52 89 119 
49 723 205 206 201 216 
164 469 341 111 120 133 
216 798 228 158 121 80 
178 39 310 120 94 68 
224 454 388 137 158 185 
87 480 353 148 118 84 
61 500 324 189 162 134 
243 827 261 191 143 107 
268 168 369 141 98 73 
37 722 233 153 171 206 
290 744 237 147 130 117 
326 748 262 115 96 76 
120 563 206 100 117 136 
201 12 312 126 108 97 
257 590 258 88 111 134 
62 464 293 124 93 64 
267 424 377 94 122 157 
80 301 260 102 63 43 
155 546 225 90 97 109 
183 32 311 124 92 68 
53 674 187 76 117 158 
219 264 252 78 84 93 
69 747 221 146 141 198 
182 35 310 120 93 69 
166 354 207 121 101 93 
215 220 317 73 82 93 
222 593 246 100 100 103 
320 638 328 175 180 194 
284 177 262 131 126 136 
275 681 223 148 150 160 
177 474 360 77 104 146 
246 575 272 52 65 79 
181 38 310 117 93 65 
191 970 230 117 80 56 
97 571 358 79 106 166 
203 690 358 181 75 60 
225 883 273 94 69 51 
173 730 207 162 32 44 
97 293 324 66 71 91 
229 236 332 85 92 102 
261 785 300 212 151 124 
254 425 295 50 90 134 
182 38 310 117 92 66 
78 727 261 84 106 142 
195 841 326 145 109 83 
210 307 233 140 123 108 
145 83 300 108 92 77 
224 605 256 79 91 104 
177 40 310 121 95 68 
144 259 301 62 57 60 
221 804 291 208 139 120 
78 749 218 177 193 214 
236 486 220 94 111 131 
90 711 252 47 59 88 
191 762 323 149 151 158 
237 799 293 200 135 114 
215 969 262 135 105 75 
301 740 317 141 105 74 
162 980 263 157 129 100 
153 140 277 77 64 52 
252 454 282 107 122 141 
179 43 310 119 93 68 
146 237 301 62 33 36 
214 374 225 65 99 128 
257 444 304 87 114 142 
337 63 269 129 103 80 
308 603 355 28 52 100 
311 578 280 66 91 114 
262 451 355 53 76 106 
147 948 280 93 75 61 
65 324 299 125 71 64 
49 734 225 208 207 217 
93 754 214 154 174 200 
131 220 304 58 25 23 
359 719 317 171 31 82 
179 46 309 115 91 66 
245 193 371 28 60 87 
63 538 312 64 95 148 
138 561 221 65 86 113 
254 600 341 57 56 57 
124 727 276 99 114 134 
238 615 235 36 79 112 
199 904 228 71 56 40 
231 215 312 87 39 37 
59 495 316 172 144 115 
165 622 220 115 112 117 
75 696 190 135 144 158 
375 633 311 68 69 72 
121 758 299 104 77 83 
253 215 260 56 78 129 
127 555 366 157 176 200 
236 745 339 198 155 133 
112 653 300 143 95 87 
196 986 256 152 120 89 
295 610 353 107 122 176 
71 395 321 103 59 79 
61 515 301 81 109 144 
201 327 370 136 130 131 
229 838 268 171 122 93 
283 174 363 104 91 107 
106 573 261 126 121 122 
63 314 305 125 105 100 
212 578 240 131 132 139 
181 45 309 115 88 65 
346 697 269 80 38 41 
184 263 299 99 103 110 
237 885 308 132 102 76 
370 713 291 66 32 48 
62 297 303 149 67 13 
122 451 215 57 88 119 
123 752 291 118 39 48 
63 527 325 172 122 62 
182 45 309 114 87 65 
304 775 245 96 83 72 
251 644 367 180 128 65 
179 310 314 118 104 91 
182 46 308 114 86 66 
207 307 349 65 88 110 
251 605 247 106 123 142 
183 47 308 114 86 67 
69 536 279 132 133 141 
184 32 311 119 87 66 
133 764 300 139 121 116 
219 376 394 111 109 116 
109 610 353 197 207 224 
99 317 339 144 92 93 
118 440 368 141 126 113 
11 677 216 76 99 164 
185 34 309 117 90 66 
338 70 263 143 113 97 
193 747 334 225 196 171 
206 439 366 125 131 146 
168 856 273 138 108 82 
167 421 316 60 72 85 
311 617 349 111 135 176 
205 611 238 50 79 105 
288 126 344 102 91 86 
279 196 366 107 106 113 
80 342 329 90 59 53 
144 301 327 77 95 114 
172 708 362 148 57 69 
248 519 339 107 127 152 
147 461 190 113 132 159 
362 704 325 175 44 60 
155 423 190 103 117 136 
162 880 329 177 132 112 
117 660 301 144 99 95 
107 667 321 168 106 104 
149 773 299 178 151 139 
184 39 309 114 90 67 
321 695 252 154 160 173 
209 848 307 142 98 68 
208 238 259 128 123 122 
215 903 324 186 140 113 
259 324 282 124 134 148 
83 718 198 168 160 184 
336 24 297 152 115 96 
300 592 332 87 63 51 
263 604 354 142 158 195 
98 648 229 97 103 114 
18 692 228 91 112 173 
186 39 308 117 90 67 
62 288 253 154 123 98 
208 296 365 121 68 4 
178 743 206 115 109 108 
113 600 355 140 154 198 
160 437 317 25 55 76 
269 810 240 232 171 135 
111 784 230 96 77 120 
225 499 198 124 127 135 
384 633 296 84 107 131 
255 441 297 119 129 144 
295 275 309 184 180 185 
218 841 240 198 150 113 
94 521 242 60 84 112 
68 428 285 103 82 95 
92 386 344 49 69 87 
203 732 210 91 71 58 
189 34 309 113 87 65 
282 287 294 162 169 185 
186 545 189 126 152 189 
158 360 306 56 78 97 
197 898 335 91 72 62 
289 624 326 70 97 128 
228 419 233 64 98 128 
190 32 310 163 146 141 
278 135 311 94 91 88 
222 454 214 73 96 120 
275 166 252 63 87 117 
211 371 392 115 100 132 
257 278 281 89 126 157 
350 42 246 165 146 132 
206 311 329 119 123 132 
116 363 347 71 98 124 
67 386 335 70 109 141 
86 743 208 170 173 199 
189 38 305 121 91 67 
124 432 221 97 113 132 
95 370 342 57 76 92 
347 44 279 218 189 194 
223 873 296 138 98 72 
59 508 316 188 158 128 
243 756 330 213 151 122 
329 79 269 130 107 83 
194 876 336 168 127 109 
63 337 282 107 95 102 
278 221 267 114 108 126 
184 407 346 73 90 116 
107 334 339 69 63 63 
181 776 310 170 155 144 
133 692 272 101 114 142 
327 88 241 176 140 123 
283 119 340 97 78 58 
158 437 188 143 147 155 
112 258 246 136 90 81 
175 228 279 72 35 38 
172 819 245 204 146 115 
291 574 290 68 75 85 
171 138 259 118 103 94 
318 53 239 127 113 100 
160 745 207 81 102 121 
250 673 213 105 120 140 
276 276 381 160 0 64 
222 921 239 69 54 42 
186 41 307 118 92 68 
236 396 248 67 96 125 
114 368 248 137 134 136 
92 783 258 193 38 76 
47 736 234 48 71 176 
310 793 294 205 144 116 
265 240 366 61 89 114 
303 160 327 52 61 70 
251 361 388 184 78 4 
217 516 372 109 135 175 
266 427 377 58 89 148 
296 662 321 98 131 161 
205 225 283 95 85 91 
83 529 254 110 118 130 
135 460 348 125 127 136 
55 613 220 97 115 134 
267 599 339 58 73 87 
185 40 309 114 89 67 
127 675 301 55 66 100 
173 516 192 132 139 177 
122 366 238 135 132 134 
184 42 309 114 89 67 
188 332 310 70 87 111 
254 470 289 64 103 141 
62 723 248 98 115 161 
340 680 326 144 53 72 
365 696 327 147 115 130 
131 733 296 122 29 36 
367 626 315 94 82 70 
317 658 313 101 128 155 
66 688 242 66 78 121 
393 668 308 144 167 225 
267 357 379 193 159 122 
110 397 248 97 119 142 
63 320 305 140 95 93 
224 484 203 120 126 136 
122 648 270 102 101 142 
281 711 231 133 35 33 
133 560 214 96 117 140 
196 480 358 83 101 120 
98 751 275 136 127 134 
99 682 227 76 98 126 
105 581 219 86 108 131 
300 277 319 156 155 161 
312 728 248 117 115 115 
300 691 314 129 56 60 
187 44 305 110 86 62 
104 579 359 119 146 189 
92 468 256 79 105 130 
162 858 287 111 88 62 
188 449 354 121 136 157 
45 647 267 95 115 171 
322 674 252 118 132 151 
164 765 314 136 106 83 
147 883 300 143 103 77 
252 188 309 68 54 64 
330 760 268 187 163 142 
142 738 332 156 92 110 
108 398 249 95 118 142 
234 458 386 144 159 187 
122 465 210 140 143 151 
268 406 339 158 24 79 
185 321 311 83 97 115 
246 242 277 174 80 27 
224 236 360 61 72 84 
220 899 235 74 57 44 
196 716 207 81 76 105 
183 50 288 124 99 72 
21 684 192 205 196 197 
180 370 207 83 105 127 
181 55 288 129 102 76 
231 631 366 120 72 61 
244 202 351 63 31 46 
310 59 254 96 83 70 
257 558 324 90 85 85 
191 873 336 163 113 96 
224 508 193 127 132 142 
116 457 226 82 105 128 
281 124 254 130 112 95 
185 577 364 107 136 165 
360 616 274 89 105 135 
200 545 367 127 153 183 
140 931 289 75 60 50 
125 677 238 93 102 130 
175 363 311 40 65 86 
235 208 371 104 44 57 
353 44 250 173 155 144 
183 55 290 124 100 77 
221 395 393 108 129 162 
123 636 196 158 174 206 
132 200 303 99 73 70 
172 680 200 84 146 197 
18 696 221 162 168 183 
226 250 346 63 84 102 
266 805 234 229 169 133 
