ply
format ascii 1.0
comment Created by CloudCompare v2.11.1 (Anoia)
comment Created 2/28/22 9:45 PM
obj_info Generated by CloudCompare!
element vertex 2029
property float x
property float y
property float z
property uchar red
property uchar green
property uchar blue
end_header
108 692 225 64 83 107 
51 668 172 108 71 64 
40 714 215 101 128 197 
86 713 185 166 192 223 
212 771 225 171 158 152 
80 663 226 85 70 66 
172 792 295 146 129 115 
84 599 305 95 112 161 
224 854 250 133 96 66 
72 454 343 189 160 130 
185 256 374 61 70 78 
303 735 333 158 125 87 
261 251 332 163 160 164 
73 246 303 133 78 26 
132 393 334 36 54 77 
255 281 331 97 126 155 
180 962 233 135 99 60 
232 456 396 94 127 184 
74 246 300 117 98 74 
133 705 317 132 161 191 
259 521 272 123 133 152 
145 373 213 101 112 128 
135 694 240 120 127 138 
192 376 409 138 115 113 
261 591 340 123 87 76 
258 625 237 82 102 120 
194 920 233 78 60 40 
285 568 343 143 106 88 
225 563 239 174 180 197 
79 248 289 105 96 88 
259 23 333 116 91 71 
211 266 416 136 136 142 
254 265 298 160 156 159 
68 625 220 84 101 119 
76 583 330 131 141 180 
144 552 198 69 116 152 
359 672 356 161 181 206 
151 426 335 37 62 83 
213 848 304 161 119 89 
133 739 290 47 53 103 
211 265 415 131 132 139 
174 272 369 124 122 126 
78 250 290 102 96 90 
134 646 194 131 147 183 
315 718 259 163 140 113 
59 301 272 136 63 3 
130 414 347 70 84 101 
158 735 341 122 118 133 
77 249 292 93 88 84 
82 599 315 119 141 195 
120 289 325 103 105 112 
216 399 214 75 101 126 
134 470 201 144 150 162 
77 249 294 109 101 94 
153 458 190 78 108 146 
188 792 228 98 88 80 
95 369 334 46 67 87 
228 170 364 33 34 44 
236 393 265 47 86 136 
251 641 371 192 141 75 
207 397 206 65 97 127 
118 347 339 71 97 120 
192 839 297 134 102 77 
314 765 266 144 130 120 
180 853 336 140 110 86 
367 623 357 84 73 62 
125 432 225 55 87 113 
283 119 317 82 67 50 
78 251 292 94 87 81 
218 215 267 94 51 60 
188 249 329 110 112 119 
269 671 363 140 54 47 
168 486 375 138 153 170 
150 132 265 93 77 59 
139 357 348 68 75 89 
138 439 200 69 96 121 
94 615 299 52 71 140 
172 364 401 145 127 110 
308 92 266 172 121 87 
284 32 294 112 82 66 
139 488 200 90 122 157 
235 404 407 86 106 127 
129 386 359 100 128 154 
238 413 377 86 106 148 
37 650 221 56 84 121 
219 604 253 71 68 72 
239 917 270 60 48 39 
257 620 240 42 87 118 
227 443 403 104 127 169 
176 451 360 91 98 128 
237 275 401 173 147 120 
75 302 281 137 68 18 
285 188 318 121 103 140 
205 882 231 67 56 47 
75 258 331 96 84 75 
237 348 400 180 152 124 
191 316 218 132 42 64 
274 202 323 129 93 89 
176 590 212 74 114 147 
225 642 218 94 29 28 
225 184 334 91 30 44 
283 684 341 141 54 50 
77 255 293 118 84 40 
67 535 296 54 89 140 
76 255 295 118 68 22 
77 254 294 116 76 34 
106 443 246 74 98 123 
292 155 344 83 45 49 
146 722 347 125 115 129 
145 297 238 79 102 123 
244 363 274 127 137 154 
130 515 355 68 89 115 
279 112 319 84 70 56 
135 383 353 56 67 84 
266 238 330 97 132 160 
381 676 306 112 125 160 
283 557 328 117 109 104 
328 732 332 100 97 100 
67 539 339 189 69 7 
165 982 259 156 130 106 
207 600 363 169 125 128 
259 525 273 107 124 145 
76 459 341 163 132 98 
221 623 232 74 106 139 
238 788 314 216 152 131 
79 571 341 192 65 105 
250 639 226 66 92 115 
152 163 288 71 54 37 
130 687 192 196 195 203 
167 793 227 215 178 113 
144 684 333 129 149 172 
186 741 212 33 44 58 
75 251 300 117 66 21 
235 495 381 142 167 199 
259 736 231 120 110 104 
96 361 248 150 143 141 
126 371 356 143 145 154 
229 751 223 117 100 85 
150 323 320 75 68 82 
255 502 302 89 108 128 
80 353 329 69 51 56 
209 293 419 146 7 61 
197 681 365 162 110 76 
188 842 255 165 125 94 
130 677 227 130 133 142 
173 872 338 177 129 112 
138 701 250 121 127 141 
238 885 295 113 82 64 
63 357 281 119 76 84 
282 666 232 66 104 143 
75 253 300 120 73 20 
54 633 198 97 116 137 
269 35 321 141 123 117 
202 814 294 171 120 100 
73 689 227 57 70 118 
180 688 205 83 155 209 
250 396 298 74 105 144 
101 737 198 222 213 221 
392 640 355 41 94 157 
135 713 324 151 40 72 
253 671 221 110 136 164 
82 619 250 95 103 112 
223 961 259 99 75 53 
305 808 280 237 171 138 
244 688 221 124 145 175 
229 625 233 95 73 52 
355 655 360 120 147 187 
134 757 210 143 15 38 
59 398 279 118 73 96 
149 769 301 176 152 135 
233 448 372 101 120 147 
214 367 418 165 149 138 
201 809 295 180 129 107 
160 420 189 103 116 133 
131 423 217 92 105 120 
86 290 262 41 73 106 
199 970 296 107 86 70 
203 430 195 92 109 128 
170 852 327 144 114 88 
139 386 323 24 47 64 
201 643 377 93 113 133 
285 683 339 139 115 85 
373 705 306 113 122 147 
155 536 210 86 99 116 
188 131 260 114 88 68 
170 577 204 123 160 197 
238 376 397 174 65 1 
261 604 361 129 142 160 
157 264 327 88 85 86 
303 755 256 127 105 81 
72 240 307 138 77 16 
72 241 306 138 84 25 
179 321 214 101 112 123 
245 421 292 92 114 146 
253 383 323 149 136 129 
187 686 370 125 55 56 
274 555 334 100 87 78 
210 308 229 159 121 80 
199 353 417 176 76 8 
72 242 307 141 78 16 
251 770 232 146 131 120 
181 293 337 96 91 96 
98 610 284 88 105 125 
100 649 315 160 115 106 
134 516 209 133 144 161 
119 330 334 65 80 99 
382 671 306 155 166 182 
119 366 243 154 149 150 
72 243 308 142 78 22 
116 575 235 74 93 123 
54 350 268 155 46 82 
134 697 297 133 150 171 
226 331 247 151 118 82 
241 599 354 130 90 84 
90 495 247 50 81 111 
60 334 260 166 91 91 
144 922 276 89 74 62 
137 801 243 170 149 139 
145 666 337 121 130 152 
193 353 209 113 120 131 
74 242 310 137 71 19 
136 774 291 179 159 141 
251 465 304 60 92 136 
265 54 301 87 72 56 
278 113 320 84 70 56 
165 515 196 168 177 200 
288 603 252 91 110 129 
114 388 246 120 132 149 
229 648 217 151 149 153 
149 462 357 84 106 143 
73 244 304 137 79 29 
143 147 298 83 66 48 
341 740 331 186 166 151 
233 926 252 72 55 42 
130 718 257 51 77 122 
225 493 196 77 101 125 
141 728 319 86 55 104 
250 370 291 100 121 146 
106 272 317 82 37 36 
299 618 247 114 129 147 
168 942 244 115 88 61 
133 373 358 80 92 110 
262 248 362 90 130 163 
161 371 354 54 77 98 
68 707 181 150 165 215 
70 476 274 103 116 133 
72 244 308 142 77 22 
137 458 343 108 111 118 
145 649 199 111 125 145 
243 555 239 148 162 183 
189 879 343 146 100 79 
61 415 285 161 158 163 
262 557 339 93 88 85 
237 397 266 60 98 138 
144 689 338 115 134 155 
76 619 179 126 129 136 
158 880 268 149 72 32 
128 532 217 112 115 122 
243 783 236 146 104 69 
189 987 275 71 43 32 
183 271 337 63 88 110 
160 367 372 50 79 128 
111 337 337 103 105 115 
79 549 270 131 135 146 
69 306 265 147 33 29 
308 671 246 100 118 143 
64 489 328 118 81 103 
258 251 369 148 145 149 
70 406 299 78 120 154 
139 741 320 121 98 83 
75 245 312 132 79 51 
220 178 379 89 59 49 
146 153 256 115 65 17 
222 904 322 187 136 111 
104 443 248 99 115 134 
258 558 282 89 97 107 
77 241 313 125 73 26 
186 240 330 81 94 108 
135 527 211 161 159 164 
64 344 281 98 77 98 
253 362 330 169 74 16 
247 620 240 55 60 65 
259 189 408 71 103 128 
311 631 333 118 147 176 
287 739 344 140 137 137 
269 236 345 91 137 173 
290 123 291 138 120 101 
184 407 191 59 93 122 
43 698 179 95 99 125 
154 108 300 97 79 61 
210 558 366 82 115 159 
244 472 270 141 144 151 
176 692 364 119 66 73 
145 666 339 95 104 135 
290 642 330 119 148 177 
205 288 229 117 127 140 
58 631 241 72 75 84 
197 239 374 88 84 83 
351 661 357 125 160 193 
120 569 228 47 77 109 
348 724 285 136 82 74 
76 247 313 122 82 55 
115 461 225 101 113 128 
69 621 182 98 103 111 
100 286 327 103 66 55 
36 679 173 139 55 93 
287 28 335 141 126 116 
152 646 201 105 118 134 
324 585 304 71 95 115 
79 245 315 112 95 85 
275 805 248 233 171 136 
254 517 236 118 133 155 
149 896 306 161 119 92 
165 136 267 94 83 75 
243 291 267 105 124 144 
350 723 338 57 42 93 
79 246 316 107 102 103 
207 196 330 65 64 66 
240 378 386 177 77 1 
204 684 361 192 65 31 
120 358 346 96 90 102 
141 692 311 111 125 145 
195 482 186 136 147 170 
351 677 353 147 166 190 
342 661 342 117 137 160 
162 375 197 117 123 133 
187 215 320 111 47 11 
338 770 301 217 196 179 
314 733 327 127 111 99 
350 595 293 112 117 125 
136 709 311 130 143 161 
88 635 175 175 177 189 
348 597 305 94 112 131 
81 612 222 57 90 116 
215 405 412 168 175 190 
102 568 351 152 157 171 
180 914 346 179 141 117 
72 248 309 137 76 32 
157 930 249 129 100 66 
214 371 220 105 116 131 
197 484 383 119 138 179 
108 422 247 148 123 99 
162 383 364 113 122 134 
144 912 267 95 84 74 
37 706 223 36 86 156 
73 250 308 136 85 60 
185 869 252 79 63 51 
158 332 374 115 121 132 
169 370 197 121 123 129 
73 250 310 135 86 62 
322 784 280 160 117 81 
221 593 243 126 126 131 
315 788 272 173 124 91 
68 507 278 61 106 140 
232 212 286 114 40 32 
174 927 341 194 150 126 
260 254 354 108 73 87 
375 637 364 152 159 173 
212 385 416 138 104 65 
167 668 367 153 175 201 
256 542 325 93 108 125 
176 679 202 154 71 98 
235 439 382 97 122 149 
291 793 313 191 142 114 
74 445 276 118 73 81 
92 617 177 134 157 191 
284 162 370 35 60 90 
155 557 362 142 160 187 
213 191 327 75 70 68 
148 561 190 110 121 135 
143 697 265 86 94 139 
109 364 343 66 98 126 
167 881 265 105 82 51 
168 328 403 109 136 162 
189 814 284 173 126 102 
138 711 338 143 76 98 
101 543 353 145 126 109 
140 501 347 106 112 122 
108 633 325 117 131 155 
139 741 304 111 99 97 
211 805 234 189 131 92 
279 117 319 81 67 53 
295 696 337 91 90 98 
247 443 296 88 112 139 
177 793 228 132 124 122 
234 879 280 136 84 60 
289 189 353 68 40 73 
327 770 322 106 113 126 
360 620 364 84 105 130 
285 149 279 173 69 1 
203 949 325 141 107 87 
235 167 325 35 47 56 
180 765 322 149 138 132 
81 656 258 150 103 83 
230 356 417 184 156 126 
62 400 327 76 88 107 
217 273 416 169 158 149 
114 530 226 70 88 110 
213 938 240 134 100 57 
292 115 300 88 70 50 
159 304 380 78 70 62 
256 155 273 144 91 78 
285 113 313 78 67 57 
184 488 370 87 111 148 
130 737 201 121 54 52 
181 142 278 96 76 55 
184 372 199 66 93 123 
212 943 322 140 110 90 
235 504 377 92 122 176 
136 380 352 58 70 86 
77 285 275 128 112 105 
275 709 235 150 36 33 
352 649 360 84 118 149 
189 916 346 186 151 127 
213 419 406 89 115 172 
247 400 358 156 111 114 
145 730 331 148 52 81 
64 423 322 88 38 50 
77 250 314 115 107 109 
171 927 341 188 144 121 
240 277 389 171 139 103 
234 419 406 62 94 158 
163 383 195 88 108 129 
161 75 265 147 113 87 
240 423 268 108 127 149 
246 342 354 182 161 143 
209 694 359 177 69 23 
79 248 316 112 102 98 
259 12 329 109 95 85 
308 667 246 116 125 142 
251 563 349 97 86 79 
78 251 316 105 64 54 
248 120 283 113 100 89 
106 256 323 54 38 43 
48 690 173 221 203 204 
85 407 255 146 78 100 
254 280 346 126 139 156 
82 279 327 81 82 87 
175 952 230 111 87 58 
260 107 310 90 74 55 
208 869 337 172 131 104 
276 635 234 101 111 125 
150 343 216 111 121 134 
112 328 335 112 110 116 
213 803 301 197 127 109 
245 475 292 118 127 144 
269 225 326 129 68 101 
144 680 251 108 114 143 
125 412 234 112 118 129 
139 720 282 135 147 164 
206 712 353 89 86 103 
62 680 235 101 121 161 
52 320 261 65 85 122 
61 623 199 80 111 138 
185 355 409 139 124 119 
212 780 228 175 157 147 
211 492 382 97 124 169 
160 550 370 124 154 191 
169 432 356 86 94 129 
245 642 223 53 60 73 
238 919 309 131 108 87 
191 901 226 68 54 39 
125 774 217 167 6 31 
237 392 268 82 111 141 
144 440 338 33 47 60 
276 574 342 148 109 92 
143 131 299 92 75 55 
295 811 274 243 178 140 
119 282 320 100 89 85 
78 252 318 103 61 52 
328 712 332 52 50 63 
241 576 356 108 75 83 
261 566 299 76 80 86 
249 132 389 118 106 95 
365 725 322 206 158 138 
157 177 281 76 55 48 
161 560 188 163 163 169 
118 368 244 140 138 141 
78 255 318 81 55 44 
78 255 319 78 54 48 
190 941 235 68 58 48 
77 442 340 157 129 97 
82 231 295 153 88 50 
162 971 240 133 99 64 
211 790 230 176 139 93 
236 944 270 131 104 75 
260 635 230 71 94 118 
103 650 329 181 120 119 
193 293 223 105 92 80 
87 224 295 78 59 39 
237 131 291 97 70 42 
273 217 356 119 90 102 
321 633 344 53 84 150 
238 529 351 72 103 141 
121 604 188 71 111 146 
269 650 228 105 123 148 
158 331 353 88 92 100 
261 520 312 122 129 141 
280 115 317 80 66 51 
265 601 334 62 67 74 
211 430 201 140 143 151 
215 564 226 140 169 200 
190 244 359 90 96 105 
256 172 289 110 43 75 
126 493 209 134 141 154 
144 681 256 88 102 143 
92 534 352 169 150 138 
138 342 230 116 111 112 
259 568 288 65 74 85 
236 292 257 114 123 138 
242 444 273 149 155 167 
93 332 331 70 83 96 
240 317 386 163 136 105 
251 879 291 147 118 94 
327 730 272 61 73 88 
109 573 219 81 107 132 
223 728 222 171 123 78 
340 671 269 150 151 160 
224 872 317 172 125 97 
69 277 299 107 93 81 
247 441 298 73 99 134 
255 288 329 124 138 157 
197 236 363 103 98 95 
124 586 356 87 124 181 
289 599 339 75 84 95 
244 153 320 75 62 49 
269 131 363 118 96 81 
312 575 340 116 97 78 
156 96 303 100 81 64 
232 457 368 87 105 140 
81 226 299 112 74 50 
228 915 241 105 82 59 
114 743 267 97 112 129 
148 334 222 134 131 133 
77 725 191 140 172 215 
234 173 331 54 52 51 
223 564 241 163 170 192 
286 558 339 114 98 86 
265 91 289 112 91 68 
135 661 231 109 116 138 
198 334 217 101 94 107 
103 337 248 85 75 72 
242 732 358 120 129 141 
82 227 298 113 68 46 
72 347 302 122 84 100 
156 510 355 98 115 141 
184 235 313 105 103 104 
351 597 300 105 114 126 
255 692 366 134 109 106 
252 404 336 108 127 152 
140 726 323 168 41 57 
253 417 323 99 122 153 
87 576 277 108 113 126 
115 596 351 99 126 187 
156 889 251 151 118 76 
140 322 349 92 101 113 
40 714 197 146 148 185 
251 491 287 103 121 141 
240 153 386 43 61 84 
83 224 300 108 77 56 
186 830 255 184 136 102 
354 614 356 114 93 70 
119 649 232 65 87 118 
279 802 295 193 141 116 
233 216 414 129 80 76 
81 228 298 121 73 53 
176 344 326 79 90 108 
158 350 390 120 106 87 
281 661 337 63 112 144 
260 641 364 146 124 100 
172 624 219 119 119 125 
182 292 329 118 120 129 
235 417 387 124 141 167 
257 655 223 112 135 160 
73 376 278 88 51 90 
290 17 306 96 83 71 
166 572 190 105 131 164 
190 213 284 41 50 67 
183 224 323 102 78 62 
231 874 276 120 92 69 
243 786 317 215 153 130 
131 752 306 100 61 66 
36 700 223 87 125 169 
215 424 405 151 166 190 
403 650 323 182 189 203 
125 505 358 80 94 146 
222 905 235 54 47 42 
140 577 354 91 116 166 
251 298 282 92 134 167 
147 903 301 130 100 77 
238 841 263 204 157 121 
183 719 359 53 41 91 
238 319 393 176 149 122 
283 709 239 132 140 153 
260 574 293 64 71 79 
242 396 279 46 88 135 
174 338 207 112 75 69 
187 315 415 198 165 129 
253 178 411 114 97 112 
62 391 328 65 96 121 
194 221 383 99 43 59 
390 636 344 81 72 64 
42 666 242 107 117 164 
316 633 341 143 154 181 
205 688 211 183 182 193 
276 689 232 144 154 170 
238 420 380 72 98 147 
242 431 363 99 117 150 
73 738 240 108 113 157 
251 473 312 75 104 135 
80 234 294 125 78 62 
293 583 341 120 83 67 
128 445 211 76 100 123 
175 956 326 102 85 74 
71 337 304 120 84 94 
238 454 363 136 143 157 
217 276 417 159 130 92 
190 430 397 169 182 200 
378 617 300 89 103 118 
82 233 295 141 84 53 
244 314 362 176 152 129 
173 372 197 108 117 129 
61 741 225 52 73 170 
187 867 250 76 61 49 
82 235 293 119 55 38 
102 605 276 32 51 79 
279 816 267 245 185 146 
195 798 303 189 137 120 
137 719 315 119 147 176 
81 238 291 127 64 40 
81 239 291 126 67 48 
102 642 328 134 100 88 
192 741 213 80 56 38 
246 697 223 159 174 194 
233 556 361 121 139 176 
146 651 342 111 108 120 
371 625 357 79 73 69 
177 320 323 102 107 117 
281 755 335 176 126 96 
39 702 234 64 91 163 
306 92 277 160 125 108 
69 539 293 101 111 140 
300 661 241 94 106 125 
310 651 321 102 130 157 
146 156 296 60 50 40 
235 497 380 165 183 207 
209 125 269 96 88 81 
282 679 233 138 145 158 
212 191 378 78 42 37 
165 971 254 95 64 47 
197 745 215 80 66 54 
214 199 334 51 76 96 
81 239 292 124 65 45 
176 602 366 189 180 179 
103 712 189 84 109 146 
349 636 368 61 99 175 
173 281 398 73 100 123 
292 591 328 60 57 62 
168 620 366 160 158 161 
203 330 220 131 53 75 
163 89 303 93 75 57 
166 418 355 78 95 126 
305 643 245 108 118 134 
264 785 237 147 107 69 
100 656 227 77 91 109 
140 560 193 92 121 147 
227 891 309 168 118 90 
157 772 303 206 173 144 
87 234 289 68 58 48 
369 695 297 141 155 174 
87 235 289 57 49 43 
238 194 278 128 59 85 
70 472 276 124 129 140 
183 268 326 63 97 123 
118 784 224 205 102 95 
181 897 230 72 60 49 
173 336 409 155 108 83 
160 595 204 113 118 128 
139 741 308 112 65 66 
156 555 364 123 145 180 
129 336 350 124 128 137 
323 685 257 34 35 68 
293 123 334 111 100 90 
249 470 330 152 150 157 
219 655 214 140 144 155 
164 168 281 87 69 63 
86 233 292 89 52 40 
170 865 282 123 97 70 
238 265 406 127 138 150 
87 745 258 151 160 175 
45 708 187 149 158 204 
230 185 395 109 50 55 
67 490 342 151 4 59 
266 221 381 88 106 126 
171 221 287 28 35 45 
72 427 339 140 16 62 
259 743 232 127 113 100 
224 321 243 124 82 35 
222 331 242 161 119 65 
185 294 222 122 125 130 
85 238 288 48 50 55 
247 748 227 159 144 135 
273 214 334 139 94 96 
236 652 361 140 83 64 
200 561 199 153 164 188 
86 236 289 55 50 46 
348 751 300 179 157 139 
164 84 275 113 88 57 
87 236 288 51 49 48 
86 236 290 110 54 41 
186 485 369 53 65 95 
255 130 375 105 93 84 
144 589 355 97 119 164 
204 906 228 52 44 37 
161 961 242 121 92 60 
92 599 284 113 126 143 
219 787 232 144 101 60 
187 647 209 135 134 137 
115 614 345 126 157 204 
90 225 291 58 65 72 
182 937 240 99 67 40 
176 820 258 202 145 114 
341 670 338 112 134 157 
381 631 347 91 78 65 
140 363 348 61 66 83 
166 798 285 100 80 67 
241 467 269 96 113 132 
161 530 207 91 97 105 
241 578 266 60 78 95 
283 64 280 116 102 88 
90 226 291 52 55 61 
90 227 290 55 49 47 
143 912 288 69 56 48 
245 329 363 149 27 73 
349 691 345 116 135 153 
299 653 241 102 117 137 
89 225 293 77 80 86 
391 651 357 107 139 168 
279 673 352 111 40 81 
287 699 239 181 49 61 
61 702 230 17 31 91 
278 645 344 82 125 159 
176 735 208 158 109 70 
254 593 345 116 77 67 
62 346 262 155 29 56 
208 942 327 150 108 86 
194 473 385 128 145 178 
107 407 248 158 112 60 
87 561 347 160 139 119 
193 11 325 120 98 86 
356 726 334 126 144 164 
265 55 312 93 75 54 
69 561 333 133 93 53 
219 181 317 92 52 42 
273 736 351 185 183 188 
297 580 288 73 102 127 
179 290 338 78 76 88 
313 66 268 161 145 135 
33 691 225 75 98 172 
89 230 290 71 61 53 
213 282 236 124 132 145 
232 792 237 147 110 70 
103 352 247 84 116 143 
230 841 249 206 157 121 
32 680 229 54 102 156 
192 302 418 138 65 38 
204 426 197 126 131 141 
241 625 369 57 49 86 
310 610 358 132 153 183 
237 131 371 133 66 21 
168 301 351 103 103 108 
241 458 355 136 139 149 
178 972 288 117 91 66 
256 267 317 85 118 147 
229 788 314 216 154 134 
234 139 293 123 61 5 
111 494 361 154 124 129 
246 140 387 129 66 1 
212 867 238 103 79 60 
187 353 410 160 64 28 
68 269 315 101 91 82 
279 100 314 105 86 64 
73 742 211 236 228 237 
135 577 185 153 157 167 
121 361 243 107 64 66 
166 623 211 140 151 175 
128 656 222 118 130 145 
80 225 314 108 80 53 
100 599 235 78 104 131 
80 226 314 109 75 44 
260 527 291 129 134 144 
170 319 330 86 99 115 
234 211 287 126 46 52 
280 25 336 143 130 122 
61 431 325 142 142 148 
272 201 310 149 126 127 
68 488 343 159 19 67 
129 276 320 85 82 83 
61 430 281 122 137 157 
182 897 343 190 137 123 
265 751 341 209 154 122 
285 167 293 185 114 91 
229 856 285 170 124 97 
210 876 233 75 60 45 
247 310 351 134 119 128 
379 631 338 86 75 66 
161 515 369 150 164 188 
239 384 392 172 74 3 
226 511 381 181 186 199 
131 692 234 78 92 133 
29 660 213 29 67 119 
187 645 367 86 98 114 
82 226 319 111 62 25 
237 223 408 87 47 62 
163 437 350 98 110 130 
210 245 414 141 141 146 
31 687 224 102 114 176 
211 21 309 132 109 97 
69 358 286 69 87 110 
173 501 376 173 180 193 
154 629 200 92 135 186 
217 444 202 88 105 123 
236 437 247 165 165 172 
136 384 352 50 64 84 
72 343 304 119 77 79 
176 70 301 84 67 49 
117 293 325 89 100 114 
265 770 327 209 148 118 
81 228 319 122 58 13 
246 525 339 167 162 166 
230 312 249 137 148 163 
363 706 345 174 41 61 
221 967 255 124 100 75 
71 290 270 106 89 76 
237 887 264 79 61 49 
268 228 364 71 116 150 
67 512 343 204 172 138 
250 261 286 111 119 131 
236 191 409 110 50 61 
181 573 209 210 207 216 
235 474 382 107 130 165 
301 689 330 123 78 77 
245 121 288 95 86 77 
203 191 314 74 69 67 
118 573 249 99 105 115 
235 307 256 139 140 146 
84 357 255 111 96 91 
210 296 419 145 9 68 
315 708 258 97 112 139 
273 219 351 118 84 102 
286 115 320 83 69 55 
291 149 352 64 60 87 
90 768 221 185 114 143 
340 599 331 93 83 74 
84 701 180 209 209 222 
240 809 240 204 145 106 
251 221 404 129 122 120 
86 229 319 127 57 17 
126 758 209 139 129 132 
245 308 270 127 116 114 
288 99 306 112 91 70 
251 161 279 17 72 113 
86 230 319 124 58 24 
278 691 357 90 101 116 
221 403 413 192 188 192 
349 642 273 49 96 135 
92 594 188 129 136 146 
171 75 304 85 69 52 
226 342 247 123 135 151 
180 740 343 210 190 179 
140 731 199 131 98 120 
235 626 372 147 100 54 
171 242 306 69 76 90 
250 140 322 112 54 7 
247 882 292 131 108 89 
81 232 317 126 61 24 
164 771 308 194 163 133 
81 232 318 125 62 21 
230 372 251 51 95 129 
377 711 323 195 201 214 
137 355 318 38 53 67 
263 567 306 83 80 80 
187 891 343 193 135 122 
167 568 362 167 166 172 
87 386 336 74 90 106 
159 542 369 106 132 166 
140 724 289 130 60 83 
89 592 195 59 89 115 
72 371 314 49 78 108 
134 370 230 129 129 133 
282 131 404 123 110 99 
252 149 270 48 93 139 
242 521 210 101 134 167 
175 631 361 68 107 140 
167 286 376 78 89 102 
212 180 310 70 70 73 
251 134 367 106 89 77 
188 911 345 99 73 56 
80 238 315 122 59 27 
247 238 301 95 108 124 
210 175 280 83 71 80 
352 649 359 83 117 147 
148 372 325 62 69 78 
253 492 251 116 131 149 
300 575 315 100 91 84 
165 383 380 121 123 144 
168 286 373 114 116 122 
185 231 314 93 89 90 
227 877 300 150 107 82 
170 243 310 65 80 95 
169 333 208 141 108 85 
82 236 318 119 72 58 
145 923 304 115 93 77 
217 590 239 131 132 139 
181 701 367 161 47 54 
215 327 232 161 134 105 
105 401 349 92 111 132 
159 548 194 97 120 143 
188 882 345 194 137 122 
272 225 344 147 56 93 
67 358 325 70 74 86 
232 806 299 211 144 125 
85 233 319 123 66 40 
157 751 321 139 136 150 
237 225 285 130 117 101 
254 881 282 151 119 95 
269 226 363 85 118 147 
85 235 319 121 69 51 
87 232 316 112 62 50 
265 66 297 88 74 61 
191 342 211 86 110 131 
157 517 357 94 113 151 
133 791 278 207 181 168 
236 930 305 97 77 65 
214 294 234 84 104 126 
291 120 306 97 80 67 
213 206 350 21 50 69 
270 580 309 87 81 78 
73 623 258 65 104 137 
124 654 287 102 75 77 
111 398 247 164 131 95 
87 235 316 95 64 56 
187 269 334 79 95 113 
108 616 335 156 164 201 
271 781 237 140 106 65 
86 235 318 114 64 51 
267 125 329 87 79 72 
167 304 348 100 106 115 
279 785 312 196 138 103 
128 538 357 68 94 131 
150 390 201 88 104 121 
251 433 311 134 144 161 
92 688 223 61 72 92 
190 931 342 195 144 118 
190 353 412 166 78 4 
192 687 207 63 124 180 
191 826 289 156 114 90 
107 687 186 121 153 184 
289 810 261 237 177 140 
179 424 391 145 165 190 
220 550 369 62 110 160 
245 442 350 107 120 153 
146 932 305 120 94 76 
76 559 345 156 132 110 
162 215 294 55 28 31 
61 497 291 87 96 124 
86 237 318 98 75 69 
295 174 339 172 94 93 
204 846 315 125 91 61 
230 886 302 161 113 87 
84 593 295 122 131 163 
249 223 299 138 39 81 
78 412 341 104 120 139 
169 170 284 94 38 30 
242 389 375 144 130 121 
231 159 376 83 48 50 
221 495 389 105 133 185 
118 644 185 171 172 181 
240 762 226 117 103 91 
126 625 190 89 128 166 
141 347 321 39 54 68 
89 227 315 113 54 30 
246 136 384 136 72 1 
167 857 325 145 114 86 
268 130 371 117 99 85 
213 940 241 148 120 92 
232 152 367 106 13 19 
139 482 346 58 76 102 
70 403 297 93 91 109 
174 484 372 73 100 134 
215 639 217 66 95 121 
136 656 269 78 89 130 
88 632 288 141 96 87 
176 802 289 173 121 103 
144 352 307 50 63 75 
247 483 238 134 141 153 
103 328 329 67 56 48 
245 563 262 116 133 154 
288 193 347 90 40 92 
245 435 351 155 156 165 
242 326 381 155 36 81 
207 208 339 52 56 58 
48 724 227 55 68 165 
241 699 361 149 134 125 
197 778 317 217 162 138 
132 401 342 37 59 84 
230 879 293 139 106 82 
298 655 329 89 130 163 
252 376 309 143 133 126 
232 878 277 105 72 56 
285 664 335 63 111 146 
77 727 243 97 118 154 
331 743 274 167 153 146 
256 230 393 161 159 166 
155 343 348 68 75 90 
386 690 338 153 173 197 
278 155 375 85 70 68 
390 684 339 153 168 211 
219 177 372 73 44 17 
288 702 341 104 90 78 
235 442 370 66 93 140 
92 339 333 70 63 76 
80 566 344 176 153 134 
186 215 342 105 70 49 
98 362 338 80 113 140 
82 680 224 60 69 88 
79 462 262 84 109 136 
318 740 328 151 123 100 
188 844 304 99 77 51 
170 321 406 106 125 147 
121 273 317 73 38 44 
228 627 230 94 80 74 
80 733 195 108 135 225 
141 509 202 170 174 186 
343 658 346 125 142 163 
113 395 350 142 145 155 
147 462 348 85 101 125 
58 652 173 95 111 128 
238 299 383 175 148 119 
348 677 348 114 135 157 
157 600 359 178 179 187 
145 386 209 136 134 138 
184 135 277 93 84 76 
187 547 362 83 117 157 
247 253 284 109 104 101 
245 623 368 84 78 103 
290 123 339 108 97 88 
248 482 247 90 114 138 
245 389 283 92 117 144 
222 692 358 120 122 134 
222 274 244 89 60 61 
234 169 324 37 27 46 
50 658 174 104 123 142 
94 226 312 86 57 48 
66 685 227 97 107 139 
95 226 312 81 58 48 
105 652 329 163 103 101 
48 640 218 55 62 70 
243 546 346 52 84 114 
262 250 335 173 167 169 
250 377 292 77 105 139 
167 293 360 105 100 101 
233 173 349 69 19 23 
83 303 326 46 54 63 
186 249 389 119 107 98 
177 571 363 102 135 168 
108 516 225 148 147 152 
215 700 216 162 178 200 
255 194 409 97 113 131 
115 532 227 77 92 113 
94 229 312 68 50 42 
294 156 344 87 59 63 
185 484 369 50 65 93 
228 144 287 113 63 43 
126 589 183 162 171 195 
69 301 308 60 49 80 
289 147 364 76 64 79 
157 806 241 206 170 132 
211 19 307 132 112 100 
109 588 262 85 96 111 
88 233 315 99 59 46 
68 491 333 147 12 60 
179 449 375 84 84 119 
152 652 344 112 122 141 
309 672 320 107 127 151 
88 234 315 94 59 48 
70 746 233 106 143 188 
118 528 224 71 91 115 
261 532 308 114 117 124 
243 213 410 147 96 92 
215 503 379 96 116 162 
161 954 314 88 72 62 
316 71 249 171 148 132 
133 400 341 37 59 84 
384 639 321 66 85 103 
141 222 302 49 29 29 
155 946 261 100 81 65 
179 860 266 117 94 70 
108 576 222 84 114 141 
144 904 275 76 61 52 
191 240 332 89 91 97 
258 24 328 93 68 55 
286 54 289 104 89 73 
189 937 339 203 147 124 
196 10 312 135 116 105 
88 234 316 101 61 51 
245 241 291 121 62 1 
135 515 208 136 149 168 
154 610 198 87 123 158 
178 704 206 126 144 164 
242 534 218 127 157 188 
88 238 314 64 67 71 
195 762 219 149 126 104 
88 239 314 62 63 66 
88 239 315 62 64 68 
326 593 313 94 103 116 
216 615 371 54 48 77 
252 728 361 110 104 110 
146 326 347 82 80 94 
91 236 313 63 64 68 
199 983 277 90 65 47 
277 37 292 124 105 88 
346 755 318 234 200 168 
282 165 369 53 41 51 
193 807 294 174 120 101 
93 568 262 93 107 133 
272 600 338 36 52 68 
172 301 410 149 152 161 
225 918 316 95 73 53 
185 571 205 174 176 187 
86 575 344 99 120 176 
249 290 277 86 126 159 
204 371 416 138 121 107 
215 964 238 133 107 79 
275 626 239 79 100 118 
113 792 271 112 94 96 
65 482 314 88 123 154 
239 347 393 185 155 124 
94 605 179 82 109 134 
87 641 278 167 115 97 
205 571 233 108 139 170 
233 637 363 169 121 58 
285 147 279 172 75 4 
112 715 244 63 73 105 
243 570 268 81 98 117 
260 543 318 106 118 134 
155 938 257 75 45 33 
250 267 284 111 121 135 
233 864 287 125 97 74 
261 761 334 207 149 117 
235 765 227 172 158 153 
295 79 263 128 94 47 
108 267 245 141 57 73 
175 889 346 178 128 112 
160 334 362 84 97 112 
94 236 313 49 46 46 
79 447 338 123 97 61 
255 264 317 87 113 136 
95 694 226 74 84 101 
144 910 288 63 50 40 
317 684 253 160 165 177 
117 596 352 152 167 207 
146 808 257 190 167 149 
173 162 282 88 70 58 
282 160 374 68 82 104 
300 59 275 124 107 92 
287 814 276 239 184 149 
299 598 258 97 113 129 
137 722 277 113 130 149 
339 650 351 107 125 153 
44 674 238 100 106 155 
190 860 250 89 70 52 
359 723 335 164 132 102 
114 313 248 120 114 112 
143 680 275 56 70 121 
132 678 311 80 67 93 
209 946 322 156 121 103 
145 735 201 102 91 142 
345 680 342 124 62 68 
202 845 318 125 89 60 
157 543 365 96 125 175 
278 67 282 108 94 81 
130 763 211 179 26 49 
82 241 288 76 60 57 
253 412 319 96 116 144 
170 417 383 54 88 155 
251 387 302 102 124 149 
224 415 221 119 127 139 
210 202 371 32 30 47 
388 656 357 213 211 219 
236 409 258 95 115 139 
244 487 344 147 146 153 
263 815 248 223 163 129 
279 580 296 78 101 122 
102 588 187 93 122 149 
219 733 221 81 60 37 
155 883 273 176 124 106 
286 638 332 120 149 178 
99 352 248 78 108 136 
165 293 371 109 117 130 
252 277 283 146 146 152 
348 643 359 92 125 160 
187 326 214 117 113 115 
276 715 359 162 142 127 
205 398 205 48 88 123 
195 570 218 198 198 207 
380 649 294 108 127 175 
311 789 267 175 128 91 
80 242 316 113 78 59 
114 791 246 154 37 77 
151 330 220 135 133 136 
116 265 310 53 31 31 
206 19 293 148 129 120 
249 652 367 167 130 90 
255 143 331 104 42 12 
111 646 339 157 110 108 
253 519 234 131 142 162 
346 716 282 162 0 51 
191 557 363 92 110 156 
234 607 265 77 77 82 
300 564 337 115 99 85 
222 545 205 152 156 178 
205 619 370 124 94 79 
277 89 317 118 95 70 
256 283 298 86 124 154 
246 431 294 96 118 143 
158 806 268 75 93 112 
393 671 346 137 150 196 
193 271 230 153 149 150 
168 807 275 141 116 93 
232 393 249 116 128 144 
276 202 377 107 63 100 
130 522 214 125 131 145 
78 499 258 92 110 129 
236 938 266 111 88 66 
145 369 311 27 44 57 
227 295 414 168 140 107 
229 794 309 213 148 133 
80 362 332 44 73 95 
104 584 190 65 105 137 
245 310 360 184 158 132 
233 455 220 70 95 118 
231 296 252 146 144 148 
207 627 225 73 93 110 
188 698 367 157 53 87 
381 704 324 185 204 229 
198 663 208 134 154 178 
245 910 304 162 130 99 
87 724 250 80 96 122 
225 396 415 151 74 112 
248 286 359 160 145 133 
115 465 223 107 117 131 
72 357 296 106 91 107 
155 318 382 134 110 81 
300 631 244 56 96 130 
319 769 325 124 118 117 
174 278 354 56 47 47 
261 593 338 93 69 59 
273 160 380 60 73 87 
230 231 268 105 114 125 
181 285 414 105 97 92 
95 491 242 53 83 107 
257 14 317 113 97 86 
162 626 364 116 84 95 
72 522 273 109 117 142 
378 697 342 165 192 223 
237 148 376 116 72 65 
93 558 257 109 115 127 
82 610 180 88 107 125 
113 718 191 111 133 157 
80 569 282 151 153 163 
252 604 269 28 83 117 
227 369 248 83 119 150 
163 235 293 41 38 51 
260 196 391 91 44 41 
236 390 410 123 107 95 
83 265 325 98 61 55 
97 598 277 97 106 126 
234 273 408 149 0 68 
196 278 229 107 114 124 
171 352 403 148 135 128 
278 556 333 97 88 81 
213 500 189 101 121 152 
75 546 282 49 75 138 
85 245 317 77 59 63 
74 702 179 176 170 184 
259 103 304 89 74 58 
71 573 330 145 95 64 
128 302 245 133 131 134 
263 73 302 87 72 56 
190 245 364 84 91 100 
160 252 304 75 65 77 
139 339 231 86 72 72 
160 579 363 49 100 140 
315 765 267 129 120 115 
85 246 318 82 56 56 
232 180 342 81 38 38 
254 693 225 168 168 175 
75 262 344 127 120 118 
66 286 268 105 59 22 
86 245 317 70 51 52 
146 515 203 167 169 183 
192 209 310 90 61 66 
119 573 236 77 89 102 
314 726 326 68 68 73 
252 742 230 111 93 81 
195 165 275 54 63 75 
129 623 349 113 137 189 
286 705 346 120 102 94 
80 259 278 125 113 103 
160 672 198 126 152 189 
60 491 293 78 109 138 
291 638 332 118 146 175 
270 194 387 89 42 51 
247 348 279 133 66 95 
209 173 279 82 81 86 
194 18 328 125 88 72 
246 306 272 82 111 137 
317 709 259 128 106 113 
283 128 280 108 95 82 
238 352 264 92 116 143 
218 814 236 161 117 78 
200 910 229 62 48 35 
240 923 270 83 67 53 
214 434 202 101 115 133 
92 613 251 98 119 140 
266 84 291 117 96 71 
270 35 324 135 113 110 
148 688 357 115 147 178 
152 673 196 114 142 187 
289 798 252 200 145 112 
171 282 326 91 99 111 
78 533 347 181 77 13 
127 526 217 146 145 150 
86 249 316 71 55 47 
86 249 317 77 55 46 
234 885 279 99 74 55 
87 249 316 71 57 51 
329 591 345 114 94 73 
243 795 308 212 149 128 
267 561 322 92 86 85 
304 712 328 98 93 99 
135 711 325 129 147 165 
205 352 217 66 90 112 
48 642 241 102 119 155 
66 722 234 112 120 146 
136 697 243 99 112 132 
84 253 319 77 63 49 
161 966 238 139 109 76 
382 685 348 147 172 207 
131 760 210 203 155 87 
84 325 258 110 106 108 
85 254 318 73 61 53 
206 250 415 143 143 149 
77 366 273 52 48 64 
234 371 260 83 117 147 
86 252 317 69 56 48 
262 563 348 137 109 90 
296 20 314 94 85 79 
214 911 331 178 137 108 
83 599 211 102 121 143 
150 404 326 36 48 61 
135 381 227 131 129 134 
345 658 271 114 131 153 
287 82 314 122 98 74 
157 318 379 130 92 43 
228 426 225 83 108 134 
142 341 321 80 85 91 
38 707 226 64 114 172 
176 289 411 111 103 100 
170 361 324 66 88 112 
244 808 241 201 145 106 
202 17 331 137 107 89 
88 242 314 59 50 48 
275 752 236 142 126 113 
120 296 326 73 87 101 
135 390 352 57 72 91 
211 839 299 161 116 87 
249 249 299 108 118 131 
81 612 223 72 97 121 
236 921 256 63 52 42 
242 895 299 121 88 66 
90 243 313 53 41 35 
276 43 291 120 103 86 
195 169 275 68 68 74 
71 614 190 122 125 133 
170 714 206 164 191 220 
144 720 199 181 206 237 
246 914 305 133 103 81 
110 662 322 176 114 110 
68 390 331 138 143 154 
279 650 231 160 157 161 
207 244 413 137 138 145 
193 242 394 110 71 25 
245 399 364 144 133 122 
181 287 321 122 123 128 
159 226 295 42 32 41 
66 707 180 120 143 215 
178 370 198 107 117 130 
69 340 328 119 52 59 
173 580 214 93 148 190 
275 41 317 104 78 59 
253 730 359 166 167 172 
303 673 325 130 44 54 
137 423 206 84 103 124 
292 678 238 81 105 140 
232 631 367 163 102 38 
178 275 321 68 83 102 
123 317 329 70 80 97 
173 945 332 172 128 114 
151 303 231 81 103 125 
384 655 360 135 155 180 
167 70 268 133 106 83 
70 612 205 73 104 131 
279 787 239 156 114 72 
163 169 281 86 66 61 
380 705 333 115 126 179 
79 605 212 81 113 142 
108 405 350 79 107 134 
203 743 217 125 115 112 
182 144 280 109 57 10 
190 396 196 104 116 130 
272 616 246 104 115 127 
95 241 315 62 50 42 
135 311 342 99 110 124 
84 477 344 157 124 85 
226 692 217 104 138 185 
205 704 214 156 178 203 
200 394 202 44 85 123 
100 720 190 220 222 235 
45 642 206 83 96 109 
213 856 246 124 97 72 
306 97 271 169 128 110 
205 955 316 107 82 64 
193 932 238 114 90 64 
201 672 209 99 128 154 
199 577 230 143 147 159 
253 606 361 111 132 157 
235 444 380 113 129 149 
93 247 314 57 49 43 
319 75 250 177 157 144 
94 244 314 54 45 40 
217 538 373 83 102 132 
80 698 179 179 178 185 
174 262 385 115 123 135 
155 593 203 96 118 140 
79 419 264 108 86 97 
272 13 337 118 106 98 
244 428 286 82 107 134 
95 245 316 58 45 42 
178 279 319 93 99 110 
197 912 343 150 123 97 
135 118 294 102 85 67 
92 313 249 106 119 136 
172 965 300 119 91 70 
89 248 314 61 52 46 
214 575 240 78 103 127 
221 865 316 163 119 88 
74 362 306 101 90 99 
123 502 361 41 71 150 
131 749 205 204 0 22 
262 182 407 82 114 142 
253 352 313 152 115 86 
97 286 247 126 102 102 
345 609 357 105 88 71 
84 601 188 62 88 110 
222 186 386 88 31 43 
233 789 237 145 105 65 
156 629 358 151 151 158 
51 729 229 75 70 135 
153 708 201 128 180 220 
188 742 342 204 174 146 
115 666 304 155 103 98 
247 903 295 151 114 94 
233 436 236 140 148 163 
385 635 338 75 70 68 
245 622 239 58 61 67 
268 13 313 118 99 83 
244 284 270 82 114 141 
259 258 329 163 159 163 
383 680 310 131 139 156 
167 661 367 143 164 189 
245 503 339 171 167 170 
160 365 383 34 63 113 
70 628 264 54 89 118 
61 629 224 82 105 126 
90 253 316 50 44 41 
68 740 211 162 161 213 
151 498 195 122 141 167 
31 654 198 152 150 154 
117 660 213 93 108 128 
93 577 346 68 99 168 
166 290 224 90 108 125 
23 672 194 48 57 72 
305 130 340 149 96 24 
88 591 211 94 120 145 
172 250 327 72 68 72 
210 512 192 131 150 218 
240 240 410 155 151 153 
303 811 291 232 164 137 
106 291 318 47 42 45 
287 746 342 102 87 77 
93 251 315 54 49 47 
317 603 357 74 94 119 
254 559 259 131 140 156 
236 459 224 142 143 149 
68 305 304 87 53 78 
167 908 339 119 97 76 
169 666 367 139 165 192 
147 478 343 107 112 124 
205 179 281 95 63 69 
213 179 291 86 68 79 
140 415 206 68 93 117 
252 272 361 164 159 162 
87 441 340 133 93 72 
234 884 277 93 68 54 
53 635 204 84 106 127 
145 369 339 55 69 86 
235 714 223 171 18 35 
345 593 291 91 101 113 
107 501 228 115 126 141 
114 541 233 76 92 111 
76 663 245 128 84 71 
113 413 245 131 114 98 
223 564 242 178 182 194 
119 766 283 120 51 48 
272 770 326 205 146 113 
130 317 338 88 89 103 
93 254 317 52 49 48 
162 882 264 121 82 34 
186 882 236 70 58 46 
266 617 357 117 129 167 
197 31 302 170 152 146 
249 242 304 94 112 131 
205 12 310 135 112 101 
170 404 377 98 103 137 
95 253 318 55 53 54 
73 409 278 125 78 52 
191 202 257 103 45 45 
163 104 282 83 67 47 
233 789 313 215 150 131 
278 45 292 118 100 82 
240 133 264 185 79 0 
224 223 413 103 21 54 
51 639 185 114 117 123 
123 566 228 71 88 107 
140 630 191 118 131 148 
251 124 306 86 78 72 
127 787 224 150 111 107 
217 939 321 128 99 85 
269 590 334 70 53 53 
172 425 367 133 139 152 
120 556 236 75 95 119 
70 515 277 125 137 155 
83 538 348 157 64 3 
130 753 305 87 81 90 
200 216 374 64 37 38 
102 603 276 71 85 110 
247 780 322 212 149 124 
62 424 330 156 157 164 
192 854 247 110 92 74 
361 668 359 101 151 190 
237 655 361 136 81 57 
170 597 365 137 155 178 
160 966 242 167 137 111 
336 769 292 194 180 172 
80 421 339 141 98 73 
136 734 289 54 56 88 
93 344 250 79 112 141 
153 949 303 102 82 66 
133 122 293 101 84 67 
314 587 313 32 72 98 
174 846 315 116 92 66 
312 706 324 72 57 59 
208 610 365 78 99 120 
241 418 275 146 151 163 
221 425 213 75 102 129 
171 886 249 79 65 49 
100 197 263 97 43 55 
161 367 200 109 120 134 
241 359 380 186 156 125 
59 626 195 70 101 128 
309 61 282 118 104 94 
96 593 342 129 159 199 
174 289 222 114 122 133 
111 408 353 81 115 145 
233 822 285 192 141 117 
134 746 304 99 43 44 
210 212 356 78 24 38 
259 219 399 151 149 154 
245 311 270 156 152 154 
217 859 321 161 115 85 
79 321 328 66 51 61 
73 293 286 106 93 82 
381 705 323 170 167 181 
288 155 351 84 60 77 
29 657 210 77 97 115 
72 537 283 93 108 144 
135 710 329 139 157 178 
299 55 285 117 103 91 
122 799 253 186 153 153 
70 477 274 110 120 134 
183 291 222 107 116 128 
111 647 339 172 122 121 
320 796 298 201 134 107 
247 527 222 76 113 170 
181 622 227 68 53 58 
235 618 244 120 127 138 
198 327 218 106 115 125 
60 414 280 152 152 159 
299 809 297 224 163 141 
243 715 225 99 59 71 
160 301 391 77 108 133 
88 340 251 89 120 147 
245 419 293 84 104 147 
228 325 416 137 0 49 
165 516 196 136 152 186 
286 40 290 92 72 50 
266 101 286 100 82 62 
235 518 362 76 91 112 
102 612 269 57 85 110 
203 222 373 41 51 61 
256 508 252 81 113 145 
237 505 355 91 112 147 
313 71 253 168 140 120 
172 882 340 166 116 104 
248 484 241 83 107 131 
161 357 353 31 66 99 
276 171 291 159 86 97 
342 631 359 60 40 109 
107 366 343 67 101 131 
129 592 189 75 149 199 
198 598 364 146 143 153 
86 765 220 200 214 236 
188 596 367 199 190 191 
119 530 224 102 110 122 
232 159 378 78 44 42 
168 412 365 79 98 135 
240 410 372 149 121 115 
135 806 262 204 182 165 
307 632 328 106 128 152 
73 298 327 81 43 67 
255 278 347 114 134 157 
156 886 278 136 86 63 
314 651 322 123 143 166 
287 78 316 123 98 72 
167 564 188 176 178 190 
256 540 261 128 146 169 
177 270 351 56 74 90 
152 364 208 91 108 127 
352 632 275 139 151 170 
177 897 234 68 56 45 
98 197 270 104 110 117 
331 753 277 167 140 115 
98 198 268 99 74 72 
303 580 295 89 96 105 
292 67 273 128 95 51 
303 569 326 110 101 93 
72 532 277 133 140 152 
67 299 305 110 122 135 
359 664 284 102 123 153 
217 570 364 186 188 198 
112 305 328 81 90 103 
351 673 277 117 126 144 
215 348 229 106 99 105 
212 865 333 172 129 101 
256 497 286 104 119 137 
162 651 201 97 116 138 
219 605 363 112 77 55 
100 194 265 98 87 82 
155 942 259 101 84 69 
191 923 344 194 143 119 
218 957 254 131 104 74 
318 583 304 72 92 111 
204 883 223 71 60 52 
100 194 266 109 107 107 
206 310 226 128 88 84 
188 481 185 182 176 178 
258 780 236 143 102 65 
384 638 326 59 81 99 
164 287 332 81 86 95 
134 508 353 59 85 123 
178 150 280 107 54 11 
241 553 349 119 131 147 
61 632 180 85 82 81 
223 186 357 79 41 40 
212 890 334 189 139 113 
107 261 321 76 33 41 
129 596 192 80 136 180 
205 187 284 103 60 59 
301 102 266 181 131 113 
166 246 301 75 61 63 
244 401 287 77 104 142 
127 687 192 199 193 205 
355 712 341 169 141 118 
281 603 252 90 110 131 
226 417 223 124 132 145 
392 661 313 97 120 178 
252 835 274 188 141 108 
168 867 283 102 80 54 
246 904 296 151 124 101 
256 259 363 168 164 167 
63 479 327 153 140 130 
256 274 300 94 129 158 
318 583 286 60 96 131 
99 205 260 119 99 79 
198 639 214 74 105 134 
80 670 178 79 127 165 
305 709 327 128 134 144 
73 304 276 144 61 5 
202 616 365 53 83 108 
304 811 289 237 170 138 
281 178 373 73 38 33 
277 206 368 125 78 106 
81 398 259 107 103 110 
169 655 202 88 115 142 
78 397 268 109 41 52 
261 798 239 181 127 88 
254 533 328 136 137 145 
82 525 346 154 97 42 
102 720 190 188 205 228 
184 584 366 122 143 168 
202 902 225 52 44 36 
246 474 293 144 148 158 
236 141 365 118 72 50 
315 755 267 163 134 103 
263 725 361 214 195 184 
269 702 232 191 53 57 
160 367 371 38 73 121 
277 568 343 151 112 94 
356 731 330 122 132 149 
177 856 271 130 103 75 
184 227 318 87 85 85 
148 655 197 91 112 138 
78 749 244 123 140 172 
140 439 199 78 104 129 
161 267 237 130 129 130 
103 202 256 103 91 81 
210 438 400 96 119 180 
174 498 375 115 138 171 
66 698 229 102 109 119 
208 453 194 88 108 138 
123 730 197 192 212 237 
100 200 261 107 69 56 
102 643 302 163 112 99 
114 659 332 188 131 128 
384 681 349 132 142 190 
276 181 307 42 120 175 
70 446 282 102 93 97 
207 970 230 131 97 59 
137 382 347 48 63 83 
141 404 324 26 45 65 
161 693 363 131 155 180 
129 525 215 143 145 154 
195 842 247 135 103 72 
273 109 322 84 70 56 
198 979 281 105 73 53 
236 498 357 96 114 143 
106 705 186 82 134 174 
231 650 217 123 126 133 
300 155 334 95 83 81 
281 128 395 123 110 100 
148 447 348 86 106 135 
326 614 368 77 137 185 
78 283 330 101 70 83 
157 694 200 117 144 182 
254 564 281 57 60 64 
250 804 240 197 141 100 
203 360 213 100 114 131 
247 553 337 93 111 133 
242 342 381 192 168 143 
135 654 340 87 113 180 
102 206 256 112 106 105 
101 584 263 125 121 122 
112 659 332 185 129 125 
192 183 278 101 58 45 
160 347 392 122 112 105 
64 357 281 116 70 78 
233 149 373 124 46 44 
196 562 367 154 163 180 
133 349 236 81 113 142 
125 795 243 143 140 148 
97 615 327 133 158 200 
198 602 224 174 169 173 
152 526 354 89 107 146 
193 472 186 110 127 158 
63 382 285 137 79 77 
155 745 328 181 132 111 
259 227 307 169 45 97 
226 194 399 94 41 52 
162 345 354 67 80 98 
162 383 342 40 63 93 
349 644 360 71 110 162 
213 976 269 130 102 80 
148 655 340 156 150 151 
150 922 261 82 65 56 
165 982 262 191 165 144 
70 341 325 117 39 54 
57 630 203 89 111 133 
250 201 410 102 116 132 
130 663 289 121 90 83 
265 772 325 212 152 122 
98 203 265 108 51 61 
172 474 185 121 135 161 
201 889 215 76 60 42 
204 926 338 186 137 112 
250 228 301 148 140 140 
232 180 393 111 59 48 
95 376 337 63 84 101 
126 735 199 119 112 112 
225 921 238 96 72 43 
189 691 208 77 138 188 
97 201 271 91 57 60 
199 786 228 108 102 106 
202 938 236 124 96 71 
79 281 272 174 75 16 
265 777 322 216 154 126 
361 611 281 114 129 149 
233 433 403 70 105 166 
232 902 303 107 74 53 
96 203 270 111 54 69 
99 638 296 178 125 108 
97 202 270 108 45 65 
132 563 231 75 84 95 
249 562 269 125 129 139 
143 542 354 101 117 149 
101 464 247 76 103 129 
198 730 213 107 42 39 
193 833 247 175 131 93 
121 564 215 57 91 122 
230 879 264 79 58 47 
113 425 244 129 132 141 
230 499 382 114 140 180 
172 289 350 74 86 100 
190 754 334 219 199 186 
69 565 327 161 152 150 
244 586 272 70 89 109 
246 480 283 129 135 148 
233 944 265 95 64 43 
283 730 348 138 126 123 
158 386 196 92 110 132 
278 581 294 68 108 139 
208 964 225 154 120 83 
267 813 282 211 150 117 
250 615 361 45 63 95 
337 666 335 113 137 161 
169 312 342 101 106 115 
209 451 396 138 152 172 
248 683 362 133 104 95 
300 781 253 149 110 72 
227 738 349 95 90 90 
280 580 306 78 72 73 
32 663 176 80 103 121 
117 591 181 129 152 182 
116 563 357 59 97 170 
251 577 282 60 76 91 
195 803 232 208 142 106 
45 665 243 67 66 101 
85 587 287 128 135 148 
158 702 200 81 144 192 
221 613 250 61 92 123 
298 600 358 49 69 89 
200 229 374 55 55 55 
241 357 382 186 158 130 
182 963 227 141 106 75 
276 816 275 226 169 137 
248 601 350 76 61 46 
202 520 371 124 144 177 
214 292 234 91 109 128 
74 311 335 114 43 64 
295 588 340 121 82 70 
161 645 361 161 165 176 
199 228 354 110 110 113 
66 370 325 55 90 116 
387 667 310 119 130 171 
195 571 223 181 179 186 
178 850 333 152 118 96 
197 533 366 72 90 128 
78 523 257 48 77 122 
180 263 343 85 45 51 
263 602 348 86 89 96 
121 300 326 64 78 92 
106 194 257 120 107 103 
240 464 273 122 134 151 
247 690 222 150 159 175 
107 194 256 109 101 101 
108 431 354 138 122 126 
107 195 256 106 99 99 
106 566 353 122 142 179 
297 719 336 38 41 51 
226 843 247 194 145 111 
305 33 304 133 117 104 
238 507 203 88 100 115 
105 196 257 114 104 96 
257 515 254 92 113 141 
277 128 373 123 101 86 
281 683 342 130 55 61 
189 286 417 87 112 136 
61 677 238 108 112 156 
202 231 366 92 85 82 
104 199 257 104 95 89 
136 804 267 219 184 148 
226 775 323 212 154 133 
156 953 308 99 81 68 
116 416 357 139 133 133 
166 940 245 124 94 65 
260 621 360 83 70 63 
176 569 363 114 138 170 
106 199 256 108 100 96 
59 323 259 122 113 123 
207 807 297 178 117 98 
126 458 356 92 95 114 
109 192 256 103 100 104 
78 680 178 97 95 112 
184 655 206 154 153 158 
108 195 256 97 95 97 
268 559 324 94 86 81 
326 787 300 198 138 106 
110 193 256 85 93 104 
146 911 302 121 95 72 
94 268 253 118 100 83 
43 697 231 46 56 80 
107 399 348 127 132 143 
302 646 324 105 135 164 
95 621 295 116 125 139 
243 820 283 193 138 114 
242 900 300 137 106 81 
135 430 208 83 103 123 
316 802 291 216 148 119 
244 323 362 143 35 53 
174 938 337 199 148 127 
214 567 365 145 165 190 
264 557 327 91 84 81 
115 574 229 45 82 126 
130 741 286 146 74 73 
316 72 254 174 159 151 
216 385 416 147 32 75 
378 699 310 194 211 234 
192 582 225 114 125 141 
68 479 335 173 140 100 
250 329 285 148 151 162 
168 803 234 147 125 110 
252 550 250 130 142 160 
119 761 211 140 25 42 
125 643 339 95 95 146 
38 645 212 72 79 85 
32 659 183 79 83 89 
208 590 232 115 125 140 
247 478 270 131 138 150 
264 684 366 168 57 32 
198 797 304 195 141 124 
97 195 277 129 62 0 
201 306 420 135 16 71 
173 630 217 106 100 102 
208 943 325 133 94 74 
65 532 316 139 142 147 
271 764 236 127 106 84 
265 99 314 93 75 56 
171 932 339 196 147 126 
68 324 264 94 72 97 
243 212 292 48 60 120 
229 946 260 123 91 65 
307 808 286 239 167 136 
248 354 344 178 157 139 
97 534 241 52 80 111 
236 843 262 201 155 120 
247 131 303 91 82 73 
228 336 417 166 135 101 
283 188 376 51 50 70 
374 709 336 209 131 136 
98 664 212 65 88 109 
226 230 415 111 70 87 
282 31 293 121 90 67 
165 634 363 163 161 169 
304 627 332 119 133 151 
239 242 274 114 95 84 
97 197 275 127 62 2 
203 229 364 83 75 70 
136 652 265 123 123 136 
271 226 354 154 146 143 
153 289 335 60 80 97 
245 315 271 148 147 153 
168 851 314 136 107 78 
96 199 274 102 91 84 
96 199 275 106 76 52 
214 714 217 147 17 34 
140 691 269 79 101 141 
168 801 233 216 189 167 
257 709 229 103 71 62 
173 323 334 106 107 114 
121 787 232 164 135 134 
227 257 252 92 58 66 
154 604 358 104 126 164 
243 924 305 113 90 74 
140 738 307 103 33 63 
72 395 308 121 64 96 
129 153 261 140 125 112 
173 188 288 61 37 35 
191 453 391 171 179 193 
316 610 366 72 90 158 
187 250 377 81 75 72 
286 772 321 202 145 108 
36 705 220 50 99 176 
118 669 216 107 121 139 
142 331 231 75 84 94 
159 137 265 100 90 82 
78 708 182 204 202 213 
160 226 295 42 35 46 
278 36 328 146 125 125 
115 340 336 68 85 105 
258 546 290 71 87 104 
284 78 269 128 105 78 
215 466 196 139 139 144 
63 659 251 159 110 88 
198 335 217 105 93 103 
231 286 409 175 150 124 
119 459 219 77 99 121 
167 876 272 120 89 62 
152 498 353 143 145 154 
174 282 320 101 106 116 
298 166 323 93 123 148 
311 608 366 135 151 181 
314 682 252 112 132 156 
160 355 391 139 22 88 
116 779 218 213 168 102 
141 699 343 102 129 155 
263 818 249 222 163 127 
67 737 208 213 216 233 
174 893 342 172 124 108 
