ply
format ascii 1.0
comment Created by CloudCompare v2.11.1 (Anoia)
comment Created 2/28/22 9:45 PM
obj_info Generated by CloudCompare!
element vertex 2024
property float x
property float y
property float z
property uchar red
property uchar green
property uchar blue
end_header
165 951 257 63 44 35 
98 532 350 148 135 131 
250 150 409 139 84 3 
198 940 337 202 150 128 
236 476 358 110 124 147 
248 22 309 154 131 117 
260 160 294 96 73 92 
119 471 217 120 127 140 
219 202 417 86 65 86 
155 387 375 133 136 150 
68 514 285 50 90 136 
213 636 224 66 91 120 
145 152 254 116 66 35 
190 760 330 188 177 171 
233 939 299 88 71 56 
203 792 230 111 93 75 
148 680 260 102 117 142 
193 33 305 140 122 114 
255 75 317 90 72 53 
165 598 203 149 147 151 
253 567 357 134 101 84 
283 117 310 105 87 69 
407 649 343 172 189 219 
132 382 230 131 131 135 
284 120 322 119 104 90 
87 426 335 130 97 65 
96 599 218 85 110 138 
374 707 347 165 134 141 
146 155 252 125 71 3 
173 603 206 163 160 163 
84 520 343 179 74 7 
247 681 365 118 106 103 
241 14 315 133 112 101 
144 159 250 124 64 15 
151 652 343 127 135 151 
52 726 211 109 140 208 
211 130 263 127 93 74 
179 248 376 88 83 80 
121 386 353 137 141 151 
262 825 280 202 150 115 
213 235 420 69 117 148 
185 203 309 73 48 50 
373 610 304 108 117 130 
168 359 407 137 123 109 
229 734 356 106 130 152 
140 715 192 164 176 195 
244 462 287 144 149 160 
79 325 327 71 46 49 
275 566 350 149 109 93 
316 746 269 132 120 112 
352 692 355 137 41 52 
209 790 313 215 156 141 
89 615 232 84 111 136 
200 650 213 135 134 137 
230 136 296 112 78 45 
195 854 252 105 82 59 
207 357 426 181 75 3 
110 557 241 117 120 129 
355 714 350 173 143 115 
171 136 258 124 106 92 
76 294 268 136 63 43 
121 744 265 87 100 114 
204 341 428 192 164 137 
59 312 257 108 72 86 
151 152 251 122 69 18 
149 540 353 158 160 169 
78 487 261 42 83 113 
69 627 237 76 96 115 
190 403 411 55 83 151 
194 990 268 107 87 67 
106 671 179 167 168 179 
151 155 250 121 67 18 
168 665 199 91 130 168 
148 152 253 119 70 23 
280 661 340 71 119 154 
191 235 408 125 127 133 
156 364 206 92 111 131 
179 469 375 79 91 143 
336 620 379 170 185 209 
150 153 252 124 62 11 
320 598 270 96 110 125 
165 780 300 135 126 123 
316 749 337 158 123 86 
150 303 353 91 90 93 
277 788 243 144 106 66 
213 678 212 147 154 170 
133 398 348 36 52 74 
133 444 206 79 102 124 
166 407 190 41 83 118 
76 317 329 82 61 78 
352 710 290 122 13 32 
129 680 186 196 194 203 
236 258 403 96 121 146 
139 652 340 67 108 144 
115 291 246 159 65 0 
330 772 293 139 139 146 
279 738 354 166 144 133 
74 499 337 147 116 75 
210 627 379 76 66 117 
166 857 319 143 111 82 
152 302 360 86 97 110 
173 282 227 122 125 131 
142 717 293 99 128 155 
185 457 385 106 130 174 
36 662 180 72 52 43 
237 604 359 130 117 119 
152 144 255 111 101 95 
241 346 353 107 122 140 
66 506 328 171 139 102 
174 701 202 131 140 153 
149 758 209 193 56 57 
179 243 366 90 97 107 
207 986 260 148 120 94 
188 921 236 68 52 33 
182 311 420 141 19 68 
119 464 219 110 120 135 
180 638 366 87 121 150 
88 323 255 121 118 119 
154 145 254 122 104 90 
137 553 216 83 98 114 
169 559 190 161 160 167 
94 734 190 85 106 188 
124 764 209 117 46 59 
241 459 353 162 159 163 
344 597 288 68 95 120 
108 691 180 160 173 194 
239 913 308 117 89 67 
97 432 347 165 136 105 
239 227 295 143 125 107 
251 878 294 140 114 91 
298 604 262 94 115 137 
270 75 328 115 92 67 
263 766 237 144 125 108 
172 806 237 175 158 145 
154 149 251 126 76 27 
239 729 364 156 148 144 
213 385 213 55 90 120 
379 631 367 72 109 142 
279 793 311 193 143 116 
138 361 352 59 77 99 
209 529 200 105 133 186 
316 766 336 90 101 116 
199 517 375 162 177 197 
96 775 250 175 46 64 
237 208 300 90 49 78 
224 238 418 158 156 160 
178 135 271 91 75 61 
191 217 392 52 53 80 
135 546 354 39 68 148 
251 219 372 143 120 126 
230 366 240 72 106 136 
186 786 225 164 119 65 
95 595 186 104 118 133 
251 11 336 104 90 81 
296 577 326 90 82 77 
210 177 384 98 50 48 
355 651 370 93 126 181 
114 299 247 158 61 0 
192 824 289 160 118 92 
287 722 350 155 138 126 
363 623 282 131 136 147 
74 579 324 96 123 172 
352 739 337 129 103 93 
204 14 305 143 120 106 
297 679 335 42 53 99 
178 528 202 71 92 117 
220 925 238 55 44 36 
163 969 243 138 112 83 
157 146 252 120 80 57 
262 37 300 129 105 81 
209 889 340 190 137 112 
156 146 254 117 93 76 
125 338 339 75 101 125 
353 636 379 153 175 203 
135 518 208 101 120 151 
161 323 217 133 133 136 
71 395 312 94 55 65 
193 771 324 197 160 128 
208 184 387 79 45 34 
278 173 351 179 75 93 
258 502 249 73 105 140 
96 634 171 185 184 192 
96 325 248 142 142 148 
42 668 230 71 119 159 
228 331 398 155 14 75 
157 199 296 55 30 32 
157 151 249 126 79 31 
87 395 254 111 111 115 
156 150 251 123 68 10 
236 469 212 125 132 142 
75 319 309 61 87 114 
250 739 233 143 122 101 
154 611 195 132 161 194 
179 820 257 204 147 119 
36 666 211 104 126 153 
158 149 251 130 77 21 
126 572 236 69 76 86 
295 72 293 132 98 51 
290 124 354 144 117 88 
253 89 309 80 68 56 
239 944 284 101 78 52 
271 611 362 96 109 152 
88 597 197 132 138 149 
181 319 419 195 165 133 
177 898 233 73 58 46 
241 841 283 167 117 90 
163 672 197 86 113 170 
152 159 247 119 89 56 
277 584 299 78 110 136 
153 159 247 116 88 58 
107 647 273 148 95 82 
136 653 268 75 84 116 
348 668 275 115 135 161 
74 542 284 106 122 140 
163 553 369 130 153 193 
155 395 348 88 95 111 
284 585 287 87 122 152 
156 157 247 115 82 53 
254 130 381 105 85 75 
329 617 264 39 69 97 
244 392 294 92 114 141 
304 581 355 148 111 84 
175 854 332 150 118 95 
90 272 323 64 38 40 
237 285 262 87 119 146 
180 409 188 114 126 140 
178 626 367 76 132 176 
151 359 353 40 68 94 
373 718 324 184 47 57 
295 712 250 143 35 33 
194 929 236 104 80 51 
232 427 229 120 130 145 
159 158 245 110 91 74 
320 766 278 129 120 116 
158 158 246 111 91 72 
93 660 174 83 142 192 
159 158 246 112 95 77 
202 180 315 70 64 67 
228 303 247 120 130 144 
253 563 276 129 134 144 
68 277 308 107 85 64 
96 649 266 156 104 89 
134 718 252 65 91 125 
162 102 280 82 66 47 
246 196 293 179 82 66 
238 402 262 124 137 155 
165 629 212 147 153 169 
269 630 362 115 97 89 
155 153 249 125 67 18 
218 694 215 163 166 175 
366 673 367 113 145 199 
112 654 237 69 90 113 
203 246 420 169 169 176 
198 655 210 148 147 152 
296 615 352 98 108 153 
153 259 327 60 78 97 
179 652 206 134 136 144 
294 667 240 144 143 153 
152 307 358 85 96 110 
245 256 349 167 163 167 
66 457 280 81 127 163 
133 665 217 88 99 133 
337 596 342 100 87 75 
227 839 246 181 135 103 
131 512 209 128 143 165 
88 527 346 160 77 46 
220 813 298 189 134 112 
259 824 256 226 168 132 
240 909 279 87 71 59 
83 479 257 96 112 130 
239 215 303 90 48 72 
222 578 363 45 55 83 
169 881 265 108 84 53 
127 617 348 106 134 196 
156 152 249 123 70 22 
193 854 255 124 97 70 
70 659 247 160 111 89 
361 618 283 152 153 159 
206 177 313 61 65 71 
334 639 359 14 52 133 
241 536 218 114 147 186 
147 308 392 119 99 91 
194 609 365 73 108 136 
324 702 265 140 54 78 
212 598 366 147 106 89 
220 565 235 197 198 208 
68 347 325 129 80 61 
159 152 249 126 80 31 
159 153 248 126 80 35 
99 743 197 163 171 218 
123 522 217 99 118 156 
248 739 359 164 163 167 
304 48 302 114 102 90 
210 423 410 80 109 166 
160 407 367 124 127 145 
222 912 235 62 52 45 
54 318 270 51 78 108 
173 801 289 152 119 94 
147 344 387 128 120 115 
265 16 300 148 131 118 
229 458 372 133 138 149 
173 147 280 87 77 69 
299 812 294 221 162 133 
76 295 330 89 66 80 
35 673 172 119 63 86 
238 235 277 115 72 23 
130 160 255 124 66 8 
190 402 412 56 89 155 
76 375 299 155 115 92 
280 653 336 108 137 164 
231 343 247 129 140 154 
150 922 320 167 127 102 
288 50 305 104 81 53 
287 755 344 138 93 71 
226 880 320 178 128 101 
131 162 254 132 65 1 
193 575 220 163 176 196 
196 302 221 135 80 79 
305 687 329 97 37 52 
197 612 230 154 151 156 
291 669 339 124 49 53 
223 962 257 84 62 49 
169 421 388 69 105 158 
211 985 274 152 123 93 
91 340 328 78 61 68 
262 542 313 142 138 140 
131 183 302 100 49 10 
183 143 280 90 81 72 
49 286 262 115 101 91 
128 427 351 58 69 100 
71 539 339 191 71 6 
165 857 317 141 109 78 
235 268 401 133 93 123 
205 296 421 132 32 42 
232 403 240 88 114 144 
161 269 394 108 114 124 
234 651 220 151 148 152 
225 794 312 214 150 132 
167 486 187 124 142 181 
235 435 365 148 150 159 
201 961 228 124 94 61 
132 162 254 130 64 1 
319 682 256 69 110 154 
194 822 242 214 149 108 
217 954 246 103 79 55 
62 390 270 102 56 83 
135 353 356 67 78 95 
230 917 314 98 81 62 
332 726 343 102 80 77 
266 166 410 124 102 100 
309 632 341 107 140 172 
65 632 243 69 72 78 
222 613 258 53 80 101 
387 623 310 81 105 129 
156 136 281 83 69 56 
319 663 254 160 157 161 
246 308 282 78 103 126 
131 655 283 60 44 63 
226 223 265 124 121 121 
273 611 361 78 92 139 
215 149 259 94 41 36 
231 925 244 84 66 54 
364 705 302 157 174 195 
91 661 231 86 79 82 
192 546 194 128 150 174 
133 167 253 118 60 12 
106 588 184 123 141 161 
114 399 350 136 142 154 
130 326 349 104 115 130 
246 269 335 93 118 142 
223 866 253 112 86 65 
65 313 341 154 26 72 
101 306 246 108 119 133 
146 477 340 65 74 102 
234 281 381 155 3 76 
225 301 414 176 145 112 
382 631 362 70 67 66 
232 562 361 93 116 147 
45 706 188 101 130 192 
291 753 249 129 114 101 
212 336 426 181 153 125 
184 858 267 124 98 70 
369 609 309 53 88 115 
250 544 239 106 131 167 
325 688 261 130 148 168 
259 538 261 136 151 169 
230 459 389 109 131 157 
254 650 227 43 74 98 
308 592 273 40 90 125 
179 381 408 96 99 130 
214 311 229 150 116 72 
147 793 279 170 142 113 
198 366 424 156 135 111 
252 92 311 84 71 57 
144 671 190 95 119 162 
239 889 288 129 80 49 
158 502 369 103 127 167 
131 175 251 81 96 110 
128 172 253 117 76 38 
239 390 361 155 136 115 
306 586 356 147 109 85 
193 703 361 142 77 57 
200 174 264 44 65 110 
222 404 418 78 102 159 
189 703 363 133 106 93 
241 253 363 110 76 84 
168 280 415 75 107 135 
135 802 268 170 151 136 
65 504 330 177 144 111 
257 703 231 158 43 61 
278 691 236 158 162 173 
189 888 239 77 63 48 
261 812 294 207 145 115 
249 250 332 148 145 147 
228 450 210 74 97 121 
371 630 286 154 158 167 
229 694 220 78 128 184 
140 720 336 138 95 93 
256 714 370 160 133 105 
181 226 336 118 58 21 
226 708 360 118 112 109 
260 515 260 116 132 151 
232 361 377 173 145 115 
60 319 258 127 61 69 
157 314 404 157 156 161 
220 181 340 87 47 50 
135 170 251 103 92 84 
342 684 273 94 114 163 
36 693 192 79 107 168 
81 650 261 162 114 93 
206 266 419 158 154 159 
375 612 301 118 122 130 
196 822 293 166 120 97 
342 668 342 111 131 153 
344 681 273 138 148 165 
132 354 237 84 113 140 
68 341 327 126 61 62 
258 136 277 155 62 1 
195 956 228 96 70 36 
135 731 195 189 213 234 
79 478 261 87 106 128 
126 649 184 176 181 198 
171 284 418 135 146 162 
320 735 337 134 114 97 
111 611 175 113 131 157 
62 481 321 118 134 153 
70 393 314 108 99 99 
147 614 355 76 106 149 
275 102 325 105 88 71 
137 465 201 117 126 142 
134 172 251 101 103 109 
295 24 319 119 103 89 
182 380 196 72 100 124 
135 172 250 98 102 108 
210 818 240 209 144 106 
130 345 354 137 136 140 
240 766 231 162 150 144 
195 23 322 132 104 85 
284 40 300 84 59 43 
92 292 255 114 61 64 
174 893 239 72 59 46 
110 564 245 127 124 127 
93 684 218 59 69 88 
203 199 392 39 38 41 
132 173 252 99 102 107 
245 856 288 138 103 80 
249 597 287 56 50 45 
155 505 354 149 150 158 
252 503 221 147 150 159 
220 972 246 151 122 92 
140 688 288 48 43 77 
331 708 342 127 109 92 
163 567 189 182 181 189 
173 543 194 126 129 137 
140 698 285 132 138 153 
105 273 244 130 37 61 
91 691 223 51 61 86 
233 773 231 145 146 154 
261 547 317 115 110 110 
285 120 331 123 110 97 
361 674 364 143 174 207 
78 498 259 66 95 121 
325 712 269 162 39 42 
139 160 253 116 60 12 
192 169 281 62 53 60 
138 162 252 116 65 11 
228 778 326 211 156 132 
191 917 234 89 67 42 
174 924 240 59 46 35 
74 366 313 81 95 110 
204 17 332 123 88 71 
103 610 278 78 87 99 
272 157 298 160 113 104 
110 263 243 150 80 80 
175 74 297 73 59 44 
282 42 335 126 96 80 
139 696 330 110 123 139 
235 279 393 175 145 114 
139 167 249 109 87 71 
391 659 362 193 200 214 
349 606 353 114 94 72 
172 316 414 165 134 99 
169 745 338 150 135 129 
106 620 329 92 114 176 
139 167 250 110 83 60 
164 334 410 165 88 41 
333 645 342 124 148 173 
136 165 252 115 66 15 
181 422 187 124 132 144 
147 498 197 121 141 171 
190 555 365 119 141 176 
221 436 208 84 105 126 
140 161 251 118 60 10 
75 362 293 84 114 139 
291 36 298 118 101 84 
132 696 229 93 107 135 
208 374 424 138 120 105 
286 155 353 86 106 127 
170 814 260 114 104 103 
210 192 270 68 45 37 
325 663 330 118 146 173 
308 744 337 118 95 70 
155 924 253 116 96 77 
274 799 246 190 136 95 
271 187 367 89 59 85 
103 643 288 166 108 92 
371 632 337 80 73 68 
170 252 346 101 101 106 
74 387 296 146 42 86 
251 293 301 75 114 145 
230 248 260 131 132 137 
168 242 328 79 79 82 
105 775 221 154 143 147 
261 161 427 153 56 88 
155 650 201 97 116 136 
134 652 338 126 150 187 
109 576 200 113 120 131 
159 876 291 129 102 75 
140 165 250 114 70 27 
166 416 189 84 105 126 
168 608 203 161 159 165 
116 395 242 165 133 102 
250 813 295 201 137 115 
217 900 333 193 141 116 
86 432 255 101 120 140 
141 167 249 105 91 80 
133 670 187 109 140 176 
297 77 288 139 101 49 
247 837 277 176 135 100 
364 668 368 128 155 194 
73 493 267 76 105 131 
86 667 218 79 86 96 
129 415 343 40 55 81 
144 275 330 88 74 70 
177 860 337 153 101 95 
129 620 348 97 119 186 
136 397 218 101 110 126 
97 553 347 162 147 142 
179 816 245 192 158 124 
283 14 330 50 47 45 
231 477 383 71 103 142 
72 410 303 81 127 162 
255 498 324 103 122 144 
202 592 228 109 126 145 
93 560 258 92 107 125 
237 630 234 122 126 135 
211 939 239 145 117 88 
59 347 273 147 70 78 
113 582 352 112 136 183 
157 744 206 122 96 37 
390 687 339 151 156 193 
224 893 326 167 117 92 
271 612 261 86 108 130 
224 869 322 168 123 92 
97 588 195 98 112 128 
65 459 313 102 101 103 
242 604 278 69 70 73 
324 639 257 33 82 135 
255 888 295 118 82 53 
181 891 234 73 59 48 
93 598 213 85 107 137 
147 398 330 31 43 56 
96 367 332 62 93 119 
239 17 324 116 84 71 
188 477 186 150 156 178 
268 106 329 81 68 55 
353 690 357 152 88 97 
260 560 348 101 91 84 
141 175 246 70 63 60 
264 128 367 134 100 91 
89 762 246 169 176 191 
225 335 411 141 0 52 
138 697 327 92 109 126 
364 636 281 101 129 163 
243 135 369 100 72 57 
350 729 345 81 93 112 
224 187 411 110 60 61 
164 420 366 117 125 141 
176 443 373 110 112 133 
170 507 192 62 98 178 
227 407 401 106 90 76 
277 164 315 170 120 97 
288 148 348 46 82 108 
137 168 250 107 85 68 
49 700 225 39 48 78 
248 265 331 91 117 142 
294 24 314 113 97 82 
208 846 308 136 105 74 
232 427 374 66 90 143 
223 863 313 148 107 77 
250 544 338 114 127 144 
139 168 249 107 93 85 
236 276 263 97 125 151 
145 922 283 83 69 59 
187 151 280 109 56 7 
160 520 367 113 138 174 
177 793 297 137 104 82 
161 106 281 84 67 49 
148 214 301 46 35 44 
244 128 320 72 65 63 
205 266 234 132 129 131 
155 385 374 103 108 137 
314 764 336 159 154 155 
217 630 375 166 127 83 
188 532 197 93 110 129 
271 645 362 79 96 115 
108 593 345 73 104 174 
208 203 400 46 44 53 
152 506 346 128 132 142 
202 189 381 74 22 31 
172 518 197 48 106 184 
238 793 241 147 110 71 
336 602 360 118 94 68 
137 730 277 105 121 139 
56 648 173 76 98 118 
235 280 260 81 116 146 
71 681 168 81 139 183 
107 469 233 79 99 118 
355 686 361 148 166 187 
93 320 326 86 29 45 
228 225 265 124 122 123 
149 268 319 57 80 100 
248 349 311 133 112 88 
140 169 249 109 102 98 
142 802 240 208 186 170 
283 812 262 238 175 139 
187 604 216 88 125 157 
140 170 248 106 102 100 
244 268 277 154 154 162 
84 759 231 180 191 213 
139 684 328 143 160 182 
100 572 253 124 136 154 
126 675 325 176 128 118 
203 317 220 114 121 128 
197 194 288 103 43 57 
338 591 297 77 91 105 
148 914 307 134 103 77 
90 391 329 65 74 86 
261 514 276 107 126 147 
202 872 237 70 56 43 
204 961 315 93 76 64 
72 478 272 138 133 134 
70 626 181 108 111 118 
260 139 424 115 102 93 
169 273 407 65 76 88 
118 571 195 115 129 146 
151 895 307 160 118 90 
189 192 283 95 45 46 
71 399 311 68 104 132 
269 14 343 95 83 75 
217 446 404 182 186 199 
118 574 191 68 105 134 
175 881 260 82 66 48 
248 302 286 80 123 157 
169 903 238 87 69 54 
183 255 413 93 111 131 
248 147 407 134 63 0 
179 503 365 68 97 135 
242 859 280 143 99 71 
71 272 337 147 70 19 
131 717 192 149 170 220 
66 497 282 93 106 136 
228 380 395 173 84 0 
100 596 220 69 97 133 
184 520 201 152 164 199 
133 180 247 63 76 90 
158 881 325 164 123 100 
261 521 272 112 132 155 
210 173 308 58 68 78 
314 56 296 122 107 94 
132 183 247 71 84 99 
163 384 197 96 110 126 
206 185 271 45 48 55 
336 652 264 67 50 115 
81 323 271 41 38 72 
157 882 268 149 98 72 
183 684 370 89 77 95 
68 478 323 161 128 91 
259 541 273 132 141 156 
141 676 284 42 44 103 
282 126 298 126 116 107 
276 13 319 97 84 72 
65 505 309 188 159 130 
258 172 396 73 38 57 
332 641 346 118 148 178 
348 660 273 91 119 152 
136 298 245 119 123 131 
262 809 299 215 151 121 
220 131 262 150 73 16 
128 423 346 67 76 95 
239 493 351 135 144 160 
202 945 235 78 66 54 
322 605 369 30 58 92 
200 403 198 49 86 118 
69 270 338 145 57 9 
85 534 253 153 146 144 
189 611 218 145 161 183 
160 952 315 98 79 69 
237 562 243 189 193 206 
124 327 243 110 122 138 
372 712 343 194 45 75 
234 142 386 133 65 0 
83 738 242 122 133 163 
64 321 259 113 73 84 
163 897 242 93 68 55 
233 158 345 13 35 58 
242 252 363 93 107 121 
188 837 264 169 126 96 
113 575 195 116 126 139 
158 937 327 200 148 127 
88 413 254 143 72 93 
72 264 304 98 93 91 
49 304 262 183 90 4 
266 603 359 66 84 101 
172 962 319 104 87 72 
265 602 347 47 63 78 
156 488 370 88 114 161 
204 900 340 181 137 116 
247 206 407 84 109 136 
128 182 250 57 78 97 
231 503 197 100 118 146 
91 658 173 80 139 186 
174 883 343 169 120 108 
211 487 191 164 164 171 
158 630 363 120 62 91 
152 602 357 141 145 162 
131 181 248 56 75 93 
131 181 249 53 74 92 
176 881 348 117 93 74 
251 708 370 155 138 124 
237 796 311 211 146 128 
154 476 191 120 136 159 
356 723 300 155 129 102 
365 671 290 107 133 166 
58 698 219 49 65 106 
120 653 229 72 93 122 
281 134 418 132 118 108 
126 799 246 131 118 107 
221 607 254 49 37 32 
276 139 424 135 120 107 
206 281 231 103 117 133 
198 951 329 146 108 91 
261 723 367 198 168 138 
120 450 221 69 95 118 
249 317 327 169 147 125 
144 143 258 118 108 98 
133 178 249 48 68 86 
221 565 234 157 175 199 
162 871 326 150 111 85 
385 688 352 160 175 195 
175 643 366 108 128 150 
260 749 235 140 128 118 
262 145 280 172 74 1 
140 666 228 116 119 141 
222 300 240 119 130 145 
294 33 304 120 107 94 
172 743 340 101 92 107 
211 856 244 149 111 80 
194 260 419 121 128 140 
294 569 351 132 107 81 
287 600 368 66 96 126 
99 552 347 142 128 126 
235 940 295 94 78 63 
295 737 251 119 109 102 
211 679 364 170 121 63 
198 304 423 111 103 111 
151 273 339 84 83 90 
87 503 346 171 74 5 
230 308 392 184 159 135 
130 418 221 83 99 116 
194 175 257 95 47 41 
179 306 216 88 103 119 
138 360 321 39 52 65 
156 488 190 95 114 169 
73 576 310 126 136 166 
306 582 312 77 82 89 
265 602 343 64 70 79 
148 757 209 185 69 61 
178 376 196 75 98 120 
129 191 245 84 91 101 
152 379 365 88 105 128 
182 944 238 76 61 44 
91 372 250 125 134 149 
214 980 269 128 105 82 
239 333 359 108 130 152 
241 657 221 161 159 163 
178 316 418 189 157 122 
223 261 248 86 114 140 
137 684 227 124 129 140 
125 676 321 183 129 122 
117 704 185 100 107 114 
208 15 308 127 103 92 
231 138 372 117 67 37 
231 653 365 126 83 59 
179 314 418 182 152 117 
110 569 247 61 82 129 
227 144 369 106 66 50 
261 589 302 59 59 60 
244 469 226 66 98 128 
251 562 258 133 145 162 
358 713 298 119 51 76 
86 674 173 72 124 163 
93 475 349 174 78 10 
184 612 366 120 35 53 
259 683 227 167 164 171 
132 184 246 81 92 106 
163 459 355 44 70 93 
74 306 313 104 59 55 
76 648 168 84 138 181 
228 864 295 167 123 96 
214 514 204 49 89 123 
166 419 384 56 90 161 
286 798 314 188 143 114 
242 137 368 100 70 54 
169 968 233 131 104 81 
165 263 349 78 84 91 
311 65 275 179 159 147 
68 406 287 84 101 114 
200 696 210 119 93 129 
153 658 196 83 108 140 
367 669 369 78 103 191 
83 443 333 89 32 37 
143 586 354 106 129 160 
135 187 244 89 86 87 
200 389 201 43 84 119 
247 319 336 179 154 129 
97 639 285 175 121 105 
238 936 265 112 92 73 
215 633 373 193 143 75 
276 816 283 218 158 127 
155 166 286 82 43 14 
271 131 411 119 106 97 
352 611 339 91 80 71 
176 241 338 104 104 109 
198 298 223 125 57 55 
164 290 414 124 130 140 
69 551 326 135 115 91 
170 757 327 192 168 147 
83 576 337 125 151 185 
165 962 291 87 68 58 
64 632 214 70 95 120 
284 162 335 150 121 125 
181 259 234 83 111 137 
258 530 329 92 110 130 
135 575 351 179 182 192 
145 780 289 153 134 118 
243 446 242 83 112 140 
191 775 321 180 142 120 
153 493 357 159 163 177 
73 628 253 87 111 134 
82 529 342 161 63 6 
227 424 398 91 117 151 
369 631 285 125 133 147 
335 684 268 133 153 175 
234 450 367 98 113 152 
137 360 318 40 53 65 
283 157 319 170 117 115 
109 706 230 69 84 111 
202 605 229 170 166 170 
188 283 226 135 132 132 
256 669 226 134 142 161 
197 962 319 93 66 56 
229 518 379 89 102 127 
226 301 411 180 150 119 
67 270 347 108 67 85 
129 325 242 106 122 139 
312 55 301 114 100 86 
167 619 365 158 158 165 
250 704 228 136 146 156 
206 438 402 109 129 184 
371 717 333 144 83 133 
136 179 247 67 69 77 
257 65 305 91 75 58 
227 263 253 86 114 139 
210 938 331 169 127 101 
185 845 273 140 105 79 
224 599 248 144 142 148 
325 715 338 121 122 128 
255 868 297 160 134 109 
152 447 191 72 104 139 
71 508 272 63 106 142 
72 558 336 135 117 103 
274 182 361 152 48 88 
238 540 354 98 124 150 
169 493 377 125 146 175 
243 436 350 110 126 147 
139 742 320 156 140 128 
108 646 278 168 115 96 
234 902 245 88 68 50 
328 694 265 168 108 118 
262 126 356 126 84 65 
138 183 243 93 86 83 
139 182 243 91 81 73 
319 794 319 205 140 112 
302 736 257 128 108 91 
55 640 235 94 129 161 
205 874 235 66 54 44 
84 549 264 132 135 145 
56 661 168 83 112 136 
234 429 231 104 120 138 
247 390 319 113 131 151 
92 620 268 56 33 37 
136 183 244 89 84 83 
167 465 356 37 60 90 
128 651 336 117 113 136 
67 545 312 175 77 8 
237 844 260 205 158 125 
225 932 241 101 74 52 
258 702 370 53 49 55 
250 154 421 105 95 85 
236 369 368 174 72 0 
139 180 244 91 64 48 
217 302 234 114 110 109 
383 647 297 113 134 178 
327 594 324 78 89 101 
141 179 243 94 64 47 
158 587 200 126 67 102 
208 180 274 33 48 91 
143 702 352 178 113 112 
220 480 394 110 137 190 
184 924 346 209 165 142 
345 635 270 91 121 152 
229 188 418 121 68 69 
285 685 238 119 129 150 
320 663 329 100 130 159 
114 647 280 119 87 99 
123 785 224 210 151 46 
95 479 246 51 86 119 
208 646 371 169 120 67 
156 194 292 77 32 28 
187 574 366 156 163 177 
162 505 193 170 173 190 
156 886 295 127 96 68 
214 129 278 93 82 74 
199 210 395 37 60 81 
75 393 331 145 146 153 
276 173 376 125 35 68 
175 459 358 107 112 125 
74 562 293 62 81 129 
73 365 288 96 98 118 
103 557 350 101 120 160 
249 133 361 106 74 55 
126 565 223 70 93 117 
115 338 335 86 91 100 
106 690 213 71 86 114 
198 388 420 150 61 90 
254 161 293 62 93 132 
147 466 347 101 112 132 
250 158 286 67 100 130 
50 647 185 126 128 135 
257 605 276 49 96 132 
336 714 278 132 38 58 
193 627 232 66 106 136 
200 532 198 67 98 134 
179 708 204 155 172 194 
212 736 348 117 123 133 
142 182 241 91 82 74 
74 357 288 60 90 119 
119 505 214 116 126 140 
386 630 299 87 102 121 
199 429 405 135 158 193 
252 541 337 101 117 136 
215 691 214 121 144 179 
133 652 217 59 79 126 
277 807 253 228 165 131 
391 639 335 83 95 110 
124 649 266 59 83 155 
287 814 284 232 180 146 
247 631 235 65 68 74 
180 618 216 124 146 171 
293 47 293 122 111 103 
166 791 223 161 137 114 
259 208 349 179 117 112 
137 185 242 88 84 81 
221 434 208 93 109 128 
105 536 352 130 98 132 
76 306 286 145 67 0 
171 692 200 116 148 203 
235 564 254 194 191 198 
296 87 304 139 117 98 
291 771 249 98 97 99 
219 141 259 146 110 100 
185 467 185 100 123 152 
100 623 314 161 166 181 
226 430 396 101 126 164 
247 479 225 97 112 129 
288 124 322 125 112 100 
263 727 235 117 59 71 
250 290 293 99 129 158 
147 642 352 86 138 177 
149 628 349 56 54 60 
64 386 267 136 99 98 
263 201 343 166 88 130 
113 598 177 98 115 133 
235 544 363 72 105 151 
191 668 206 89 137 173 
111 685 211 95 115 136 
82 610 209 63 106 139 
172 415 393 126 143 168 
137 189 241 96 87 81 
256 119 333 90 75 58 
160 932 335 198 150 129 
276 135 292 140 83 5 
125 738 263 101 115 133 
306 639 328 112 139 167 
278 741 242 100 80 74 
106 583 219 88 117 144 
398 650 316 25 72 154 
123 653 285 120 85 79 
237 185 424 95 91 102 
290 147 335 91 92 108 
124 456 214 91 109 129 
202 524 376 111 134 179 
327 592 320 44 84 111 
89 657 250 126 86 73 
148 249 306 61 32 28 
73 410 302 79 124 158 
167 472 364 59 83 123 
206 954 319 116 83 68 
131 716 245 90 97 122 
208 404 204 39 78 114 
151 651 345 115 125 153 
229 417 379 67 92 144 
172 303 413 111 117 127 
159 811 252 166 157 155 
260 510 262 124 137 155 
255 61 313 86 70 52 
245 476 222 93 114 136 
235 273 399 173 147 122 
228 370 236 83 111 144 
257 227 340 138 43 83 
218 866 245 101 84 70 
143 184 240 90 83 81 
224 848 249 154 117 83 
244 332 279 150 149 155 
239 228 409 135 138 148 
143 186 240 82 71 72 
201 349 211 123 129 140 
250 121 293 113 96 79 
277 146 361 89 41 50 
259 135 277 152 52 0 
249 761 341 210 152 120 
75 731 233 94 116 151 
365 711 306 151 15 35 
76 462 335 125 82 49 
143 691 325 122 136 154 
149 567 187 156 156 164 
160 871 317 147 106 81 
87 663 232 102 70 65 
236 844 286 183 130 102 
105 582 215 90 117 143 
253 517 334 119 135 154 
199 626 371 134 103 99 
59 638 182 124 127 133 
146 623 351 51 51 61 
214 803 304 199 130 112 
121 659 185 160 163 180 
361 719 347 161 54 71 
181 912 235 72 56 44 
148 357 383 61 95 121 
100 733 191 201 193 214 
147 151 295 64 51 36 
208 899 339 197 145 120 
248 831 282 164 108 79 
68 434 311 135 134 139 
251 629 236 54 57 61 
284 764 245 133 123 117 
115 308 330 94 100 108 
238 857 289 128 101 80 
141 697 191 89 143 184 
343 758 302 155 127 95 
225 257 417 94 124 154 
229 419 402 95 122 150 
211 220 418 102 78 65 
73 263 346 121 116 116 
230 128 271 134 96 78 
353 716 293 155 38 35 
311 615 258 106 123 142 
241 462 352 167 160 160 
103 561 244 76 96 131 
99 486 239 70 93 114 
156 345 397 116 108 104 
91 471 347 167 70 10 
83 723 184 128 144 204 
201 627 233 76 110 140 
44 693 230 102 129 165 
122 565 238 62 84 106 
237 897 285 94 75 54 
151 162 247 111 96 82 
124 773 214 162 11 35 
87 542 345 168 140 105 
156 299 403 140 144 154 
77 549 281 89 99 143 
101 573 251 150 146 149 
199 753 217 159 132 128 
107 559 242 76 104 132 
148 167 245 104 56 30 
172 814 250 169 156 148 
149 167 245 103 53 29 
109 631 175 184 186 198 
152 754 314 114 105 112 
399 641 347 48 70 88 
149 167 246 96 64 48 
150 165 245 106 73 53 
330 644 339 113 143 172 
169 960 233 122 96 72 
118 584 184 100 116 134 
71 734 195 209 214 238 
119 531 357 114 133 176 
236 371 253 72 110 142 
93 469 349 166 65 4 
221 694 216 164 176 194 
160 719 358 162 95 99 
148 320 360 74 92 111 
182 859 269 125 99 74 
303 90 292 164 126 108 
99 525 237 68 92 119 
176 659 367 132 154 178 
125 282 322 99 99 102 
222 760 225 210 175 140 
162 110 286 82 68 52 
132 728 261 94 111 131 
263 90 298 114 91 64 
224 284 245 110 120 135 
170 795 226 204 165 115 
144 162 250 127 68 16 
263 191 325 146 103 117 
306 618 255 90 110 131 
273 184 365 121 49 86 
149 693 358 98 144 182 
309 623 254 96 118 141 
148 296 238 105 93 91 
190 596 368 191 184 187 
261 585 349 138 96 86 
134 651 221 80 101 138 
267 603 269 69 98 122 
191 633 225 76 112 147 
277 146 295 173 75 19 
35 680 209 80 100 156 
87 367 254 92 110 129 
139 745 319 156 154 167 
255 640 231 72 105 133 
87 487 252 88 102 118 
346 734 344 156 111 94 
144 167 248 113 107 103 
191 491 188 133 143 170 
36 664 174 76 104 130 
172 770 217 152 134 125 
178 567 193 192 190 201 
122 773 284 81 77 78 
158 509 361 106 121 165 
224 855 297 162 118 91 
188 689 370 155 51 55 
258 563 277 84 104 125 
94 755 256 157 169 187 
233 871 272 108 78 61 
143 293 346 81 95 110 
140 297 346 72 97 119 
298 654 242 41 73 98 
151 160 248 114 86 58 
157 954 281 92 73 62 
78 420 272 95 88 97 
264 177 314 131 83 86 
145 169 246 96 61 53 
287 146 313 167 86 47 
238 884 289 169 83 38 
250 552 245 105 125 162 
89 458 346 110 120 134 
73 293 272 108 81 67 
145 170 246 91 58 48 
237 435 234 102 119 139 
179 210 346 91 100 112 
206 680 211 134 61 77 
343 607 331 68 67 70 
121 664 205 97 112 134 
240 130 381 104 89 79 
227 323 242 156 118 73 
152 263 334 74 88 102 
211 724 218 167 34 40 
171 377 404 115 97 139 
283 715 356 118 107 101 
184 300 219 131 117 104 
204 641 378 124 128 163 
265 129 283 94 87 82 
71 397 291 138 7 60 
245 445 345 113 132 155 
118 709 233 122 127 138 
271 180 328 108 127 154 
261 683 370 162 64 24 
249 625 242 60 64 70 
214 222 420 104 57 65 
138 724 313 123 145 175 
245 417 296 89 114 145 
92 609 222 59 94 120 
168 813 251 169 136 112 
214 802 236 179 130 90 
278 28 302 117 89 74 
192 418 408 126 136 174 
228 722 359 136 125 119 
228 931 316 114 94 77 
171 366 407 148 134 131 
290 656 238 157 154 158 
120 397 356 147 150 160 
170 86 297 70 58 45 
61 738 215 128 148 217 
222 968 253 140 116 91 
181 417 399 116 134 166 
321 691 261 163 169 183 
78 493 335 135 104 63 
77 285 289 108 97 85 
171 81 299 70 58 45 
188 722 211 87 34 35 
150 169 243 102 49 26 
339 606 275 86 107 128 
176 261 408 128 131 140 
255 777 237 109 51 60 
349 606 354 114 93 72 
233 282 402 185 158 131 
261 209 339 169 101 87 
236 311 260 153 153 160 
287 156 331 91 105 137 
220 280 241 97 116 136 
173 811 241 170 152 140 
79 270 274 158 84 30 
197 192 303 76 49 50 
146 293 347 75 84 97 
192 975 291 93 70 48 
293 127 345 143 117 84 
148 170 244 97 49 26 
185 460 384 118 134 171 
143 575 353 106 129 157 
51 719 193 161 158 209 
185 654 207 129 132 141 
150 169 244 105 48 26 
249 603 288 50 62 73 
87 763 224 156 173 196 
250 309 324 116 131 149 
226 709 359 153 138 128 
381 657 369 133 146 182 
73 400 304 79 118 148 
277 634 346 99 129 157 
246 465 267 112 121 135 
156 580 363 98 134 176 
240 505 350 148 151 162 
253 474 311 28 72 130 
127 768 212 175 140 115 
166 433 186 107 122 141 
232 401 241 77 107 138 
254 703 229 167 17 28 
153 664 195 62 95 144 
242 911 273 74 60 52 
295 40 324 110 88 63 
161 878 274 146 70 21 
261 624 244 102 116 132 
150 175 240 88 47 36 
196 705 359 164 91 43 
143 369 322 66 72 79 
185 792 228 188 158 128 
125 743 275 101 118 136 
94 615 246 87 108 129 
232 737 226 52 56 73 
392 681 340 75 97 152 
130 559 214 75 99 122 
189 783 225 196 158 114 
99 408 344 79 104 129 
137 651 260 116 118 131 
71 626 180 111 114 120 
102 721 246 84 94 111 
153 163 245 108 74 57 
240 165 407 65 88 108 
158 877 276 158 108 83 
236 550 361 115 135 161 
153 162 246 110 89 73 
188 245 412 124 128 137 
137 698 190 87 140 189 
165 568 361 137 140 150 
125 617 180 143 91 113 
155 160 246 110 92 78 
113 590 249 96 112 131 
232 887 306 165 119 93 
273 61 296 109 95 83 
282 153 310 170 63 101 
142 390 321 28 44 60 
236 741 357 210 187 169 
140 781 217 67 41 32 
98 607 329 181 188 202 
250 172 292 72 47 67 
242 249 362 72 124 161 
262 543 311 133 130 132 
111 523 221 114 130 150 
100 460 351 158 60 4 
155 166 243 114 49 13 
128 265 246 138 21 66 
209 656 365 144 103 46 
232 477 384 81 110 147 
316 636 335 134 155 181 
205 650 372 165 122 72 
167 640 210 119 130 146 
178 134 261 120 96 79 
71 627 227 67 64 68 
242 749 229 201 180 164 
136 734 281 100 119 139 
249 705 228 143 153 166 
246 464 240 142 148 159 
170 263 236 127 117 111 
248 384 337 147 136 129 
259 556 273 112 117 125 
200 405 415 84 109 167 
243 389 289 94 116 141 
168 634 216 99 111 126 
143 422 202 81 102 123 
79 352 266 83 75 79 
231 801 308 213 148 127 
222 161 267 49 47 79 
250 725 366 134 133 139 
64 713 223 129 132 143 
196 424 407 89 116 157 
233 311 253 127 141 158 
91 406 338 99 119 140 
161 421 354 79 93 128 
117 722 188 130 170 218 
66 301 343 164 90 74 
130 315 337 68 92 118 
251 285 312 86 118 144 
222 536 205 128 146 174 
250 133 356 102 71 52 
69 535 323 187 69 3 
30 676 189 73 129 171 
241 390 278 79 110 141 
100 614 174 96 127 163 
142 801 271 157 129 100 
235 203 296 116 61 73 
324 65 276 155 137 128 
242 443 246 140 150 165 
156 256 329 66 69 79 
210 635 224 74 102 132 
129 627 184 109 147 195 
163 655 363 128 142 159 
105 476 233 66 91 115 
257 800 243 169 121 82 
111 372 342 64 97 124 
178 218 349 87 89 94 
266 825 274 228 171 137 
233 602 264 77 78 81 
152 288 379 65 77 90 
248 242 307 98 112 128 
287 623 344 55 74 98 
34 674 173 155 143 144 
151 324 396 130 138 152 
205 897 222 57 48 41 
208 876 231 66 53 42 
94 461 250 71 93 118 
208 852 334 156 120 89 
295 57 322 130 108 91 
70 721 228 93 104 150 
136 229 302 51 31 34 
146 925 305 120 98 80 
115 271 244 117 89 98 
208 158 258 174 46 19 
151 675 361 143 165 191 
193 374 200 82 104 130 
123 264 244 128 41 51 
361 620 370 38 63 88 
252 877 286 144 107 83 
85 633 170 163 161 168 
259 11 321 139 116 96 
329 589 348 113 94 75 
101 700 180 103 110 123 
209 621 377 61 52 85 
317 645 330 116 144 171 
113 437 357 135 126 124 
342 594 311 71 94 116 
219 218 421 136 85 82 
121 652 228 71 93 122 
238 212 414 93 82 88 
288 142 314 177 82 8 
230 164 348 15 45 62 
197 568 209 180 182 194 
152 172 241 83 53 24 
239 144 361 97 50 34 
221 609 365 62 41 63 
244 771 333 215 154 127 
67 444 292 78 111 140 
319 584 307 73 92 109 
177 246 365 87 98 111 
167 537 370 163 180 207 
89 765 223 177 197 222 
167 230 295 36 37 52 
149 459 193 74 106 142 
218 880 333 169 121 95 
249 643 371 199 142 66 
160 809 264 150 132 123 
155 173 240 88 46 35 
193 584 225 137 138 145 
74 618 205 101 123 146 
156 169 241 102 43 18 
184 607 214 94 111 128 
196 589 366 163 157 158 
195 945 334 199 146 121 
175 384 404 28 75 145 
153 163 289 72 48 32 
136 289 323 112 112 115 
62 416 319 72 97 120 
137 499 202 153 159 174 
132 244 305 41 35 42 
193 688 365 181 92 36 
76 711 231 74 92 139 
220 515 201 108 124 144 
285 622 250 82 100 119 
220 243 419 152 151 156 
73 568 333 182 153 121 
133 603 350 80 103 148 
148 617 354 132 142 162 
193 22 325 117 87 71 
139 710 193 99 105 113 
183 211 338 136 114 91 
245 645 226 84 88 95 
149 604 357 106 140 179 
42 651 211 65 89 131 
224 694 362 59 57 76 
66 465 295 90 121 149 
119 431 360 140 70 101 
133 756 206 118 71 100 
192 634 223 69 109 144 
220 811 239 179 130 90 
99 434 250 141 87 96 
224 354 413 178 150 122 
150 179 239 86 55 37 
239 274 266 85 119 148 
380 621 309 41 84 124 
198 13 288 140 120 103 
156 898 249 84 58 48 
377 659 298 139 156 183 
252 547 244 133 141 165 
258 30 302 136 112 89 
187 334 209 116 77 75 
164 265 354 58 79 97 
118 790 273 110 100 116 
160 948 260 94 72 60 
229 402 408 122 106 91 
246 790 317 215 150 128 
192 728 353 195 180 172 
148 900 290 70 55 42 
128 354 240 86 116 143 
193 794 229 136 124 116 
114 661 326 179 122 118 
284 632 244 126 126 130 
232 139 305 119 62 12 
261 641 232 75 100 122 
280 608 361 77 107 156 
239 149 341 41 60 74 
103 414 248 165 125 69 
135 727 194 150 180 213 
252 560 349 57 60 64 
188 751 337 188 135 90 
174 789 225 191 146 89 
251 279 321 90 121 149 
289 99 310 118 96 73 
129 508 209 183 181 188 
115 698 223 102 116 134 
137 400 216 78 100 122 
320 68 279 164 151 145 
107 434 352 136 104 106 
240 661 364 157 62 29 
102 572 347 124 146 176 
188 738 212 168 125 62 
145 463 342 52 68 103 
176 850 305 110 84 52 
231 318 373 181 158 135 
143 664 336 118 124 146 
228 162 390 80 44 42 
219 637 364 119 74 45 
147 187 238 93 75 84 
113 778 273 129 72 66 
214 934 236 85 66 49 
186 592 368 158 155 160 
176 228 295 24 45 70 
234 172 408 56 86 110 
73 261 320 110 97 87 
241 253 367 101 83 95 
378 628 315 124 137 154 
245 652 223 146 145 151 
195 977 234 119 84 60 
296 42 318 104 88 71 
74 354 312 132 93 93 
147 189 237 102 75 90 
249 782 325 214 154 130 
193 189 313 71 61 51 
70 326 327 110 49 64 
287 726 247 115 108 105 
64 349 276 130 65 76 
238 319 264 90 109 131 
190 527 199 81 109 135 
263 794 311 210 151 124 
366 621 364 91 75 58 
159 787 290 178 169 167 
68 528 322 182 147 106 
237 458 219 88 103 119 
152 948 277 90 73 60 
70 500 338 162 16 74 
244 366 291 114 132 154 
167 316 414 181 153 124 
185 378 197 86 108 130 
125 770 289 72 90 121 
83 529 342 170 70 15 
231 435 372 93 115 155 
151 893 297 115 85 63 
143 361 222 129 129 133 
151 184 237 92 76 87 
274 108 327 84 70 54 
117 688 183 109 140 173 
178 258 334 88 84 91 
232 240 266 92 106 122 
279 598 335 54 71 88 
137 358 231 76 97 116 
245 800 243 158 119 79 
177 337 207 145 114 88 
260 504 267 122 134 150 
158 505 365 109 129 172 
199 30 306 121 89 102 
181 228 357 78 85 93 
293 717 344 149 133 128 
145 736 334 148 116 94 
304 576 332 101 93 88 
173 260 336 83 89 101 
148 191 238 126 66 77 
329 626 360 84 106 149 
141 730 311 152 75 76 
344 668 272 99 119 147 
260 21 345 143 130 123 
134 694 188 83 129 167 
315 659 251 163 157 160 
327 657 258 19 58 132 
150 191 237 136 72 90 
167 976 262 147 116 89 
150 191 238 152 62 69 
248 455 313 122 129 143 
86 474 344 171 142 109 
119 420 235 140 138 143 
153 176 239 83 43 31 
217 184 363 76 45 32 
230 447 399 92 126 160 
118 369 344 72 98 124 
311 689 252 127 149 174 
111 292 246 157 70 0 
110 489 225 108 121 140 
93 506 349 147 103 54 
257 603 346 47 49 53 
240 158 400 83 102 120 
244 911 308 145 118 90 
314 780 271 144 111 78 
251 134 410 109 99 92 
78 262 332 108 45 55 
270 777 241 147 114 86 
247 746 230 106 92 87 
351 598 296 104 116 129 
229 599 254 99 97 98 
35 691 208 117 135 176 
180 223 354 94 98 106 
261 556 340 86 81 79 
238 706 224 171 45 53 
260 515 255 147 159 176 
204 204 360 63 70 79 
276 51 330 111 89 65 
199 783 317 207 151 129 
187 347 419 168 98 54 
191 198 305 75 40 43 
187 442 396 147 162 184 
316 59 286 139 124 113 
155 180 237 101 61 65 
259 503 293 133 143 159 
174 270 413 86 111 134 
142 689 320 131 143 159 
54 325 268 63 106 138 
117 362 342 67 96 123 
196 11 295 137 117 100 
212 630 229 81 107 132 
195 609 364 80 112 139 
251 300 316 146 149 159 
64 377 333 106 58 66 
83 750 240 124 142 170 
389 636 349 73 68 64 
241 348 274 115 126 143 
156 179 238 100 49 43 
220 599 244 152 150 153 
142 380 321 37 51 63 
228 620 244 78 105 140 
169 337 208 145 112 87 
70 403 271 162 149 148 
119 659 337 185 134 134 
177 230 357 60 79 96 
133 596 350 78 102 145 
252 543 244 137 144 167 
159 179 237 118 42 51 
274 588 285 89 120 147 
164 180 287 98 30 28 
208 612 244 55 72 88 
98 265 249 125 107 91 
106 648 260 96 73 74 
208 205 403 51 62 74 
285 669 236 88 121 158 
81 616 214 77 110 138 
189 252 417 121 129 141 
63 474 322 147 48 51 
243 302 342 156 145 139 
85 519 249 57 86 122 
145 331 385 145 145 153 
221 840 244 159 118 87 
200 212 363 47 53 58 
118 665 325 174 124 116 
137 462 342 62 78 94 
189 617 231 103 106 113 
159 181 238 118 75 92 
236 948 284 103 84 65 
178 66 292 86 70 52 
351 659 366 121 154 185 
249 245 311 96 112 130 
259 602 341 35 39 44 
217 365 220 75 101 125 
63 394 280 121 27 66 
259 128 360 127 87 73 
182 184 257 47 53 80 
237 548 355 144 146 154 
239 161 282 57 71 110 
314 583 326 59 62 70 
152 187 237 116 77 94 
73 392 295 142 48 82 
193 745 341 150 98 52 
389 690 338 153 185 221 
157 367 393 125 141 159 
187 648 367 87 99 113 
43 675 165 88 127 159 
154 185 237 116 67 97 
251 672 224 116 139 166 
224 508 385 162 178 200 
256 10 318 152 125 102 
208 20 302 152 133 123 
245 567 274 93 105 121 
275 123 366 147 95 62 
110 692 216 91 106 131 
155 187 238 110 79 101 
245 467 343 164 159 162 
156 525 357 81 110 152 
103 747 200 183 195 222 
67 637 254 134 153 186 
206 857 242 146 103 63 
234 672 366 138 122 126 
227 392 398 152 135 122 
243 145 337 99 48 26 
145 702 354 147 89 90 
339 654 346 123 142 164 
151 909 319 162 124 97 
108 654 177 187 185 193 
192 843 257 164 123 93 
76 508 337 146 116 80 
155 188 239 93 77 107 
333 766 330 172 162 159 
249 131 376 103 82 71 
109 620 174 100 132 168 
123 271 244 133 61 76 
288 72 281 122 94 62 
303 764 338 163 122 94 
257 84 303 108 89 70 
138 692 283 76 99 131 
151 140 258 89 81 75 
186 596 368 192 185 187 
284 611 352 87 115 166 
88 356 253 98 64 65 
244 253 281 123 120 120 
234 869 296 117 90 69 
281 778 244 126 93 57 
182 613 214 141 156 178 
133 445 206 79 103 126 
150 534 209 107 108 113 
259 664 369 177 126 53 
67 532 295 106 94 119 
151 468 364 144 151 164 
190 442 398 99 125 173 
249 846 281 142 105 79 
247 259 343 141 142 150 
214 165 284 69 68 81 
100 413 250 152 100 65 
195 197 285 101 34 50 
168 79 305 79 64 48 
202 497 190 179 176 181 
268 675 230 82 97 117 
188 200 308 74 40 39 
298 726 342 152 133 116 
227 833 293 177 128 101 
281 669 341 57 81 114 
152 806 268 135 132 135 
102 446 246 145 143 147 
125 591 180 100 121 144 
218 173 271 124 42 53 
176 222 290 42 33 41 
330 664 261 46 72 126 
262 530 304 112 121 133 
111 389 345 139 139 146 
244 621 247 88 97 108 
247 752 232 144 124 106 
242 656 221 156 154 159 
303 791 326 201 151 118 
238 429 239 98 121 145 
100 636 306 149 109 98 
147 740 202 177 16 38 
249 256 294 92 95 100 
86 761 238 125 155 185 
221 211 268 113 34 34 
203 668 366 142 86 25 
76 479 265 76 98 129 
144 687 332 119 141 166 
242 235 289 131 65 0 
193 531 368 61 86 128 
40 705 211 60 98 180 
99 705 180 192 204 223 
326 788 311 204 142 111 
325 598 359 129 102 72 
244 794 242 147 112 72 
182 228 390 110 71 52 
88 753 250 157 168 186 
242 272 274 135 123 118 
281 102 286 120 96 67 
176 689 365 106 82 94 
137 383 329 38 54 68 
73 672 168 72 120 156 
148 179 240 83 55 35 
273 183 353 150 59 92 
302 601 360 57 76 95 
108 610 175 149 137 149 
87 510 345 173 71 6 
68 460 305 149 156 170 
151 177 240 81 41 29 
350 724 293 143 78 79 
106 306 318 55 33 37 
184 969 315 106 87 70 
67 632 254 91 119 144 
151 636 356 64 64 69 
226 177 398 99 81 66 
122 711 186 178 196 222 
153 176 240 84 44 36 
76 380 332 74 77 95 
155 188 240 72 67 104 
306 675 327 104 75 93 
279 133 363 144 104 76 
214 168 312 74 73 75 
241 446 354 119 134 154 
146 206 297 52 28 28 
72 518 276 82 109 141 
93 399 251 164 121 74 
192 183 258 135 55 23 
118 468 219 107 119 136 
156 953 302 92 75 64 
253 192 297 146 91 79 
297 593 346 98 70 60 
158 187 241 47 60 102 
193 439 187 112 127 150 
257 132 409 110 101 93 
228 370 238 85 118 148 
147 905 275 73 58 50 
258 174 394 87 35 37 
71 318 327 55 42 66 
377 645 292 147 163 187 
156 189 241 80 62 95 
136 650 262 111 115 130 
277 641 341 91 125 155 
277 26 342 141 126 118 
238 746 352 209 155 127 
188 736 212 103 36 19 
266 756 342 204 146 112 
209 950 238 107 84 58 
75 332 293 102 88 87 
202 241 420 136 137 143 
98 617 271 100 105 114 
70 287 339 57 74 92 
146 463 350 96 111 136 
130 451 344 127 126 131 
75 351 330 97 25 56 
205 911 232 59 48 39 
134 265 248 134 114 106 
245 169 425 115 109 106 
250 475 247 164 161 165 
275 557 342 102 90 79 
89 548 256 152 144 144 
123 461 215 94 112 132 
144 275 333 111 108 108 
174 135 267 97 83 70 
171 196 297 43 35 41 
191 327 424 182 155 128 
70 372 316 65 99 126 
158 190 244 83 64 89 
91 703 234 45 59 82 
159 454 187 75 103 136 
159 190 244 82 57 83 
184 701 367 181 142 97 
159 191 245 114 54 52 
158 191 246 134 55 50 
73 408 302 73 116 151 
159 190 247 129 50 41 
352 618 277 97 116 138 
237 136 372 108 79 62 
130 754 290 117 43 49 
216 500 192 100 119 150 
192 944 235 78 66 55 
66 337 277 110 103 110 
164 412 375 116 119 147 
237 585 264 71 94 115 
239 331 357 125 111 117 
366 636 283 70 106 147 
149 482 348 98 109 135 
146 685 351 129 150 172 
72 482 338 155 19 67 
66 535 301 174 63 1 
355 740 306 131 112 102 
163 141 253 122 108 99 
72 372 314 51 84 115 
282 167 344 160 132 134 
163 140 254 122 109 101 
77 285 331 94 67 83 
247 253 290 98 94 92 
221 167 387 75 55 53 
73 340 332 86 58 63 
194 964 317 91 70 56 
61 468 320 156 8 74 
265 166 405 59 94 129 
291 809 299 213 160 132 
103 749 260 123 134 150 
64 495 327 146 5 64 
159 419 352 86 99 125 
358 656 281 127 139 159 
253 674 366 96 65 63 
175 936 340 203 155 134 
170 531 364 65 85 110 
80 757 216 199 211 228 
237 537 216 114 138 176 
234 228 274 105 111 120 
135 257 315 70 32 33 
206 149 276 115 53 7 
250 723 367 192 179 172 
156 810 259 141 144 153 
198 196 294 91 44 53 
288 24 336 135 124 118 
122 743 266 108 123 140 
246 608 362 40 48 65 
180 207 345 85 93 101 
81 422 263 102 100 105 
145 648 198 64 94 129 
231 237 264 83 100 117 
72 346 283 114 80 101 
169 586 208 67 120 162 
66 439 291 106 131 156 
130 289 247 123 117 114 
250 873 287 108 81 66 
236 851 285 173 127 97 
183 390 409 101 124 157 
265 816 287 208 149 116 
247 479 300 103 122 144 
102 604 231 67 99 125 
288 46 332 131 103 82 
119 571 244 104 107 114 
153 520 352 107 118 138 
163 295 225 97 84 75 
121 543 229 85 96 113 
239 234 280 120 62 6 
97 257 323 42 43 52 
249 432 327 104 125 149 
293 130 343 168 76 5 
148 343 370 116 119 129 
237 434 235 100 116 135 
176 220 290 45 31 36 
179 358 202 125 87 47 
217 585 365 135 106 89 
254 486 265 75 103 129 
155 699 196 80 127 163 
215 884 336 170 124 98 
270 142 428 145 100 38 
185 284 226 131 129 130 
140 721 298 112 123 147 
228 858 293 174 128 100 
239 515 351 79 102 138 
264 76 297 128 103 76 
103 585 190 108 125 143 
173 299 220 125 126 131 
280 51 331 125 102 77 
135 683 300 81 83 130 
78 459 264 126 88 100 
244 194 421 67 104 134 
209 666 212 130 148 172 
196 393 197 62 90 114 
167 436 186 90 109 134 
203 583 364 133 111 108 
227 775 328 212 154 132 
212 739 347 151 136 126 
138 396 215 52 84 114 
166 576 194 95 153 198 
274 614 257 118 127 141 
233 283 379 154 0 62 
322 654 330 100 137 169 
365 638 375 123 139 187 
191 161 280 61 60 62 
289 581 311 68 59 59 
89 702 233 74 85 100 
133 395 223 101 113 128 
284 139 350 113 119 127 
82 608 207 74 110 140 
175 497 189 83 121 183 
133 423 336 43 59 80 
258 770 335 210 150 120 
179 134 271 92 73 57 
205 565 212 120 148 180 
172 139 252 139 108 82 
219 180 336 84 48 46 
156 950 312 103 85 73 
246 283 281 122 133 147 
215 910 334 184 142 113 
52 681 228 101 114 157 
112 589 243 116 128 145 
57 355 270 143 56 80 
324 766 283 127 117 113 
147 270 318 57 80 100 
70 669 237 144 97 81 
201 532 368 123 140 166 
219 611 253 54 71 88 
161 565 364 153 162 181 
75 569 296 72 92 137 
171 464 185 119 136 161 
207 753 218 108 88 78 
227 342 401 148 43 41 
279 707 241 141 31 47 
69 386 285 145 89 87 
227 220 419 147 46 85 
204 305 423 173 150 127 
237 556 357 91 112 133 
257 81 322 99 79 57 
333 612 376 80 114 146 
95 706 235 41 54 79 
316 580 337 90 82 77 
103 705 180 112 153 197 
275 120 343 122 99 83 
227 683 364 157 148 149 
80 338 266 67 57 69 
100 309 247 106 122 142 
174 140 250 133 81 33 
174 140 251 133 89 51 
72 323 321 80 42 72 
71 565 331 176 46 73 
170 321 414 183 153 120 
139 679 334 134 161 190 
258 170 393 68 35 53 
184 858 268 125 99 71 
289 797 316 190 144 116 
175 143 248 136 77 3 
247 535 225 141 167 194 
247 245 319 112 124 139 
108 470 230 74 97 119 
235 146 309 112 51 8 
225 276 248 101 71 70 
156 131 281 89 74 59 
323 589 282 13 79 116 
284 642 239 125 132 144 
238 132 304 91 82 76 
153 130 296 70 56 41 
138 339 355 71 65 76 
237 785 322 217 156 133 
261 577 303 59 58 57 
120 566 210 90 111 130 
113 585 351 117 138 185 
153 519 351 137 140 148 
222 967 252 141 116 90 
147 908 282 86 72 60 
88 446 342 169 144 119 
228 312 403 182 153 121 
143 176 297 79 38 16 
185 720 359 208 185 167 
292 103 295 157 123 104 
137 240 308 64 38 41 
96 271 252 95 91 91 
298 50 299 108 96 87 
119 296 326 69 85 102 
150 311 231 84 110 134 
121 574 188 68 107 137 
228 458 386 111 135 161 
163 146 251 133 69 9 
371 675 366 137 167 200 
291 783 250 145 109 69 
88 678 173 123 41 61 
234 907 244 89 69 50 
161 144 252 131 97 67 
135 466 343 94 103 115 
198 465 188 84 111 141 
296 775 329 197 147 113 
96 265 252 116 99 84 
182 813 240 201 165 128 
43 669 232 68 109 162 
156 876 308 137 103 74 
332 653 336 107 133 158 
93 645 274 170 114 97 
107 654 324 172 121 116 
180 734 349 160 139 130 
98 670 177 178 176 188 
122 548 356 182 189 203 
260 89 325 108 87 63 
159 463 363 73 101 136 
245 367 298 99 120 144 
77 362 269 58 57 73 
