ply
format ascii 1.0
comment Created by CloudCompare v2.11.1 (Anoia)
comment Created 2/28/22 9:45 PM
obj_info Generated by CloudCompare!
element vertex 2017
property float x
property float y
property float z
property uchar red
property uchar green
property uchar blue
end_header
187 12 327 108 91 81 
319 632 308 89 105 123 
241 874 313 172 128 103 
189 12 320 109 95 87 
156 168 380 66 46 46 
265 674 251 135 135 141 
241 570 244 166 174 189 
161 137 403 129 64 0 
143 194 388 65 27 33 
190 12 320 109 94 85 
190 12 321 108 92 83 
190 168 377 73 50 52 
138 350 224 78 107 132 
292 596 363 93 89 87 
146 563 357 113 130 152 
166 167 261 114 70 21 
158 337 209 86 105 125 
216 863 338 131 93 63 
310 684 286 89 111 153 
198 417 393 124 117 115 
121 331 339 89 78 88 
136 291 243 109 61 67 
271 126 334 112 90 66 
197 986 302 111 86 63 
136 690 297 133 148 167 
217 382 204 119 128 141 
190 12 325 107 88 77 
312 738 304 74 66 95 
366 720 397 160 95 107 
176 338 199 88 112 134 
214 998 293 115 84 65 
318 749 315 118 108 104 
72 445 297 129 98 78 
110 646 279 151 104 97 
205 861 320 101 79 53 
215 427 414 91 115 157 
84 319 260 50 86 115 
118 692 128 79 113 144 
323 673 403 134 158 184 
133 728 303 136 163 191 
289 59 320 101 81 58 
76 399 301 126 133 144 
170 349 420 195 164 129 
186 13 329 107 92 83 
300 818 308 213 159 129 
177 505 195 138 155 192 
108 344 250 84 93 104 
286 595 367 92 85 81 
200 222 386 106 52 68 
111 629 250 81 85 91 
186 932 253 79 63 44 
68 365 313 113 43 77 
194 322 399 181 150 117 
231 391 353 141 130 122 
316 799 370 203 142 108 
288 597 344 126 134 147 
91 507 314 173 78 2 
278 652 269 75 104 128 
163 123 405 105 94 86 
378 693 391 142 144 185 
122 321 345 77 58 64 
215 388 201 89 107 127 
133 291 368 95 111 131 
244 610 382 141 99 88 
179 546 208 81 102 123 
267 821 333 211 149 122 
236 452 212 118 125 138 
85 547 267 139 88 13 
311 761 311 157 140 127 
252 216 330 121 122 135 
238 969 315 90 73 63 
89 403 269 137 32 71 
260 136 308 113 103 95 
107 635 215 61 107 140 
114 352 310 87 103 122 
216 783 351 208 154 129 
358 659 331 109 130 152 
169 344 200 86 111 138 
216 839 310 163 122 98 
174 630 184 76 104 129 
183 678 186 62 97 128 
309 749 304 168 128 89 
148 737 344 150 95 119 
185 242 437 78 115 145 
210 835 253 212 154 115 
199 532 397 145 163 191 
99 435 317 153 129 104 
221 456 378 118 134 153 
198 369 195 104 119 136 
214 204 258 92 52 39 
226 505 218 70 94 141 
177 21 327 126 118 114 
377 652 356 99 124 151 
213 394 200 90 113 136 
163 310 424 130 139 153 
258 419 278 67 100 127 
92 473 309 168 137 104 
148 636 355 84 101 124 
261 466 238 121 129 143 
143 236 370 72 61 63 
203 153 302 116 76 36 
100 721 183 73 95 129 
86 281 305 67 43 33 
220 216 285 109 36 33 
174 156 427 109 87 91 
236 612 383 131 82 73 
199 717 373 65 69 78 
167 656 373 110 74 90 
312 810 361 202 128 102 
214 988 309 81 60 50 
239 576 251 118 132 167 
155 755 174 208 201 206 
224 887 351 176 129 100 
198 779 210 95 119 143 
227 289 235 147 145 150 
352 721 348 138 104 115 
101 656 186 104 127 155 
157 708 160 160 167 182 
243 524 220 118 145 183 
142 496 359 134 147 166 
260 426 291 141 144 153 
159 689 163 138 138 145 
280 682 262 102 120 139 
129 503 215 45 88 148 
288 815 287 187 137 104 
179 16 328 117 108 103 
284 104 306 129 102 71 
236 454 213 118 125 136 
278 130 320 122 97 66 
147 195 407 53 39 58 
150 583 186 120 131 144 
310 652 403 74 108 171 
253 549 243 146 155 173 
382 654 363 153 158 172 
222 257 296 117 109 103 
240 616 275 110 111 116 
140 545 345 131 149 174 
232 234 308 110 18 45 
230 496 373 124 132 145 
125 599 328 63 89 140 
221 768 366 206 151 128 
170 674 198 92 110 150 
154 389 201 110 123 139 
278 737 268 148 124 99 
178 810 220 210 162 126 
179 771 195 153 43 49 
106 685 195 143 97 83 
272 481 282 98 118 140 
255 174 344 148 113 89 
221 208 285 89 41 38 
183 17 329 128 116 110 
142 512 355 90 105 147 
292 795 378 196 148 119 
78 551 293 126 88 30 
87 416 248 114 128 150 
220 631 255 80 82 87 
162 235 356 95 91 91 
92 378 246 116 71 67 
119 346 244 144 139 140 
166 903 316 146 107 81 
158 322 214 108 117 129 
98 670 200 154 108 83 
194 746 194 174 58 47 
114 366 318 73 85 108 
275 783 371 187 138 107 
192 584 382 141 162 187 
147 291 404 78 122 156 
140 604 170 101 119 137 
205 627 222 169 165 170 
209 790 338 204 149 128 
208 525 399 84 111 172 
176 26 321 167 152 144 
154 251 427 150 150 157 
239 123 346 117 106 96 
251 874 300 106 84 66 
211 887 357 162 130 101 
189 741 191 122 62 66 
121 338 336 98 65 66 
110 635 207 64 104 137 
242 176 351 112 107 109 
126 272 297 70 44 62 
163 564 200 79 104 127 
211 139 381 120 50 56 
141 339 331 54 62 76 
194 464 410 171 176 189 
245 359 299 150 148 153 
234 847 258 176 122 79 
173 971 303 109 89 69 
196 681 195 71 101 133 
203 768 351 194 151 123 
309 744 302 144 126 111 
198 864 290 134 102 76 
265 30 350 160 144 136 
176 24 326 130 117 111 
178 24 324 146 128 124 
126 324 319 105 108 115 
213 741 385 197 181 172 
117 585 245 82 98 131 
204 538 208 104 118 134 
179 793 308 140 149 164 
360 617 375 74 93 111 
234 787 355 215 159 134 
173 492 193 114 136 174 
248 824 325 200 136 112 
259 424 281 138 143 152 
266 566 328 111 126 145 
180 710 177 88 135 173 
218 509 399 94 115 143 
234 298 285 93 115 136 
106 260 266 40 54 69 
197 202 383 36 75 113 
371 643 401 97 120 144 
166 479 378 68 83 127 
368 632 355 109 117 128 
219 953 346 180 135 109 
198 648 386 148 91 99 
195 319 398 179 150 120 
330 725 319 145 102 100 
229 211 359 96 90 101 
172 659 189 114 140 168 
247 576 267 145 159 179 
165 918 278 96 80 65 
196 577 385 68 106 153 
366 630 393 44 91 127 
268 721 390 131 116 108 
202 583 204 187 184 191 
222 507 377 159 155 158 
240 662 389 100 85 71 
188 163 285 119 85 56 
131 250 299 84 44 37 
271 546 292 122 134 152 
187 912 255 125 92 71 
175 199 365 75 48 48 
141 371 384 109 118 144 
152 267 234 129 56 66 
368 713 381 163 161 170 
262 479 330 115 128 146 
267 534 258 174 179 193 
124 319 334 75 65 87 
192 136 333 95 84 76 
274 519 269 152 156 168 
124 305 342 73 83 96 
167 168 263 114 76 40 
236 707 226 143 147 157 
228 776 230 178 161 150 
271 500 245 78 107 147 
138 287 326 87 90 98 
167 395 193 92 111 132 
168 792 291 147 110 72 
132 698 139 82 116 145 
171 597 370 169 171 182 
153 146 384 117 54 55 
186 800 308 180 127 108 
351 719 345 87 76 118 
310 61 304 139 124 112 
127 745 157 124 143 221 
113 758 199 119 126 163 
206 861 335 118 85 52 
200 713 194 74 120 159 
197 316 396 175 146 115 
215 479 410 114 138 179 
366 673 432 127 142 183 
383 671 376 119 136 182 
186 352 438 198 169 141 
204 774 347 194 145 121 
200 712 194 88 128 161 
165 725 232 102 114 137 
165 955 286 98 80 68 
287 49 322 101 81 59 
176 478 389 116 137 165 
283 602 403 143 107 84 
239 971 252 135 108 79 
325 733 402 66 57 56 
73 283 315 126 73 47 
188 748 355 201 176 156 
155 753 332 170 139 130 
218 988 299 89 72 55 
146 194 400 65 42 53 
94 513 319 138 119 99 
252 650 255 84 40 19 
134 280 366 127 128 135 
248 954 269 99 75 53 
235 523 216 164 170 196 
147 378 363 60 83 124 
140 325 370 135 56 82 
319 684 392 115 138 161 
212 283 216 132 132 137 
165 676 256 112 118 130 
146 727 212 78 94 119 
109 558 327 62 99 164 
112 365 337 121 79 79 
166 723 246 100 110 126 
271 547 286 150 155 167 
149 389 363 114 124 144 
145 275 238 125 41 62 
268 464 265 99 118 138 
157 692 366 97 79 81 
132 279 317 93 55 66 
248 886 273 80 61 53 
221 264 310 123 100 69 
189 16 331 121 91 70 
183 156 325 101 59 29 
208 380 387 158 115 54 
145 660 213 104 119 147 
112 456 343 73 101 142 
79 260 307 67 62 60 
142 505 331 130 131 137 
198 311 396 180 151 121 
193 903 363 196 142 125 
284 794 280 144 106 68 
86 336 244 161 69 58 
232 290 356 95 92 108 
198 243 401 135 133 138 
159 386 198 98 114 133 
221 127 343 118 104 91 
236 256 332 158 155 159 
94 702 179 95 106 127 
258 42 331 100 79 57 
138 371 217 136 133 136 
193 132 412 173 66 2 
300 96 321 147 118 97 
87 513 261 190 159 126 
384 664 423 123 133 183 
119 333 335 87 79 94 
355 716 353 158 8 20 
221 879 250 114 85 64 
191 20 328 151 110 90 
151 243 424 135 136 143 
232 292 353 87 105 123 
248 575 358 77 76 76 
215 398 200 84 114 140 
263 710 390 72 77 100 
216 128 336 115 101 87 
152 287 231 152 127 98 
86 517 264 176 148 119 
153 670 178 122 128 139 
217 210 291 71 34 40 
262 524 345 107 126 148 
185 27 322 184 166 158 
186 27 320 161 146 140 
356 740 381 150 104 65 
118 401 337 69 80 98 
238 368 237 92 111 131 
68 302 329 144 91 88 
160 718 215 130 138 152 
275 103 337 111 90 68 
261 529 239 138 151 177 
187 26 323 191 163 159 
133 287 319 107 104 105 
101 467 333 123 109 95 
126 489 216 93 112 138 
111 380 314 84 111 136 
252 561 364 102 117 135 
161 192 310 86 32 33 
88 336 245 155 63 38 
201 307 434 182 155 129 
233 812 332 207 148 130 
92 567 261 62 54 83 
224 378 211 120 125 134 
238 646 254 75 105 143 
229 123 371 151 103 68 
221 184 299 87 49 45 
154 706 157 158 161 172 
162 717 215 108 115 135 
139 351 338 92 88 95 
278 838 304 218 161 126 
175 545 211 82 93 106 
116 336 247 140 135 135 
347 626 395 72 99 124 
71 287 266 132 115 101 
293 759 389 170 151 136 
97 584 305 50 85 161 
231 309 239 117 29 45 
139 498 208 73 108 162 
278 756 268 87 80 75 
298 693 383 127 42 51 
176 630 369 58 101 134 
213 471 412 95 128 187 
262 575 291 137 160 192 
232 355 334 144 125 112 
125 682 194 66 85 120 
230 875 340 162 117 87 
100 742 176 152 163 217 
232 857 316 155 114 85 
270 831 318 202 145 114 
324 731 402 135 150 168 
171 915 338 114 90 85 
256 435 318 118 132 151 
231 505 373 123 132 148 
204 543 396 48 74 113 
251 486 348 127 143 162 
232 474 206 96 110 129 
79 487 295 133 9 48 
339 674 429 148 178 211 
288 750 390 176 151 129 
201 149 299 119 68 23 
202 323 390 170 142 112 
202 724 373 116 104 96 
148 407 385 87 106 153 
180 872 319 133 104 76 
378 698 400 140 143 183 
111 672 133 82 105 131 
245 547 229 98 124 155 
95 670 151 99 107 119 
134 262 370 108 114 125 
166 676 193 95 114 146 
271 579 387 102 92 86 
324 712 305 128 41 53 
241 470 213 90 110 131 
188 398 428 154 116 91 
189 552 389 121 149 187 
206 195 259 61 61 69 
106 519 332 71 100 162 
218 679 393 109 74 49 
155 567 206 85 98 113 
180 822 264 132 127 127 
247 902 256 87 69 54 
139 66 262 129 91 72 
129 703 319 133 153 176 
183 934 254 97 76 55 
139 68 258 134 94 75 
257 593 391 156 116 99 
201 833 281 179 132 111 
72 298 255 168 81 0 
149 149 388 134 45 42 
175 366 425 182 74 7 
124 756 225 78 100 130 
236 404 219 86 107 128 
174 686 175 66 99 127 
211 189 269 50 52 61 
367 624 368 114 117 124 
250 691 239 120 134 155 
266 480 322 111 124 143 
139 68 263 128 94 76 
198 826 289 182 133 112 
234 330 318 131 129 135 
206 290 419 180 155 129 
81 457 296 144 115 78 
201 167 287 73 49 26 
143 705 148 169 166 170 
91 269 268 100 92 87 
139 70 263 127 98 78 
137 339 352 154 120 77 
190 607 379 145 103 106 
203 302 412 191 162 133 
295 795 285 146 111 73 
199 241 412 146 143 145 
140 64 259 135 92 69 
140 65 258 136 92 69 
122 567 237 113 119 130 
130 163 273 103 85 67 
133 355 326 69 59 74 
216 739 210 92 61 102 
260 937 299 90 75 65 
129 315 334 83 64 84 
310 781 308 81 116 146 
156 724 269 116 126 140 
150 742 280 103 121 140 
150 423 330 67 86 115 
78 319 307 58 63 68 
241 732 397 176 149 123 
82 387 282 112 91 91 
154 697 358 94 127 155 
235 670 230 127 128 133 
76 303 317 64 57 69 
315 718 396 151 106 91 
181 295 210 125 120 121 
92 532 313 136 119 103 
195 310 400 178 149 119 
200 380 389 176 144 104 
238 321 276 123 135 150 
179 960 267 96 74 62 
241 501 366 125 136 154 
99 467 247 136 95 37 
137 229 390 123 40 64 
179 362 434 178 75 7 
205 286 413 179 157 137 
149 203 377 44 42 50 
89 476 297 152 124 95 
287 820 343 204 152 125 
236 513 215 109 126 150 
296 641 417 85 108 153 
306 653 398 53 102 159 
152 200 420 91 62 70 
122 590 329 82 114 162 
205 415 192 112 129 149 
345 631 413 114 94 73 
137 804 233 188 103 67 
93 720 183 38 64 106 
278 104 308 134 104 68 
330 637 313 84 107 130 
255 494 346 73 101 127 
151 765 294 156 117 126 
225 668 391 145 102 42 
199 598 382 40 45 68 
144 792 199 100 24 79 
153 434 337 72 86 106 
102 511 330 148 91 74 
214 172 375 147 53 47 
287 646 398 62 92 153 
70 374 302 48 80 106 
215 382 203 108 119 134 
156 695 363 97 111 126 
207 975 242 121 91 57 
264 143 339 140 80 33 
181 160 324 98 60 44 
155 706 266 62 90 127 
257 192 320 142 46 82 
195 917 355 169 119 101 
302 757 293 169 153 141 
393 652 381 97 127 154 
296 710 279 132 89 90 
95 291 307 84 39 37 
181 797 306 116 136 158 
104 406 247 148 111 64 
210 749 376 86 113 137 
224 404 368 130 111 92 
212 407 413 121 106 96 
172 367 416 166 82 59 
106 728 188 167 165 171 
137 691 333 130 149 172 
123 480 221 91 116 141 
319 611 384 58 92 121 
112 660 223 168 114 96 
136 135 285 103 85 67 
149 401 338 45 68 109 
139 282 344 52 73 93 
241 389 339 59 90 128 
187 267 219 141 138 140 
248 548 370 145 146 154 
243 452 358 92 113 139 
182 944 257 115 83 42 
172 683 205 71 91 140 
224 218 280 67 50 67 
160 638 168 94 112 132 
271 540 293 161 167 180 
144 614 349 130 147 169 
355 704 342 153 169 190 
248 127 312 105 89 73 
238 879 246 125 97 72 
213 459 414 116 147 189 
140 71 267 123 99 78 
175 689 175 69 106 139 
140 68 269 123 100 81 
134 691 301 134 150 170 
363 695 426 158 186 217 
281 584 392 109 95 82 
266 13 346 101 90 82 
337 72 306 139 127 119 
82 694 169 101 112 162 
189 166 400 82 41 52 
358 711 352 154 130 135 
204 120 399 146 82 36 
140 71 269 120 99 79 
269 651 370 100 123 146 
352 695 426 183 197 218 
187 979 294 80 59 54 
248 384 315 32 78 115 
261 643 388 68 96 121 
233 877 323 158 116 83 
119 455 224 78 105 132 
262 699 248 161 160 170 
112 673 207 146 100 80 
188 388 431 157 140 128 
185 367 194 114 119 128 
154 798 208 201 85 65 
143 353 218 88 110 131 
237 357 238 80 104 128 
173 672 217 115 126 149 
253 433 326 111 127 150 
169 214 364 46 62 76 
317 687 391 129 77 80 
132 526 332 36 67 119 
160 170 307 111 54 8 
123 508 220 55 85 137 
212 354 205 154 116 80 
145 499 350 115 128 151 
99 525 245 78 101 123 
116 328 300 99 45 17 
140 72 263 126 100 79 
283 109 329 151 113 92 
122 771 188 126 133 145 
146 637 156 161 161 169 
73 344 305 145 42 72 
337 771 370 176 129 85 
134 482 331 93 104 121 
112 680 198 134 89 75 
178 152 355 77 71 68 
79 285 307 82 67 63 
190 890 283 115 88 60 
298 608 323 28 98 140 
192 1000 271 189 163 142 
287 81 300 137 109 78 
224 446 203 122 128 140 
140 76 258 129 98 79 
373 669 430 186 190 202 
140 651 251 77 67 111 
270 54 342 118 96 75 
238 256 342 161 156 157 
122 324 324 97 97 102 
147 210 415 51 73 96 
180 340 198 126 113 107 
207 660 224 126 134 147 
141 79 257 125 96 75 
186 951 352 201 155 133 
149 149 390 132 45 33 
196 500 194 118 140 187 
194 138 373 117 89 80 
154 195 377 59 43 47 
172 716 173 101 78 100 
130 691 312 144 157 175 
116 696 126 82 143 194 
137 336 342 78 47 34 
143 253 400 116 113 111 
88 371 245 59 78 109 
201 893 268 63 53 45 
174 670 187 104 121 140 
166 195 429 110 68 87 
252 616 298 100 101 104 
141 78 261 123 100 77 
162 174 378 75 42 37 
318 648 299 97 112 129 
206 426 423 73 103 162 
223 723 394 149 131 118 
139 772 263 125 92 72 
188 901 266 93 73 49 
140 72 264 124 98 78 
170 643 175 166 166 172 
251 467 339 112 125 142 
196 635 209 138 158 184 
155 155 403 96 53 59 
148 550 360 106 127 153 
162 619 363 166 161 165 
149 556 357 83 98 114 
132 345 232 79 106 130 
138 541 356 52 83 141 
138 271 333 75 87 101 
273 524 277 172 175 185 
140 74 266 121 99 77 
173 891 305 131 104 76 
93 696 183 80 90 137 
113 326 250 85 109 131 
278 622 405 35 68 108 
249 392 259 91 114 137 
173 396 407 102 120 159 
298 644 426 64 130 176 
375 634 389 113 129 149 
116 712 192 68 85 119 
112 347 292 84 95 109 
265 903 316 121 102 83 
155 156 256 115 101 90 
148 497 337 129 137 150 
140 75 268 121 101 81 
200 347 406 146 31 63 
274 775 376 175 126 94 
120 653 242 166 107 91 
277 742 390 149 130 114 
213 808 232 201 172 145 
177 691 367 173 87 60 
181 265 221 142 139 139 
206 723 201 176 191 211 
140 77 265 122 101 79 
258 826 323 204 142 115 
234 232 308 49 66 97 
153 333 404 119 131 147 
221 647 256 70 96 120 
82 566 275 153 136 127 
248 500 220 171 183 214 
171 142 284 109 91 82 
217 267 376 81 112 138 
128 661 267 138 92 84 
269 625 406 51 73 99 
205 280 397 100 121 145 
176 891 298 119 91 64 
210 525 212 94 114 135 
184 675 190 70 95 129 
176 660 195 103 124 151 
74 511 285 143 122 100 
131 254 300 46 35 53 
140 76 269 119 99 80 
292 657 276 101 110 123 
70 342 318 41 65 89 
242 646 256 71 97 128 
201 302 410 179 150 119 
116 671 306 157 104 95 
256 94 336 77 64 51 
296 597 362 80 88 98 
169 214 368 48 61 73 
140 79 269 115 96 78 
128 635 151 112 119 129 
141 78 269 118 98 80 
192 177 270 113 35 14 
168 217 369 45 58 71 
355 663 328 109 130 156 
266 84 309 134 109 81 
257 904 286 81 65 50 
102 332 254 75 101 125 
152 762 177 168 169 198 
274 14 315 155 137 123 
275 499 286 82 115 144 
136 552 359 115 142 172 
324 773 339 136 127 123 
140 64 275 121 102 84 
93 362 248 70 55 75 
215 636 254 62 60 60 
170 967 311 98 77 67 
239 954 259 105 78 57 
362 679 339 141 156 179 
93 259 279 118 102 87 
109 655 289 191 129 124 
271 528 263 141 156 180 
123 644 316 80 103 161 
217 191 366 102 55 67 
256 415 262 48 89 121 
267 842 287 213 160 126 
243 847 312 185 134 104 
208 850 271 177 131 99 
236 325 254 164 123 77 
175 695 236 97 106 137 
141 65 277 121 104 88 
141 64 278 119 101 86 
168 651 176 110 151 189 
277 780 268 175 163 158 
222 470 376 96 117 148 
248 661 394 120 112 110 
136 289 350 77 80 88 
180 804 296 100 119 138 
128 726 144 64 115 162 
209 269 395 128 137 151 
142 66 278 118 100 85 
252 169 345 128 84 86 
134 269 324 80 43 58 
127 635 151 112 120 131 
212 832 248 231 158 117 
191 487 192 96 124 174 
79 548 280 156 54 0 
140 69 273 118 100 84 
165 282 224 114 94 89 
202 161 385 105 58 71 
299 599 335 50 108 150 
84 411 300 98 107 119 
157 153 257 118 108 101 
120 749 164 170 171 232 
102 407 299 103 107 116 
112 578 244 94 110 130 
152 510 200 85 119 154 
184 814 291 156 116 98 
199 770 347 179 141 116 
262 608 370 38 45 55 
82 345 253 149 76 79 
182 506 392 101 121 172 
179 157 278 127 72 21 
190 257 435 140 137 140 
274 905 318 148 122 95 
229 511 218 75 106 139 
224 325 219 99 98 103 
253 657 391 77 113 143 
213 525 399 179 180 189 
203 447 191 75 105 147 
199 979 335 95 78 63 
225 628 386 57 63 71 
89 702 138 57 83 169 
303 797 377 204 143 118 
378 675 369 143 166 193 
142 68 278 109 93 77 
99 684 126 78 114 149 
97 688 126 97 127 158 
168 641 366 90 83 105 
173 810 220 148 133 121 
339 630 420 111 90 65 
174 352 197 104 98 97 
159 759 328 163 152 148 
354 743 371 68 60 102 
186 814 225 104 79 93 
286 47 345 130 103 87 
211 804 329 197 139 122 
199 519 207 141 147 179 
239 607 275 135 134 140 
334 672 427 132 155 193 
99 426 311 161 137 115 
232 956 253 151 124 98 
306 768 299 168 142 118 
122 757 174 227 223 244 
186 150 331 93 56 21 
204 825 241 205 150 104 
251 904 320 178 121 102 
135 789 249 146 73 71 
199 133 396 117 114 114 
195 601 380 123 100 81 
254 623 394 87 100 115 
335 759 348 173 153 138 
143 67 283 109 92 76 
145 344 218 79 102 126 
269 519 327 152 158 171 
73 489 291 141 85 45 
130 280 307 89 21 38 
187 228 427 80 100 118 
256 577 287 206 209 222 
72 379 308 55 92 123 
276 919 324 140 105 88 
174 678 224 138 143 155 
208 980 240 105 65 46 
153 262 421 114 131 152 
78 293 285 133 57 6 
107 399 314 126 127 134 
98 462 325 159 76 4 
147 749 167 136 141 170 
160 177 424 109 95 92 
236 126 330 107 93 82 
205 805 227 194 157 114 
193 670 378 157 72 33 
122 338 244 151 147 149 
142 68 282 110 93 77 
265 475 240 141 141 146 
142 69 282 112 95 79 
302 102 312 153 109 96 
303 78 323 131 103 72 
269 519 248 143 159 181 
98 425 303 139 115 88 
158 370 201 141 139 142 
159 732 262 115 132 153 
166 643 365 88 112 134 
194 658 216 108 122 139 
246 678 237 95 116 138 
202 893 268 61 52 45 
148 319 401 156 152 155 
315 647 298 113 117 125 
165 178 307 94 94 94 
233 285 250 85 112 136 
292 592 384 90 86 84 
174 818 264 119 117 120 
225 943 346 161 118 95 
267 480 318 112 126 150 
97 328 301 76 22 47 
98 450 322 114 108 109 
138 671 197 128 133 146 
171 141 283 108 90 81 
131 295 246 107 82 82 
223 254 294 113 116 123 
149 213 307 64 36 45 
143 70 286 110 91 73 
133 261 374 117 120 127 
164 924 331 143 112 89 
159 269 231 112 51 63 
222 457 376 144 148 160 
225 349 371 170 141 112 
225 483 373 157 155 162 
123 612 327 157 163 177 
116 622 258 63 75 88 
233 195 304 81 45 23 
223 343 377 149 85 66 
234 505 372 163 159 161 
269 505 242 171 174 184 
239 649 250 83 97 131 
266 472 317 138 145 158 
194 890 275 82 66 48 
221 785 227 134 120 108 
226 176 310 65 39 44 
79 395 302 105 105 111 
253 852 270 179 134 100 
250 840 263 165 123 90 
143 344 394 111 127 147 
226 964 334 150 117 99 
363 674 338 126 146 172 
150 229 370 57 60 70 
185 971 256 111 88 62 
254 523 227 151 156 170 
206 186 376 109 30 47 
104 469 239 131 111 89 
346 622 337 94 104 115 
206 343 427 158 43 76 
143 384 388 75 99 148 
159 773 303 76 74 72 
215 427 386 100 110 137 
199 308 436 179 151 121 
85 285 253 148 74 0 
234 947 337 101 77 61 
187 173 372 59 43 47 
140 75 279 111 96 82 
340 765 362 180 148 113 
244 238 328 148 15 63 
117 627 226 77 88 100 
374 634 392 90 119 147 
133 750 227 114 123 136 
251 399 314 107 121 138 
232 439 209 144 145 152 
140 77 272 112 94 77 
142 513 356 92 108 149 
157 470 356 52 70 95 
322 603 372 84 99 114 
96 491 247 72 93 117 
284 638 396 95 124 166 
117 420 230 107 94 101 
225 695 216 83 123 157 
242 905 252 94 72 50 
140 79 273 110 93 77 
140 78 274 111 93 76 
223 340 376 148 25 66 
282 617 310 99 116 146 
162 604 366 144 146 155 
175 695 227 146 150 161 
155 150 398 94 56 44 
146 670 187 125 130 143 
101 564 314 118 78 93 
125 609 200 79 106 154 
230 886 252 80 66 54 
160 940 313 123 100 81 
137 737 304 153 53 59 
151 425 198 155 152 156 
309 642 434 97 127 160 
266 579 312 102 120 141 
210 836 308 174 128 105 
216 498 387 158 158 165 
210 276 382 155 152 156 
242 687 232 150 149 154 
318 740 400 142 115 89 
178 543 373 52 80 120 
159 228 348 83 74 81 
186 647 387 118 90 87 
266 932 319 118 97 85 
171 300 437 103 127 151 
161 319 420 127 139 155 
147 800 212 209 119 82 
141 75 281 105 90 76 
133 419 213 133 88 92 
204 410 387 121 75 78 
121 273 250 117 102 97 
213 462 399 165 171 185 
112 448 344 72 95 141 
133 286 372 103 99 102 
153 274 418 93 117 139 
213 460 402 136 152 173 
113 373 325 66 99 126 
136 325 343 112 91 65 
305 708 286 137 151 169 
141 647 151 147 147 154 
248 590 290 156 153 158 
145 344 373 96 101 111 
180 330 200 86 107 126 
142 73 284 104 87 69 
154 523 354 90 107 134 
243 754 384 123 141 162 
161 676 360 107 134 160 
77 529 280 175 139 94 
189 985 279 116 92 65 
102 440 245 167 128 83 
144 292 327 88 90 97 
132 759 231 122 132 146 
76 282 327 93 73 81 
244 411 342 77 109 142 
291 644 397 108 126 160 
236 320 268 142 133 127 
338 727 329 172 128 62 
227 360 218 130 103 99 
166 906 323 166 124 98 
228 708 218 95 145 184 
208 912 355 197 149 130 
223 867 335 141 98 68 
288 59 340 126 104 84 
184 180 269 108 44 17 
224 316 375 148 142 143 
148 668 265 136 100 92 
150 163 383 54 55 74 
192 408 426 122 134 167 
156 403 198 110 122 139 
141 77 283 99 85 71 
154 693 158 143 142 146 
164 429 191 60 97 129 
169 908 299 92 73 53 
87 348 277 65 79 98 
84 395 255 133 38 76 
214 186 369 124 48 66 
152 170 381 80 56 58 
231 297 355 159 158 164 
97 387 252 96 69 73 
67 299 329 86 99 117 
156 234 434 72 110 139 
177 334 437 183 152 117 
193 263 434 144 143 149 
121 600 246 115 121 132 
140 78 284 98 84 72 
83 283 305 70 46 45 
140 79 285 96 82 70 
151 248 328 71 74 90 
360 705 420 160 190 223 
242 637 397 98 112 169 
163 295 221 123 114 108 
121 561 331 54 83 133 
390 654 405 109 127 146 
357 728 364 168 142 113 
205 294 209 117 111 110 
75 449 299 186 158 131 
121 345 332 91 70 85 
259 790 259 117 126 138 
196 668 380 156 83 34 
191 663 209 104 120 137 
369 672 432 110 128 183 
344 656 437 120 147 184 
149 570 220 61 82 100 
216 608 237 88 129 163 
141 201 343 24 42 59 
97 676 196 153 104 81 
138 667 329 42 52 94 
344 713 417 185 129 140 
168 163 264 124 71 11 
165 320 424 184 158 133 
142 80 256 127 95 76 
321 786 339 123 106 90 
215 488 397 91 117 158 
185 801 212 139 118 101 
186 528 393 134 153 184 
242 441 355 139 146 159 
361 727 395 153 112 140 
173 583 182 114 128 152 
129 287 298 107 26 36 
203 462 192 79 109 150 
203 282 410 121 100 121 
141 80 260 120 96 74 
391 661 386 84 121 192 
310 813 340 210 146 118 
337 768 357 162 135 108 
150 167 393 87 68 84 
142 550 365 170 183 204 
97 588 259 74 97 126 
141 81 263 121 100 79 
141 708 289 99 113 129 
259 135 309 115 104 94 
141 83 260 114 89 68 
115 755 206 121 121 155 
161 555 356 140 143 153 
85 407 252 151 148 152 
141 83 262 115 94 72 
231 207 302 72 57 61 
135 674 328 103 118 136 
98 663 204 146 101 79 
342 627 329 84 106 126 
142 85 257 131 96 77 
227 221 265 133 42 16 
290 47 329 94 77 59 
148 229 417 100 76 89 
244 730 236 88 73 83 
113 761 195 130 159 187 
139 373 321 50 62 75 
278 641 383 109 132 156 
270 161 327 107 115 128 
104 671 137 81 75 72 
284 661 269 121 125 133 
234 568 228 163 182 207 
254 639 271 123 126 132 
142 86 258 126 90 73 
368 641 400 131 142 159 
136 397 214 153 117 80 
94 296 307 75 75 80 
328 682 301 119 130 154 
119 675 297 189 128 123 
102 261 304 47 34 36 
157 744 170 165 160 165 
241 564 236 138 154 182 
141 84 263 116 95 73 
308 86 318 146 106 74 
215 414 417 121 105 92 
246 476 215 145 143 146 
153 705 156 155 157 167 
272 783 267 100 87 79 
218 574 382 102 120 139 
138 666 332 39 48 76 
198 481 192 126 141 172 
137 781 257 130 59 64 
204 155 385 79 61 84 
140 757 169 170 176 224 
112 352 344 138 133 136 
186 969 256 99 74 53 
159 712 207 12 42 105 
245 627 403 77 99 120 
94 572 305 123 132 148 
372 674 355 123 142 175 
208 569 202 181 181 190 
344 630 410 114 94 74 
252 482 345 41 81 135 
148 476 330 68 88 125 
240 640 270 60 102 132 
112 632 182 131 143 160 
89 395 296 56 80 101 
82 686 177 59 109 154 
153 527 354 93 109 135 
164 275 433 106 130 154 
229 269 244 126 125 128 
233 366 225 134 138 148 
334 766 350 182 147 106 
140 80 269 114 96 77 
323 763 331 177 151 126 
313 606 405 111 92 71 
247 109 322 97 80 61 
252 659 381 101 131 159 
140 80 271 111 93 77 
264 124 310 109 89 66 
144 238 405 140 141 148 
265 676 377 57 92 116 
253 844 310 203 143 118 
257 582 348 103 98 96 
237 318 276 128 136 147 
141 83 269 113 93 74 
154 125 389 132 79 50 
175 371 426 173 93 31 
189 989 258 105 77 56 
138 415 325 35 61 93 
229 426 365 147 152 163 
112 632 201 79 90 101 
247 600 289 73 89 105 
306 80 314 131 95 43 
177 660 195 96 118 148 
141 84 267 117 96 76 
339 768 369 201 162 118 
197 516 400 116 139 179 
228 308 357 129 141 158 
267 128 339 111 90 67 
157 174 379 74 41 37 
156 698 159 153 151 156 
259 928 296 66 52 37 
172 702 247 68 79 113 
138 314 391 75 117 149 
170 890 328 146 106 82 
254 170 344 147 109 91 
236 585 261 137 154 178 
90 418 247 91 119 153 
140 610 344 174 171 175 
296 595 400 114 96 77 
245 537 369 115 122 134 
70 339 311 132 55 64 
139 637 344 153 151 157 
226 279 299 139 139 146 
286 807 369 202 153 127 
153 202 376 60 44 47 
148 620 161 94 109 125 
126 670 278 155 103 95 
244 426 226 104 116 131 
122 324 310 95 102 113 
250 716 395 130 106 87 
256 947 327 103 82 67 
221 202 300 40 50 68 
203 269 404 151 116 94 
252 574 352 114 108 106 
207 596 223 77 136 177 
123 497 331 74 91 114 
235 992 255 202 169 137 
88 402 246 156 152 156 
229 798 238 161 145 133 
128 311 312 79 94 111 
204 453 191 80 109 149 
239 339 273 144 104 54 
290 73 303 134 110 83 
143 91 258 137 101 77 
223 713 395 118 104 92 
95 269 276 108 64 19 
316 699 391 99 41 59 
142 89 260 128 96 70 
139 586 224 76 88 103 
246 947 330 120 100 81 
188 234 429 71 106 135 
142 506 371 60 102 153 
240 123 352 126 113 101 
110 630 244 78 80 86 
197 816 230 191 152 113 
249 432 340 83 106 142 
253 393 297 61 96 127 
264 684 383 113 84 90 
72 265 315 88 77 72 
191 645 385 149 90 42 
356 628 395 99 116 134 
266 541 260 160 177 199 
214 429 197 109 123 144 
147 378 362 55 78 124 
190 795 319 191 136 115 
219 274 376 145 142 143 
258 935 279 52 40 31 
120 272 296 67 44 63 
91 479 305 163 134 103 
270 607 327 13 61 109 
195 756 200 94 91 135 
138 323 341 101 86 71 
228 852 261 138 105 79 
169 817 227 180 152 134 
138 787 258 99 98 99 
129 175 301 72 65 62 
217 123 377 158 87 27 
167 216 369 48 62 75 
134 500 212 85 117 165 
165 928 339 119 96 84 
128 525 221 167 161 166 
233 417 214 97 111 129 
148 359 396 117 107 100 
261 109 309 137 107 75 
145 513 345 91 116 144 
356 641 333 106 119 135 
220 670 219 101 112 125 
173 506 195 130 142 194 
339 620 390 95 112 130 
194 138 367 111 86 76 
153 511 373 115 139 173 
203 445 418 91 121 172 
138 770 266 112 59 58 
269 468 264 93 112 133 
251 444 337 65 97 134 
214 777 220 114 94 84 
129 717 309 111 133 156 
168 486 378 55 73 131 
284 730 271 153 41 49 
235 261 339 150 149 154 
234 218 303 86 65 74 
193 980 242 144 114 84 
201 243 408 147 147 153 
254 565 357 125 121 123 
265 647 375 116 140 165 
217 158 309 96 56 45 
91 342 274 76 82 93 
104 536 246 84 98 116 
169 554 365 98 114 167 
217 454 386 135 140 152 
183 874 310 116 92 65 
82 344 285 103 62 60 
152 687 158 133 132 136 
149 221 421 118 90 75 
131 671 276 139 88 87 
207 332 388 179 153 126 
181 468 408 173 178 191 
162 712 262 95 105 121 
122 609 248 70 87 107 
162 357 409 144 121 113 
322 790 350 157 119 75 
142 93 264 123 97 69 
188 597 376 90 107 129 
238 545 222 95 115 154 
222 320 376 126 138 154 
280 606 400 120 85 68 
148 702 152 154 150 155 
270 476 300 119 132 149 
138 351 339 103 99 100 
246 514 217 140 157 186 
161 343 205 88 112 135 
169 654 364 115 124 136 
205 323 388 172 141 107 
239 986 256 143 111 75 
278 766 267 95 76 55 
230 759 225 99 108 119 
103 277 266 78 42 19 
182 481 191 128 143 174 
168 469 375 81 85 107 
202 404 427 159 135 110 
274 757 263 90 87 87 
218 365 382 157 142 133 
149 501 202 95 111 128 
134 262 386 118 111 108 
85 486 268 138 125 114 
210 268 387 154 150 154 
142 93 270 132 106 80 
254 929 326 117 90 65 
161 819 254 166 136 105 
265 844 285 209 157 123 
198 243 402 130 129 134 
143 557 221 89 98 110 
177 182 364 34 58 74 
250 671 382 76 122 157 
192 453 413 76 103 173 
71 292 257 141 114 78 
198 308 408 180 151 120 
143 95 270 127 104 79 
143 95 271 124 101 77 
148 681 350 118 143 168 
155 319 219 112 115 122 
271 539 274 126 154 181 
325 724 312 130 27 54 
102 309 301 41 57 73 
175 687 367 194 94 41 
78 552 281 155 81 24 
210 753 373 139 126 118 
224 371 375 134 139 149 
259 828 270 172 130 95 
155 181 303 101 52 18 
244 880 268 101 79 56 
202 386 388 167 65 0 
244 564 242 210 202 203 
111 439 234 131 75 88 
296 633 297 71 102 130 
232 178 357 141 88 74 
138 87 279 102 83 64 
148 250 415 95 108 124 
229 208 301 68 53 69 
164 946 331 190 145 123 
105 655 179 77 105 129 
140 633 342 146 146 153 
87 499 265 175 149 122 
75 303 317 67 60 71 
234 470 209 118 126 139 
277 600 337 86 121 150 
197 873 285 115 91 65 
183 312 443 134 105 119 
327 606 379 92 108 124 
235 305 258 105 120 139 
187 145 428 107 96 105 
239 253 343 166 159 159 
225 214 270 123 41 26 
130 292 315 109 108 112 
140 83 274 108 90 74 
172 372 195 149 146 149 
245 232 349 160 67 94 
236 919 339 183 132 108 
180 682 182 74 99 126 
237 335 317 142 140 146 
378 676 371 128 158 189 
154 253 358 78 85 94 
289 593 400 126 104 83 
140 81 279 101 86 72 
196 641 226 78 105 130 
105 405 315 135 134 139 
122 663 276 149 100 95 
232 397 354 64 100 128 
214 970 239 100 69 46 
250 461 225 124 129 138 
106 286 258 96 74 63 
78 423 301 168 144 118 
201 747 201 99 76 67 
248 725 237 120 131 140 
70 286 258 123 111 100 
144 384 335 37 64 98 
216 733 389 142 108 83 
100 341 297 78 78 81 
166 722 357 62 50 63 
226 245 280 143 139 141 
193 632 388 130 71 37 
215 819 315 167 108 91 
232 277 277 90 121 147 
157 270 232 113 65 81 
129 671 204 125 128 138 
208 919 354 147 112 98 
197 136 305 121 103 89 
258 747 389 182 168 160 
256 907 294 85 67 55 
247 489 357 96 116 147 
293 100 322 144 116 93 
135 296 348 74 84 99 
211 971 337 107 85 71 
234 854 258 163 112 74 
159 778 293 179 163 153 
138 796 210 208 16 77 
209 591 221 89 125 154 
127 616 247 66 78 90 
239 888 325 152 113 82 
170 181 378 73 41 44 
292 811 369 210 154 130 
247 154 351 126 108 109 
224 305 224 109 64 26 
139 82 284 96 82 68 
71 330 313 104 40 46 
96 443 304 147 122 97 
255 633 410 133 152 192 
228 962 334 137 107 87 
146 241 331 87 87 93 
138 85 280 100 83 65 
354 691 334 150 163 180 
155 248 333 70 75 83 
139 84 281 98 82 67 
221 166 310 79 50 44 
127 617 238 108 114 125 
138 84 283 102 86 69 
368 696 360 108 142 179 
220 238 303 94 32 58 
135 227 378 96 85 79 
176 496 385 135 150 173 
232 312 243 102 50 54 
154 803 264 140 116 91 
245 803 251 111 99 88 
138 87 281 104 86 67 
245 449 352 99 119 142 
131 637 150 113 119 127 
211 234 381 74 109 138 
271 563 295 149 152 170 
291 26 322 111 98 86 
271 12 345 83 73 63 
260 433 259 94 118 144 
232 627 391 59 78 96 
317 703 297 161 168 182 
139 85 285 103 86 69 
138 85 286 104 86 68 
133 764 235 120 130 144 
269 553 278 129 152 178 
256 923 298 86 70 56 
276 840 307 208 148 115 
167 816 227 197 157 121 
134 160 294 104 85 67 
266 651 263 68 76 85 
312 786 383 147 136 130 
331 610 382 95 108 123 
135 268 319 79 28 40 
228 240 308 122 10 60 
207 191 374 49 44 56 
139 86 287 104 87 69 
217 426 200 104 119 138 
268 153 311 176 67 6 
99 529 324 155 128 94 
266 457 304 95 119 146 
120 533 227 104 110 122 
149 376 206 137 135 138 
148 386 329 35 55 95 
329 676 414 137 160 186 
175 420 189 114 124 140 
115 290 340 104 99 100 
156 139 259 116 93 65 
197 734 366 142 116 93 
140 81 285 95 81 67 
140 80 286 96 82 69 
217 912 354 203 148 125 
264 807 271 146 110 69 
170 385 193 121 127 137 
360 728 373 148 19 47 
164 144 266 95 82 70 
180 188 368 78 40 39 
217 235 373 149 140 134 
140 82 287 99 84 70 
121 439 222 86 109 132 
234 603 387 154 105 92 
219 970 332 112 83 67 
219 498 201 92 124 173 
127 301 335 95 97 103 
262 132 308 117 101 87 
267 798 271 143 104 70 
88 398 272 93 86 83 
286 82 332 133 109 87 
138 89 279 105 84 63 
234 297 292 80 111 141 
271 470 277 159 156 159 
293 28 324 103 91 79 
253 860 302 170 119 88 
274 112 309 127 101 71 
139 91 277 109 89 68 
92 304 278 117 51 8 
249 919 256 63 51 42 
175 971 295 96 77 62 
138 91 279 105 84 62 
205 422 193 85 113 141 
245 451 222 143 143 148 
290 597 351 93 90 91 
165 918 280 95 79 65 
223 358 375 180 151 120 
170 652 183 124 158 202 
138 92 279 107 86 65 
177 182 422 132 71 71 
148 494 201 68 95 135 
215 986 310 119 94 77 
162 238 334 70 71 78 
191 956 351 209 163 143 
150 373 396 128 107 124 
82 569 292 167 139 120 
172 885 323 146 106 81 
104 614 298 91 122 183 
120 382 331 70 79 94 
102 721 184 103 120 140 
138 95 279 109 89 68 
122 700 192 100 121 153 
269 818 335 196 142 117 
170 145 273 106 91 79 
85 418 252 153 154 162 
262 710 250 154 160 174 
132 449 211 105 121 142 
264 947 322 124 95 79 
288 661 373 113 141 168 
146 651 250 82 81 105 
166 133 286 84 74 64 
269 154 312 179 65 8 
159 260 322 60 76 97 
288 816 287 190 139 106 
146 464 358 66 95 130 
84 708 169 122 146 197 
333 768 349 188 143 80 
99 648 212 81 95 158 
126 312 246 141 137 137 
140 90 275 121 99 77 
260 555 354 147 139 136 
300 638 295 113 121 133 
156 636 361 78 134 175 
147 708 192 46 70 118 
169 490 381 64 81 154 
100 416 300 113 107 106 
258 775 253 199 172 150 
256 906 265 69 58 48 
74 334 317 41 54 73 
336 75 309 176 159 147 
149 243 418 149 146 148 
329 620 392 60 64 70 
269 609 324 57 95 123 
140 93 275 113 92 69 
180 262 443 139 140 146 
77 533 281 170 134 89 
346 627 396 62 91 116 
215 504 388 109 122 144 
152 753 327 140 147 157 
224 363 214 122 67 78 
141 94 274 113 92 69 
268 509 323 150 153 161 
141 95 274 109 88 66 
139 691 335 142 157 175 
269 521 250 182 183 193 
343 734 340 120 110 104 
146 289 331 66 67 81 
186 156 402 49 69 92 
327 675 411 136 157 181 
201 325 202 139 138 141 
142 372 390 120 132 152 
198 205 382 45 67 104 
296 34 324 104 91 78 
140 624 156 114 123 134 
85 681 147 44 73 95 
236 890 340 177 130 102 
165 540 209 154 152 156 
219 646 254 77 99 121 
313 737 303 66 53 97 
276 507 277 141 152 168 
287 96 304 131 104 76 
217 182 283 68 48 47 
255 867 285 144 107 79 
393 656 399 124 148 176 
244 121 336 90 79 70 
252 477 220 117 121 129 
313 719 393 122 103 84 
186 464 410 158 170 193 
184 874 309 115 91 62 
264 627 298 75 110 151 
318 604 339 15 82 117 
224 778 227 112 98 84 
269 85 338 125 102 80 
172 150 273 109 100 93 
186 575 377 79 104 130 
156 312 220 118 114 113 
246 959 314 104 87 74 
84 692 149 122 132 170 
110 382 344 137 141 152 
263 853 302 156 109 72 
137 90 286 107 88 68 
236 262 356 154 150 151 
260 29 308 182 154 142 
87 431 262 144 148 158 
124 554 232 117 120 130 
153 414 380 46 71 123 
240 229 354 141 50 73 
249 444 345 75 103 138 
115 648 150 103 113 125 
164 728 169 120 135 158 
189 532 212 126 129 139 
278 642 385 115 136 160 
179 508 196 177 176 194 
103 516 331 61 95 148 
189 942 254 102 79 53 
109 644 291 121 92 81 
169 901 305 125 94 69 
263 579 312 80 96 112 
288 785 379 183 139 112 
263 437 274 92 115 139 
231 140 368 140 97 60 
138 93 282 111 88 69 
189 440 418 127 148 181 
337 756 349 158 140 126 
323 661 299 125 130 141 
116 724 198 71 87 138 
99 408 251 105 115 130 
272 491 293 121 132 148 
143 730 288 98 118 138 
209 192 373 48 36 55 
137 92 284 111 89 69 
145 396 206 138 106 74 
116 392 235 110 29 34 
134 577 230 67 91 115 
104 672 134 65 73 83 
296 814 366 216 157 132 
74 317 306 46 57 81 
137 94 284 112 88 70 
188 138 409 50 88 119 
137 95 284 114 90 72 
117 332 349 109 114 124 
127 742 219 79 92 126 
148 556 359 81 103 132 
187 171 374 70 51 51 
226 437 368 145 144 150 
168 178 315 105 39 27 
210 165 294 121 42 11 
92 323 265 112 83 100 
280 691 380 155 89 101 
253 704 241 132 147 169 
249 431 233 133 136 144 
150 716 154 121 125 133 
89 447 250 81 130 169 
173 272 223 130 130 133 
218 629 247 141 143 153 
160 733 165 78 107 140 
149 367 376 69 78 108 
246 887 270 75 60 48 
289 638 427 78 140 186 
94 359 248 65 44 72 
163 551 212 93 102 114 
167 289 221 121 120 123 
145 90 257 147 105 85 
249 383 269 88 116 141 
136 662 218 109 126 148 
235 916 251 86 70 52 
258 921 282 69 54 42 
131 728 310 115 121 134 
384 673 383 109 142 193 
146 91 257 148 103 74 
109 496 338 93 116 160 
109 285 298 79 48 56 
88 265 304 56 46 46 
129 725 317 144 19 53 
227 427 366 130 142 159 
341 628 399 87 79 72 
158 184 429 114 79 74 
309 599 352 57 68 79 
185 338 441 181 160 141 
147 585 186 93 115 136 
159 303 222 113 100 90 
87 509 263 183 156 130 
352 717 345 86 88 122 
145 95 258 142 111 77 
165 939 284 75 56 57 
71 280 335 105 83 101 
146 93 257 155 119 90 
299 96 321 147 119 97 
303 599 391 86 80 77 
111 356 292 109 111 117 
259 151 343 155 67 6 
171 715 231 89 102 140 
173 147 421 138 64 4 
132 434 328 79 91 107 
200 134 343 93 73 58 
91 720 185 71 94 133 
254 755 247 189 154 117 
89 518 305 174 77 17 
190 167 282 93 80 69 
163 717 218 124 130 143 
221 969 240 115 85 50 
224 126 340 115 102 91 
79 278 307 70 67 66 
264 619 316 54 90 125 
153 740 233 94 103 125 
176 789 309 164 125 116 
150 90 256 162 112 96 
156 420 195 140 143 153 
142 242 307 38 41 62 
116 659 279 155 109 96 
101 375 292 48 71 93 
241 345 313 151 149 153 
109 702 185 102 108 150 
189 175 272 117 40 11 
318 610 382 80 106 130 
282 605 325 75 118 151 
145 264 358 60 76 92 
227 750 385 125 104 85 
153 423 197 112 124 140 
88 415 293 105 93 83 
333 623 410 112 92 71 
84 373 278 115 91 86 
273 686 257 117 131 149 
239 716 399 140 115 102 
370 629 390 82 109 134 
163 920 303 77 63 50 
347 734 404 175 133 94 
249 972 280 111 90 67 
241 597 278 112 127 146 
365 709 366 164 178 199 
86 551 302 112 87 49 
226 243 307 138 114 85 
155 87 256 144 98 74 
255 875 283 101 71 56 
120 520 331 54 68 90 
285 739 274 90 46 65 
200 987 313 115 91 70 
290 593 400 125 103 82 
112 627 243 115 117 123 
226 247 364 80 116 145 
136 606 170 132 138 147 
205 290 423 180 153 126 
179 151 317 100 86 74 
257 899 271 60 47 41 
135 722 339 86 134 170 
157 819 237 178 142 109 
252 393 278 37 80 115 
257 441 322 101 121 145 
246 481 361 158 159 166 
257 768 248 109 95 81 
143 508 357 89 110 150 
363 664 338 122 144 169 
178 386 427 150 131 113 
136 546 217 101 111 125 
222 438 378 166 161 164 
266 581 331 139 140 146 
205 128 379 146 91 65 
163 926 323 152 118 89 
358 638 400 61 88 111 
255 620 311 39 43 49 
244 539 370 99 115 134 
74 309 307 51 82 107 
204 307 207 106 116 129 
85 577 290 188 101 117 
263 509 231 158 168 189 
154 423 336 63 77 108 
130 464 332 118 120 127 
247 213 349 109 112 122 
246 875 272 115 88 59 
205 323 418 194 167 139 
210 237 385 82 115 143 
276 581 391 106 95 88 
227 539 378 102 114 129 
241 546 224 130 139 168 
134 239 377 118 63 27 
152 420 348 122 124 137 
174 155 426 104 87 90 
181 174 369 68 60 63 
264 607 335 23 56 91 
140 587 190 93 112 131 
142 193 384 85 38 38 
147 495 349 115 129 150 
334 773 378 184 157 131 
142 245 399 141 77 27 
282 113 325 137 108 83 
256 161 344 139 71 80 
73 340 303 144 41 73 
157 332 411 127 131 142 
248 217 348 151 119 104 
158 387 199 99 117 137 
212 305 383 169 145 118 
306 603 382 71 84 97 
219 162 310 76 47 49 
118 378 343 88 71 70 
127 612 217 93 120 147 
153 95 258 148 117 84 
286 649 277 108 118 130 
230 261 282 120 126 137 
83 700 164 113 140 170 
125 615 205 108 120 136 
95 597 291 85 117 174 
139 599 347 98 89 123 
147 701 150 155 151 154 
321 782 335 96 98 104 
257 481 339 111 123 138 
256 133 309 118 106 94 
146 680 272 105 75 77 
97 698 129 203 194 204 
134 743 223 94 103 126 
257 904 314 111 87 64 
222 534 213 120 136 155 
184 817 229 186 155 126 
337 763 353 169 145 124 
143 197 341 46 48 54 
211 993 252 98 63 38 
214 872 354 175 130 106 
133 580 233 96 103 114 
226 358 216 130 102 99 
89 280 305 75 45 43 
133 306 379 76 96 117 
157 91 259 135 105 75 
176 880 337 153 114 89 
165 164 424 59 83 103 
338 760 353 160 137 118 
223 230 365 113 29 58 
150 708 194 112 124 139 
141 294 239 142 137 135 
314 676 289 149 149 156 
252 87 333 75 63 50 
187 876 350 150 106 93 
197 954 352 228 189 166 
279 640 379 114 142 170 
144 659 151 104 94 100 
159 88 263 134 105 79 
208 304 386 142 27 57 
154 344 403 93 120 148 
155 267 326 61 72 88 
84 374 278 121 95 85 
119 767 214 138 159 185 
293 593 382 86 84 86 
381 661 366 98 127 163 
216 791 227 146 126 109 
208 496 405 153 168 193 
179 814 279 143 134 129 
125 662 221 147 100 79 
75 339 314 38 57 77 
198 184 265 49 48 52 
78 546 296 189 74 1 
114 516 336 85 106 149 
137 546 358 117 138 168 
144 352 217 86 108 130 
156 95 259 138 112 84 
151 422 330 65 86 114 
157 93 260 128 100 70 
99 696 187 97 122 180 
127 608 221 116 133 154 
134 773 244 115 110 119 
171 683 370 183 126 41 
93 460 303 160 131 101 
207 382 198 110 121 136 
88 331 245 146 71 62 
245 125 353 122 109 97 
232 752 228 113 97 86 
218 835 251 228 158 117 
207 755 367 84 124 157 
377 697 396 123 143 180 
158 92 262 123 96 64 
142 462 349 136 142 155 
345 694 323 100 140 175 
154 640 354 68 120 158 
145 384 391 95 111 154 
118 769 195 85 117 186 
214 733 210 103 31 32 
160 406 194 145 145 152 
90 658 199 109 118 154 
350 745 364 153 140 131 
264 541 345 121 124 133 
120 342 324 89 90 100 
121 330 325 96 92 100 
330 72 313 162 146 137 
140 277 339 54 71 87 
197 633 210 119 147 177 
147 251 362 95 94 97 
224 870 342 154 109 80 
304 600 403 114 95 75 
273 641 386 90 112 135 
224 390 373 144 125 114 
285 96 305 132 105 75 
99 284 304 88 44 40 
144 239 331 84 79 83 
246 126 357 130 115 102 
159 92 265 123 98 69 
231 418 211 105 119 136 
345 742 354 190 178 172 
236 966 250 122 98 71 
104 544 326 59 97 164 
223 654 240 70 106 144 
120 671 312 131 97 87 
71 452 292 151 134 117 
122 535 226 123 122 127 
190 655 380 169 117 48 
166 135 275 87 75 65 
157 765 180 163 180 200 
111 366 344 138 137 141 
92 268 270 110 100 91 
136 588 212 116 128 143 
242 135 359 151 80 13 
101 674 132 79 89 99 
125 651 246 165 105 92 
159 94 268 106 85 61 
226 280 327 164 159 162 
147 447 328 62 77 113 
108 653 292 192 127 126 
194 780 208 79 55 49 
217 199 267 58 60 71 
162 277 431 94 122 148 
311 614 318 95 120 144 
190 262 436 147 145 149 
257 445 242 121 127 138 
325 61 316 129 122 117 
254 750 245 99 86 74 
318 623 420 119 95 68 
125 280 339 80 77 87 
78 552 289 168 127 108 
220 241 369 141 136 137 
118 359 345 97 73 51 
176 888 342 160 123 97 
143 75 289 101 86 73 
141 79 288 97 84 71 
152 200 424 94 68 83 
175 808 279 160 108 108 
180 459 408 88 110 167 
178 906 344 175 128 109 
251 420 241 75 101 126 
360 662 334 83 113 148 
200 428 393 85 80 116 
230 174 358 144 97 75 
100 538 247 81 99 120 
362 634 399 96 117 138 
115 641 308 79 74 95 
272 490 292 134 140 151 
130 671 313 107 80 69 
167 456 366 139 136 144 
160 272 430 108 134 160 
131 691 323 129 145 165 
222 307 318 87 119 148 
107 667 213 168 115 95 
169 138 283 94 83 74 
271 496 247 145 151 163 
129 349 327 79 49 69 
162 278 229 111 116 125 
256 789 360 212 155 126 
125 500 330 92 104 125 
180 740 183 127 156 184 
139 87 288 104 86 69 
387 643 393 106 127 149 
190 898 363 147 110 91 
231 968 323 104 81 66 
233 292 281 76 113 144 
264 603 382 106 76 66 
219 728 215 170 173 183 
116 567 331 95 117 166 
133 469 331 71 90 113 
76 381 292 36 65 90 
290 40 319 91 73 61 
202 189 379 93 47 54 
140 83 289 101 85 70 
153 730 351 174 128 111 
201 418 398 115 104 97 
225 428 369 73 109 142 
112 616 260 44 77 130 
115 647 149 102 111 121 
218 524 383 59 91 126 
218 345 381 142 32 65 
69 352 310 96 77 75 
340 688 425 160 178 202 
175 334 436 194 164 131 
229 544 216 81 108 144 
195 317 202 132 133 138 
204 801 224 168 146 128 
213 172 291 100 40 21 
91 577 300 70 100 161 
94 308 272 125 53 5 
165 441 373 64 78 114 
209 642 247 98 95 95 
109 366 303 64 91 112 
85 307 268 132 58 0 
95 598 294 96 132 191 
182 789 318 93 119 145 
142 83 292 103 87 72 
316 790 377 116 97 81 
250 449 337 103 123 149 
174 692 217 136 142 155 
234 930 340 184 136 112 
295 776 386 108 137 165 
143 83 294 105 88 72 
175 685 234 137 143 155 
222 377 378 173 74 6 
183 802 303 157 121 95 
191 708 186 92 130 158 
346 744 395 180 158 140 
250 406 328 73 106 139 
235 944 338 108 84 71 
69 400 300 79 124 159 
175 441 189 112 126 144 
256 515 355 131 141 156 
201 257 425 140 141 147 
159 610 170 92 113 135 
140 86 289 102 85 67 
226 580 233 190 185 188 
223 207 279 87 48 51 
147 203 411 43 67 90 
205 722 201 173 189 209 
77 367 292 88 107 126 
94 382 247 99 79 87 
203 683 200 83 106 132 
176 636 183 165 163 169 
218 633 390 82 102 157 
197 950 251 91 74 55 
168 901 331 174 131 108 
149 670 347 124 146 170 
153 733 223 63 80 117 
223 758 376 200 159 131 
207 132 361 147 83 40 
360 725 403 142 49 76 
191 151 396 32 49 92 
269 545 274 120 140 173 
89 369 245 62 88 117 
263 467 243 143 143 148 
221 298 320 91 124 152 
204 376 431 188 84 3 
124 608 182 85 104 125 
77 376 306 48 80 106 
152 516 371 90 117 168 
238 617 273 123 122 126 
112 572 242 90 105 125 
83 355 245 124 59 81 
155 444 344 90 98 114 
186 963 263 81 58 52 
262 919 323 149 123 100 
251 397 315 102 122 144 
80 541 277 182 60 2 
392 651 385 141 149 163 
132 152 282 103 85 66 
226 920 245 52 43 32 
155 164 381 39 53 69 
111 373 335 94 75 76 
88 482 296 144 114 78 
174 891 339 158 117 92 
150 218 425 105 80 64 
189 534 212 81 88 99 
139 88 291 105 87 69 
226 775 228 144 132 124 
104 395 294 78 96 116 
138 90 288 107 88 70 
292 72 304 125 101 73 
113 409 235 126 40 61 
228 233 257 104 60 67 
178 444 410 154 167 186 
293 614 409 129 98 74 
132 704 139 79 126 163 
223 332 217 123 85 82 
276 511 277 96 121 146 
257 815 266 156 121 83 
188 816 294 167 118 100 
111 672 132 82 106 132 
244 379 327 114 126 142 
111 629 255 127 131 141 
308 815 334 210 147 118 
277 37 312 134 113 92 
184 982 255 135 108 78 
227 223 266 134 41 12 
185 230 431 70 74 89 
220 876 259 118 84 66 
140 664 339 123 128 138 
206 783 341 203 150 127 
230 628 393 81 98 117 
120 712 195 126 131 142 
290 787 282 143 123 105 
218 127 361 149 102 67 
158 203 347 49 41 61 
