ply
format ascii 1.0
comment Created by CloudCompare v2.11.1 (Anoia)
comment Created 2/28/22 9:45 PM
obj_info Generated by CloudCompare!
element vertex 2019
property float x
property float y
property float z
property uchar red
property uchar green
property uchar blue
end_header
122 668 160 104 116 131 
256 157 308 138 59 2 
197 532 207 185 177 177 
258 107 313 118 91 57 
134 535 218 129 129 135 
89 251 280 105 71 33 
359 668 458 72 96 148 
124 723 130 72 97 162 
271 64 307 117 97 76 
268 806 277 148 105 70 
197 813 209 105 99 100 
145 795 237 145 27 48 
251 386 324 104 119 137 
218 873 351 139 102 71 
88 253 280 116 73 19 
156 364 378 139 129 124 
165 472 375 65 79 111 
240 768 393 157 145 138 
332 692 461 118 148 196 
199 760 377 143 135 133 
160 459 346 71 81 96 
188 752 171 193 186 191 
180 714 370 132 121 120 
216 250 283 130 87 95 
338 727 361 141 25 51 
180 634 156 112 130 152 
157 694 262 44 55 105 
141 511 344 108 123 141 
228 316 383 134 131 133 
245 600 408 161 119 106 
144 138 384 123 75 59 
197 222 396 113 74 86 
152 756 265 93 69 63 
306 752 322 146 127 112 
198 435 188 34 84 121 
93 381 289 113 115 123 
77 329 303 50 48 58 
112 542 317 103 127 166 
143 610 345 103 128 153 
304 642 449 138 150 167 
107 386 338 106 125 146 
134 486 323 86 100 126 
343 638 357 112 120 131 
130 647 209 145 103 83 
134 145 391 138 66 1 
258 592 403 96 89 84 
331 650 338 53 84 111 
260 882 312 152 110 82 
197 829 295 179 122 103 
187 821 291 150 104 87 
245 339 271 161 123 79 
79 235 318 85 62 52 
166 693 361 179 136 106 
251 379 247 115 126 141 
155 810 251 134 117 103 
274 832 341 191 140 114 
136 193 300 105 53 17 
344 731 375 149 90 98 
78 237 314 101 58 14 
135 749 152 145 151 203 
160 531 357 143 152 167 
111 681 148 114 139 170 
221 674 405 74 92 109 
129 693 112 78 111 137 
243 895 331 147 106 77 
224 422 374 93 111 138 
139 267 392 132 116 102 
169 708 259 74 90 109 
163 789 179 197 209 227 
352 695 363 156 167 185 
73 282 305 109 107 115 
349 733 394 152 96 97 
215 974 248 107 85 58 
232 439 207 62 94 122 
198 995 267 85 59 49 
78 236 316 94 59 19 
239 425 365 91 107 138 
78 237 316 94 58 15 
281 521 286 174 173 180 
195 594 389 95 114 161 
79 236 317 91 67 56 
221 761 389 130 136 148 
152 354 332 93 90 100 
129 165 375 94 46 41 
161 161 317 113 92 68 
85 298 248 162 69 0 
146 676 345 128 142 160 
237 305 236 112 122 135 
251 777 390 156 111 85 
139 517 366 109 134 165 
185 142 303 101 85 74 
201 729 177 134 133 137 
253 982 283 110 82 63 
246 464 367 78 101 141 
78 239 319 88 65 40 
350 713 373 176 186 205 
154 792 260 114 116 123 
218 633 386 142 102 90 
234 704 398 134 41 51 
254 956 268 104 81 61 
154 799 255 92 77 69 
216 931 362 80 59 54 
268 522 347 105 116 132 
254 373 271 148 148 154 
183 128 374 108 78 57 
221 285 303 115 120 131 
235 303 353 80 122 158 
283 650 295 124 127 134 
207 208 378 46 53 72 
231 319 297 119 122 130 
303 102 307 158 110 94 
132 677 191 145 99 82 
121 272 286 104 39 34 
140 239 389 133 108 94 
209 382 396 171 139 101 
274 552 307 133 147 167 
253 474 216 108 118 133 
191 132 343 98 82 71 
75 255 301 88 77 65 
81 383 289 95 71 77 
253 972 313 93 72 60 
75 255 303 78 67 54 
229 691 397 57 79 114 
218 643 235 155 154 161 
107 332 332 81 67 77 
169 132 374 98 69 48 
289 830 309 207 151 120 
176 157 365 97 67 52 
256 401 319 96 121 145 
345 685 461 143 168 204 
173 495 367 80 87 119 
209 825 231 188 153 117 
201 492 416 173 183 202 
262 417 309 111 123 140 
137 231 341 93 45 58 
105 600 273 167 178 209 
254 378 261 111 124 140 
219 578 192 117 153 190 
258 794 258 175 161 154 
163 322 416 164 159 161 
175 391 414 164 141 118 
286 686 400 92 128 159 
159 719 187 64 85 111 
201 712 178 82 127 160 
222 894 362 176 132 105 
120 668 281 152 104 94 
199 655 195 100 140 178 
78 248 301 83 78 78 
286 828 362 217 157 131 
108 443 283 141 68 59 
277 502 253 145 152 166 
131 551 222 94 107 122 
263 622 395 60 75 89 
73 358 295 71 64 102 
205 484 401 126 144 172 
226 875 342 140 96 68 
199 464 190 87 115 160 
249 373 248 154 151 153 
264 72 339 111 92 73 
96 329 293 98 30 61 
261 938 271 82 65 52 
182 549 393 103 134 176 
332 760 412 162 137 123 
77 252 299 93 80 69 
274 566 312 159 157 162 
377 658 417 165 167 175 
304 696 417 115 145 173 
109 536 314 154 166 183 
358 712 397 157 181 208 
264 14 310 158 136 120 
159 756 150 151 172 219 
77 254 299 86 70 56 
144 763 267 116 83 69 
164 593 191 94 116 137 
226 321 384 177 150 122 
205 990 249 136 99 61 
149 587 349 115 132 154 
298 800 396 200 141 112 
160 169 319 117 47 9 
265 858 300 203 152 120 
278 526 322 129 141 157 
185 200 405 129 73 66 
183 819 215 111 100 92 
174 798 302 114 113 118 
124 351 236 82 83 88 
236 286 259 145 143 146 
249 398 340 109 124 145 
190 983 339 101 85 73 
80 384 290 119 114 117 
77 253 300 87 73 59 
201 450 189 46 88 143 
189 445 187 79 109 146 
182 518 202 134 151 193 
246 645 418 76 96 117 
139 569 344 63 67 82 
221 828 238 195 181 173 
271 67 307 122 100 77 
165 349 412 181 153 124 
353 643 423 95 119 144 
252 388 323 85 111 137 
253 390 247 93 113 133 
107 276 263 110 60 9 
151 579 349 140 144 155 
183 812 294 100 127 152 
138 492 356 129 138 153 
222 982 244 109 84 58 
255 242 325 71 119 154 
162 689 361 167 97 45 
205 784 356 202 148 124 
181 808 299 106 83 75 
145 610 216 83 108 132 
150 170 309 96 72 48 
70 253 311 113 99 89 
185 835 250 204 188 181 
71 253 310 113 98 87 
143 136 393 103 90 78 
223 858 324 143 101 76 
332 646 441 111 91 71 
153 449 321 98 107 122 
100 400 256 65 95 116 
166 650 363 143 149 160 
262 924 331 136 105 79 
248 619 386 57 51 59 
187 385 187 115 129 145 
67 250 317 117 104 92 
140 655 332 131 116 124 
184 950 357 192 146 127 
272 12 343 100 88 79 
251 428 228 119 125 135 
247 356 296 128 92 57 
76 355 290 96 87 94 
99 536 248 162 67 3 
161 753 222 84 103 125 
159 412 357 82 98 136 
240 736 401 65 70 80 
212 131 350 127 111 97 
214 148 378 113 72 61 
82 291 244 162 66 0 
205 165 388 50 35 56 
170 159 256 102 95 91 
152 281 373 77 98 117 
163 645 143 117 121 129 
121 350 312 94 105 120 
196 272 424 148 146 151 
161 439 378 80 95 140 
79 335 288 145 39 70 
82 324 282 106 68 86 
366 671 387 160 171 189 
133 656 324 78 79 84 
196 834 239 218 183 152 
100 502 305 131 115 101 
136 212 389 47 46 74 
134 681 283 188 133 128 
151 405 203 137 79 76 
179 147 293 81 68 57 
155 662 371 77 91 110 
239 935 348 188 140 112 
174 168 256 118 69 4 
230 967 255 82 68 53 
321 628 412 98 112 128 
201 423 429 155 164 178 
193 218 404 106 61 78 
203 387 191 116 131 150 
154 369 379 104 110 129 
207 842 270 205 150 122 
196 354 191 118 101 97 
155 344 209 82 111 137 
162 705 174 77 89 121 
69 251 313 133 116 101 
165 573 218 106 109 116 
299 773 412 183 150 112 
348 717 374 169 182 201 
248 626 295 102 102 106 
292 49 330 87 70 51 
235 341 374 183 156 128 
312 688 307 121 130 147 
118 355 282 119 119 125 
287 611 405 70 83 97 
128 313 312 88 89 102 
264 723 403 97 86 100 
159 418 355 135 132 138 
227 613 399 163 118 104 
198 656 198 62 112 172 
270 732 268 139 12 52 
247 350 275 152 116 80 
291 666 413 131 157 185 
100 424 252 127 129 136 
271 116 337 129 102 74 
136 156 395 40 61 83 
69 249 317 118 103 91 
333 60 303 143 129 118 
279 13 338 102 88 78 
159 488 195 88 118 163 
154 290 403 75 89 108 
227 308 322 108 121 138 
227 715 400 74 77 81 
77 385 289 158 155 161 
115 657 181 53 75 101 
157 593 220 89 101 115 
266 821 279 157 123 86 
254 66 329 93 75 55 
202 765 374 203 180 164 
257 649 278 119 120 126 
177 520 393 87 115 166 
170 348 419 187 159 131 
210 805 216 191 150 103 
172 498 362 64 81 116 
249 645 418 79 96 113 
158 511 367 132 151 188 
259 620 387 77 88 101 
246 997 261 133 104 70 
209 343 430 157 39 75 
117 297 325 90 86 88 
167 158 365 87 67 59 
68 252 314 128 112 98 
140 579 222 101 115 132 
253 100 328 70 59 49 
298 638 322 76 104 130 
219 460 381 169 163 166 
68 255 312 126 111 98 
309 680 442 151 170 194 
186 702 234 99 107 125 
241 557 382 117 127 150 
169 746 233 64 89 126 
75 273 291 147 69 0 
111 700 146 97 124 159 
192 529 206 156 159 172 
258 12 329 138 116 100 
87 422 272 72 25 46 
151 775 245 143 127 135 
75 245 311 93 66 38 
178 271 216 110 110 112 
208 168 297 113 83 53 
128 662 147 80 87 94 
142 163 298 91 77 63 
74 297 316 81 80 92 
139 622 198 116 137 160 
118 419 311 43 64 82 
179 221 421 59 70 95 
304 765 315 143 129 120 
75 246 310 92 64 35 
191 627 174 134 154 179 
142 658 163 115 123 137 
240 865 263 164 118 72 
121 697 118 146 143 147 
274 684 268 151 148 152 
236 287 259 145 143 146 
135 403 220 135 41 67 
279 505 315 125 138 155 
226 603 237 115 114 125 
278 773 277 98 89 81 
159 530 353 106 122 159 
172 657 207 116 131 156 
220 529 219 99 104 114 
77 243 308 106 67 31 
167 805 195 155 16 56 
77 242 310 96 55 14 
293 759 298 118 108 101 
270 541 347 104 112 156 
243 169 309 77 47 41 
178 686 241 80 96 125 
264 525 228 123 142 167 
166 137 376 94 65 40 
106 268 256 147 102 57 
147 689 280 76 75 105 
263 534 231 118 140 175 
276 111 309 128 102 73 
153 680 269 151 109 104 
139 335 324 94 72 85 
162 683 257 36 47 77 
143 159 413 92 78 85 
78 256 313 86 71 62 
245 794 243 133 114 94 
78 243 308 107 63 12 
112 646 279 134 92 83 
120 531 232 69 93 123 
168 400 406 61 102 141 
141 539 211 133 139 151 
198 286 428 119 135 155 
270 544 260 144 151 178 
85 257 294 58 58 60 
126 331 314 99 105 117 
269 61 307 120 99 77 
237 894 261 84 65 46 
141 744 333 164 98 109 
155 603 185 102 118 137 
217 905 260 67 54 41 
329 767 406 174 161 155 
206 674 209 78 111 138 
204 1005 294 145 110 77 
256 232 318 95 98 124 
235 883 341 149 107 77 
215 998 249 103 74 55 
207 355 432 191 163 132 
206 253 383 76 94 112 
153 467 326 99 113 140 
273 97 337 114 94 73 
352 681 359 101 127 166 
237 908 351 171 122 97 
246 747 234 96 45 35 
161 728 132 174 175 186 
174 503 385 149 157 172 
228 353 355 144 138 137 
195 305 399 156 126 92 
164 302 425 156 158 165 
255 654 398 91 110 133 
192 916 369 203 149 136 
276 485 308 136 145 160 
151 324 331 86 79 80 
143 671 263 129 81 83 
98 295 298 74 70 80 
205 1005 254 194 166 141 
151 248 416 150 148 154 
128 692 114 79 104 126 
196 993 260 141 108 81 
160 179 318 92 76 79 
332 620 375 72 93 112 
183 282 209 124 84 49 
289 668 288 121 125 133 
159 679 366 184 154 121 
250 148 349 132 116 102 
151 604 208 63 100 128 
196 427 187 84 120 150 
149 176 358 84 58 53 
275 822 366 208 154 124 
176 968 334 169 126 109 
223 972 347 151 113 94 
125 283 254 104 62 56 
130 691 315 132 149 170 
166 172 420 78 81 89 
235 289 265 118 126 140 
289 39 335 90 69 52 
147 676 349 132 148 168 
74 245 314 103 82 64 
164 723 353 188 87 46 
181 751 163 170 165 169 
172 379 414 121 102 85 
267 429 272 59 92 125 
244 887 266 126 91 58 
154 535 341 77 93 111 
208 391 429 180 78 3 
103 486 241 163 152 146 
209 745 398 206 183 164 
150 494 334 139 141 151 
231 339 383 122 131 144 
188 679 192 89 106 160 
116 683 132 35 43 60 
184 677 224 105 116 145 
379 666 424 179 195 216 
90 257 278 124 80 13 
198 640 191 76 80 94 
155 684 364 87 78 74 
252 478 364 134 138 149 
187 391 433 134 115 100 
225 909 251 70 55 46 
246 468 368 94 116 143 
181 727 367 106 104 110 
258 659 431 118 133 176 
236 769 390 183 150 112 
153 691 267 66 81 117 
238 286 369 153 150 154 
263 69 310 123 98 69 
115 434 326 49 62 78 
137 774 209 148 157 172 
111 686 144 156 167 183 
123 676 141 135 137 141 
269 160 337 155 63 2 
242 368 328 115 123 135 
105 317 258 112 63 73 
274 794 391 177 135 108 
77 242 312 89 55 10 
147 806 239 141 104 91 
226 133 353 125 113 101 
77 243 313 90 64 38 
117 384 320 72 91 110 
292 618 343 86 120 149 
196 692 394 128 81 45 
148 188 427 97 93 106 
191 827 289 176 123 105 
277 145 310 124 106 89 
196 160 294 117 96 79 
131 654 153 76 92 113 
195 656 397 140 106 67 
174 537 212 49 75 98 
262 806 368 188 136 105 
131 549 225 60 83 111 
77 241 316 91 57 29 
191 819 299 173 122 104 
110 319 340 112 117 127 
313 87 311 156 111 66 
247 1001 275 139 111 79 
159 166 368 88 61 57 
77 243 316 93 67 35 
236 565 382 111 127 148 
156 293 362 103 3 35 
211 535 387 144 150 162 
132 708 322 104 133 161 
131 673 143 125 129 134 
146 152 267 100 83 66 
135 384 222 135 89 55 
97 360 290 95 96 101 
173 797 301 116 111 111 
162 716 263 87 96 108 
212 176 293 120 50 7 
218 270 298 87 104 123 
120 535 319 73 90 123 
278 835 335 208 150 113 
168 489 382 104 125 161 
287 627 329 93 119 144 
122 260 289 81 35 31 
76 244 314 92 65 45 
129 514 228 102 124 150 
213 956 257 79 57 35 
205 174 385 144 50 41 
108 395 326 124 126 134 
79 245 314 98 58 29 
267 98 338 116 95 74 
363 705 437 105 125 180 
100 541 293 115 98 81 
243 266 361 92 125 152 
197 131 353 117 84 54 
78 247 315 99 61 40 
178 681 239 86 96 129 
324 778 401 157 129 99 
213 381 396 176 146 114 
269 459 315 165 161 164 
353 659 358 92 119 148 
199 625 194 66 127 172 
113 716 146 114 136 180 
166 772 329 194 170 154 
252 369 286 128 120 117 
119 368 323 109 86 62 
148 780 233 120 132 147 
77 246 317 101 64 43 
81 420 281 127 124 128 
176 143 305 84 72 62 
168 932 323 157 118 88 
262 846 283 183 137 108 
142 406 214 115 101 108 
241 353 233 124 72 87 
171 452 188 85 123 156 
78 246 316 100 62 40 
78 247 316 100 62 40 
125 607 315 74 96 149 
162 815 211 198 64 71 
230 294 320 106 119 136 
162 426 377 48 68 110 
145 149 416 126 72 36 
202 129 363 135 82 32 
274 909 326 143 121 101 
255 143 346 106 97 90 
255 171 306 80 66 83 
139 579 223 110 122 137 
211 165 301 112 70 28 
131 550 345 71 101 156 
73 250 310 94 76 63 
311 793 343 150 127 105 
259 548 232 189 192 204 
260 405 256 109 126 146 
98 578 257 124 139 166 
74 249 309 90 70 54 
128 186 274 81 71 61 
175 729 149 197 193 200 
331 56 314 132 125 121 
255 607 314 105 107 113 
175 972 303 87 71 64 
257 783 256 128 108 88 
97 490 256 128 20 47 
200 192 260 84 37 30 
202 743 393 187 147 98 
226 387 379 170 88 26 
246 628 288 106 107 110 
249 662 254 76 106 133 
262 683 255 103 116 132 
262 512 219 134 144 158 
177 802 300 160 96 107 
122 297 326 92 88 90 
75 253 307 90 78 71 
144 727 344 178 87 91 
103 369 233 63 97 125 
123 320 283 95 95 101 
197 954 260 113 86 52 
75 255 305 96 82 69 
226 556 199 74 94 113 
163 541 368 110 131 168 
235 883 343 155 113 82 
297 704 411 145 56 60 
343 750 403 120 103 96 
208 159 303 115 67 10 
198 473 417 144 157 178 
161 159 417 112 86 77 
172 166 374 86 59 50 
175 802 297 126 108 95 
270 803 275 146 124 106 
136 256 389 152 67 5 
156 167 369 87 57 49 
144 205 415 107 49 66 
276 498 250 173 171 176 
168 192 356 75 46 51 
286 804 394 204 151 123 
301 75 327 137 112 88 
156 622 358 158 153 155 
214 687 200 67 93 121 
266 658 274 122 123 128 
110 319 289 93 68 79 
86 383 289 70 36 53 
75 252 308 93 79 71 
179 720 243 81 91 116 
236 303 372 77 106 132 
138 622 332 111 127 152 
107 532 245 115 90 71 
76 249 304 100 96 96 
225 993 318 122 101 79 
174 585 374 77 107 135 
77 249 304 93 89 89 
95 482 276 130 56 48 
279 526 278 117 138 164 
150 664 133 113 116 123 
76 250 305 96 94 95 
91 315 236 83 97 113 
155 680 185 104 123 145 
236 264 312 145 53 3 
169 372 413 136 104 63 
104 306 292 45 59 80 
120 354 284 112 113 119 
188 671 385 175 104 70 
289 77 333 136 114 94 
79 249 305 60 58 69 
127 621 295 84 114 167 
79 248 307 84 77 79 
144 207 362 66 42 46 
208 220 377 48 73 102 
260 77 337 106 88 70 
110 672 170 105 123 163 
204 330 196 88 103 119 
128 560 230 75 91 107 
187 635 381 59 46 73 
334 700 455 153 180 208 
79 251 307 70 54 61 
253 892 302 131 96 72 
146 313 387 78 122 156 
142 755 320 109 98 115 
123 357 306 114 118 128 
180 830 230 245 226 215 
135 707 293 87 113 137 
118 318 282 105 92 93 
247 818 251 112 108 107 
277 135 332 131 105 78 
182 673 222 110 117 138 
150 185 429 99 90 101 
100 492 304 113 97 80 
79 251 309 75 53 57 
107 453 237 86 112 136 
270 920 328 153 127 102 
201 894 287 98 79 60 
174 497 367 91 97 120 
276 490 252 72 102 131 
323 658 327 88 106 128 
306 747 425 105 92 92 
208 713 399 142 70 25 
102 574 250 137 151 175 
201 582 182 100 111 126 
106 595 253 195 189 193 
205 333 393 169 142 113 
81 272 309 91 66 54 
322 697 319 167 165 172 
210 814 220 144 126 118 
88 530 265 168 129 86 
219 905 364 179 135 109 
152 275 368 105 106 113 
294 637 321 77 104 127 
89 459 263 152 130 106 
179 568 387 108 138 178 
311 807 367 182 123 90 
252 756 242 127 83 72 
256 421 237 101 115 134 
234 276 314 133 75 27 
266 534 355 116 131 150 
151 173 363 90 58 50 
231 830 329 188 129 111 
214 477 392 101 125 154 
246 568 378 68 92 125 
185 656 390 172 86 52 
267 840 329 199 143 112 
152 675 261 144 100 92 
257 882 302 135 91 66 
280 127 329 131 106 78 
157 724 127 205 194 196 
146 351 322 77 94 113 
142 762 283 185 147 111 
153 479 336 131 139 152 
282 817 385 205 148 123 
72 248 313 125 107 93 
227 224 272 128 37 23 
72 249 313 132 114 99 
212 997 312 89 57 37 
82 259 284 129 115 100 
210 357 426 186 153 118 
105 389 336 142 147 159 
72 248 315 116 101 89 
244 694 234 78 116 148 
222 307 298 81 114 141 
194 919 259 85 68 47 
109 520 244 72 80 101 
225 829 327 180 121 105 
172 331 427 183 152 120 
140 467 323 115 118 127 
291 58 318 118 95 68 
114 722 153 66 99 164 
102 293 243 134 39 21 
193 796 332 195 141 120 
169 478 354 107 112 126 
108 446 286 148 119 83 
238 297 265 96 118 141 
165 131 258 120 93 59 
179 426 420 115 133 163 
124 337 308 108 105 107 
278 747 277 83 54 63 
138 670 306 143 153 169 
146 156 264 98 82 65 
271 482 325 164 161 165 
207 811 331 188 129 112 
111 375 244 107 95 97 
230 277 373 89 83 94 
258 582 283 198 195 200 
149 177 357 85 65 62 
272 28 305 164 143 128 
190 679 206 92 115 151 
182 504 400 96 118 163 
288 43 345 136 107 88 
229 864 326 157 113 85 
110 590 298 73 102 163 
257 238 326 63 117 155 
100 582 254 146 161 178 
77 248 318 106 60 39 
199 906 271 100 79 58 
279 842 313 211 158 122 
212 853 276 190 141 110 
123 422 315 47 61 76 
239 829 334 198 139 120 
149 663 347 60 89 121 
171 175 418 92 75 82 
138 649 209 162 114 93 
157 319 374 130 120 115 
77 251 318 106 57 34 
269 448 263 101 119 140 
152 231 425 115 47 74 
132 653 155 83 99 121 
137 722 285 101 130 158 
226 870 330 163 120 91 
249 373 312 143 144 150 
278 16 318 154 136 124 
146 378 318 47 63 98 
164 375 405 139 124 113 
134 233 368 65 84 102 
132 630 209 67 81 101 
113 453 239 141 118 91 
132 656 149 78 93 113 
195 401 397 163 69 21 
113 414 333 55 78 103 
115 586 241 61 88 117 
263 668 261 121 122 127 
260 594 406 102 92 85 
148 135 268 100 84 66 
94 432 281 118 7 50 
149 167 371 87 57 46 
77 252 316 102 56 36 
268 190 337 112 88 108 
235 882 269 135 92 62 
170 187 423 121 79 73 
99 377 245 122 84 80 
260 871 297 153 114 81 
153 696 359 128 110 96 
174 643 384 39 45 67 
140 478 212 62 92 129 
256 602 315 99 115 133 
258 739 250 76 62 76 
99 500 301 135 99 55 
121 678 181 160 111 89 
185 233 419 100 86 93 
183 633 160 138 147 162 
243 135 342 88 77 66 
219 938 363 167 133 105 
175 670 151 140 76 79 
210 457 192 65 105 141 
141 302 238 100 49 48 
121 664 190 149 105 85 
299 671 441 83 79 133 
202 458 189 55 95 143 
178 217 425 59 92 119 
299 748 308 90 98 109 
171 927 290 86 71 60 
204 830 234 177 142 105 
182 686 167 127 129 136 
257 614 382 64 67 73 
344 717 366 184 87 100 
175 526 381 139 155 178 
135 760 190 119 134 160 
212 507 200 108 121 174 
221 540 386 68 93 135 
152 300 402 79 121 153 
285 774 286 144 116 83 
344 709 357 163 171 186 
143 629 345 175 167 167 
185 183 263 104 59 29 
181 962 278 80 66 58 
135 350 322 113 56 80 
293 701 289 157 155 161 
251 217 306 150 57 43 
134 653 228 159 102 88 
226 227 273 129 39 24 
134 551 338 98 123 151 
201 637 196 94 98 106 
173 739 232 92 109 133 
231 629 259 98 122 146 
115 618 268 97 122 186 
189 595 172 128 134 145 
148 360 213 114 124 138 
354 698 369 127 144 179 
183 727 369 111 110 122 
241 263 363 72 106 134 
175 681 243 68 80 120 
168 159 328 117 69 1 
177 677 240 77 91 119 
85 234 291 73 61 49 
278 909 324 107 85 68 
149 569 217 101 111 123 
189 578 390 112 138 182 
202 676 202 122 134 150 
165 494 195 68 102 154 
149 630 157 85 109 131 
206 549 400 40 93 158 
230 156 314 125 63 6 
152 652 244 50 66 120 
146 799 201 181 195 215 
247 665 251 86 55 33 
162 143 372 84 67 59 
209 846 282 188 139 115 
84 448 280 176 148 117 
176 445 406 117 137 160 
282 662 285 84 107 128 
87 234 288 115 105 96 
86 234 290 75 64 52 
235 266 255 77 110 138 
238 888 345 163 118 88 
193 896 295 107 87 65 
132 618 244 90 100 114 
310 780 337 124 119 118 
136 523 365 133 154 183 
232 651 418 126 147 182 
267 511 227 182 179 184 
177 678 180 110 123 140 
330 665 460 172 173 182 
271 909 327 137 114 91 
143 471 354 79 103 139 
210 348 420 161 27 73 
218 286 298 133 131 135 
224 195 297 91 45 46 
139 496 323 61 75 120 
280 92 335 120 98 75 
310 46 322 103 91 79 
168 388 409 153 138 132 
261 448 337 104 122 143 
141 470 210 78 103 129 
168 564 215 72 90 108 
155 660 216 113 120 149 
99 432 256 148 146 151 
198 543 214 87 94 103 
106 330 290 85 70 76 
185 380 434 184 80 8 
76 269 280 140 125 111 
160 726 193 97 110 129 
112 391 319 122 123 129 
305 48 323 106 95 88 
232 324 301 123 127 135 
202 310 409 178 151 125 
163 736 262 103 111 122 
251 782 249 165 142 120 
141 202 350 51 38 54 
78 320 303 92 43 56 
142 659 160 113 123 137 
142 287 355 131 132 139 
103 443 321 135 126 123 
241 757 398 111 117 128 
313 789 345 152 130 110 
84 237 293 80 69 58 
158 634 148 94 114 134 
85 236 293 80 70 60 
250 454 219 109 116 128 
104 302 242 104 50 36 
129 633 251 119 96 81 
136 486 323 91 105 127 
233 624 390 137 97 85 
248 749 237 94 36 43 
178 516 388 91 111 162 
106 461 329 136 121 120 
307 685 302 66 102 141 
222 152 312 128 83 38 
148 363 319 66 84 110 
85 238 295 85 75 70 
208 842 260 212 156 129 
85 239 295 82 72 67 
156 462 195 101 121 144 
257 218 312 157 70 48 
198 271 403 147 142 143 
162 681 257 33 46 71 
201 452 397 106 119 148 
219 229 294 99 27 36 
202 689 186 55 93 122 
119 369 311 71 97 120 
174 132 274 93 78 62 
192 612 173 96 124 150 
239 763 227 56 46 60 
244 674 241 123 124 129 
132 632 319 98 104 117 
244 219 302 92 60 66 
151 300 329 80 87 98 
273 640 305 53 81 100 
185 897 303 96 74 42 
134 240 385 151 130 110 
112 567 241 72 96 128 
208 445 192 59 99 131 
288 44 344 136 108 90 
187 907 366 129 103 83 
153 310 328 89 93 102 
185 181 267 114 103 91 
183 287 208 126 106 83 
168 239 438 76 112 140 
155 221 351 78 53 57 
126 627 240 81 85 91 
169 652 148 190 189 198 
325 691 456 108 131 184 
169 542 213 43 68 90 
166 656 240 164 159 162 
273 462 301 146 149 159 
301 624 337 94 120 144 
229 616 246 83 123 155 
76 325 305 87 38 49 
235 943 350 168 128 100 
84 234 298 110 92 70 
262 439 330 156 156 164 
72 278 306 162 69 10 
183 239 428 138 128 126 
156 761 244 81 65 88 
87 232 297 109 87 72 
265 558 355 172 168 172 
86 232 298 108 87 66 
159 583 358 82 112 140 
143 151 290 105 85 65 
345 655 429 76 76 79 
153 721 347 168 110 85 
142 452 210 80 103 130 
168 141 345 106 93 80 
160 659 358 122 133 148 
229 593 399 116 100 87 
117 523 234 85 109 132 
319 616 374 35 68 91 
180 664 160 184 184 192 
84 233 301 117 79 51 
256 936 263 75 59 48 
125 466 225 107 115 128 
98 426 278 110 21 44 
85 233 301 115 79 51 
184 710 374 60 60 74 
157 713 122 88 129 161 
145 516 331 153 152 160 
323 628 412 119 126 137 
266 683 260 129 135 148 
182 829 260 160 144 133 
198 641 386 119 87 80 
199 533 404 107 129 176 
292 641 315 94 117 138 
154 697 357 180 153 126 
255 509 218 90 122 164 
255 869 282 163 111 77 
240 469 208 101 118 138 
350 657 435 79 70 63 
109 407 279 76 98 119 
163 731 136 216 214 222 
173 664 152 126 131 140 
91 227 289 111 80 46 
275 471 264 98 117 138 
337 695 338 89 99 123 
158 401 360 108 120 141 
126 295 303 106 18 45 
100 341 260 57 83 104 
169 706 139 83 91 100 
363 660 453 70 84 98 
255 739 404 114 108 110 
188 960 356 204 156 136 
196 672 204 46 87 119 
89 226 293 99 78 65 
233 574 382 96 121 148 
205 137 321 142 116 96 
88 226 294 89 73 60 
232 386 214 131 132 139 
253 656 264 66 108 141 
231 450 376 104 124 147 
148 137 294 101 82 62 
157 294 362 100 25 34 
160 352 365 143 139 142 
79 276 277 111 100 89 
287 678 283 45 55 80 
245 686 236 90 115 139 
184 128 376 109 77 56 
219 874 355 146 108 79 
90 224 295 96 69 49 
120 665 185 141 99 83 
148 247 339 79 77 79 
86 537 273 189 75 0 
356 723 420 145 166 190 
242 334 244 121 30 59 
144 516 327 107 116 139 
214 511 387 150 155 168 
205 258 384 97 63 57 
224 604 233 87 147 189 
160 434 386 81 109 156 
174 822 260 160 110 64 
89 229 291 88 75 66 
204 460 190 69 103 149 
171 726 254 80 92 107 
231 928 356 192 141 114 
144 711 348 79 107 132 
359 648 374 79 107 136 
229 438 375 103 119 140 
101 408 254 80 33 33 
153 282 403 150 150 156 
210 459 192 65 95 149 
226 897 259 70 57 46 
362 704 410 129 153 186 
123 366 288 62 101 131 
215 977 348 130 101 84 
91 228 289 111 88 65 
204 600 187 95 128 159 
90 228 290 109 79 45 
226 749 208 180 40 50 
124 262 290 78 25 26 
263 403 278 136 143 155 
202 458 399 43 63 128 
174 146 398 98 87 89 
320 669 318 115 121 134 
186 135 323 101 80 66 
119 737 168 69 64 142 
244 494 372 166 164 169 
138 676 295 133 129 137 
271 50 309 124 101 80 
197 972 259 117 97 78 
122 632 294 129 150 177 
262 959 288 123 104 86 
130 547 351 118 145 177 
177 733 152 136 133 137 
260 597 327 118 123 134 
166 414 191 159 127 89 
92 227 289 115 88 58 
132 654 178 131 109 110 
314 793 364 144 131 124 
131 653 216 167 113 96 
271 65 307 118 98 77 
70 339 301 61 30 45 
98 510 296 166 68 0 
118 296 255 86 50 54 
221 408 373 151 132 115 
144 207 356 72 46 53 
346 675 347 67 51 112 
183 762 169 199 195 201 
164 435 391 111 133 162 
193 129 383 125 73 26 
201 487 193 164 169 188 
130 248 316 57 38 49 
276 487 311 86 111 146 
131 242 319 57 39 51 
147 666 257 135 95 93 
111 430 294 140 117 92 
250 670 386 77 106 131 
345 627 387 113 118 126 
178 520 395 135 158 186 
304 720 307 157 165 179 
255 571 256 211 205 208 
136 210 391 45 39 52 
275 698 397 50 65 109 
226 597 225 97 132 161 
124 626 248 72 98 122 
158 199 433 106 115 125 
268 494 229 104 117 137 
178 530 395 148 162 187 
130 285 321 95 84 87 
144 685 281 93 90 114 
89 224 297 114 74 43 
257 864 313 132 88 63 
89 224 298 121 78 40 
155 694 264 29 51 104 
179 159 370 94 61 45 
88 226 297 103 72 50 
188 975 278 108 79 56 
248 991 258 152 119 91 
123 303 326 87 88 92 
209 730 401 133 124 120 
105 367 281 91 100 112 
278 484 296 123 134 149 
244 254 315 126 39 81 
79 290 307 64 63 72 
167 484 192 121 139 168 
250 520 374 142 145 154 
143 147 414 129 61 1 
123 617 249 63 76 132 
222 640 398 85 84 86 
130 282 252 102 75 58 
115 376 243 125 117 115 
90 352 291 59 98 127 
157 150 305 78 63 47 
196 302 201 139 135 134 
225 309 319 118 131 147 
113 367 245 103 106 113 
182 154 400 90 62 45 
174 808 196 194 42 52 
186 696 380 137 128 132 
157 187 315 66 43 43 
250 378 248 121 129 142 
126 658 156 87 92 99 
239 1006 276 139 112 80 
276 542 312 141 145 164 
280 650 437 98 116 137 
207 386 417 194 158 114 
256 169 346 127 120 117 
175 159 264 88 82 77 
232 228 298 69 39 41 
165 347 201 85 113 138 
240 574 380 110 127 153 
155 218 433 140 78 78 
210 130 362 137 98 63 
269 457 256 125 138 156 
245 938 340 108 86 68 
178 260 439 90 75 83 
104 390 279 66 92 116 
259 393 294 78 109 138 
179 168 372 86 57 47 
258 385 270 79 107 133 
263 408 286 72 105 133 
268 487 232 123 131 146 
93 227 296 91 88 87 
240 419 217 93 110 131 
206 167 387 97 72 93 
94 224 297 89 66 38 
103 294 256 102 76 61 
272 726 270 137 33 42 
257 734 404 154 133 116 
222 917 250 66 53 41 
94 226 296 89 85 82 
99 381 238 137 98 82 
250 861 273 158 121 86 
262 841 281 178 133 103 
277 536 286 111 132 162 
136 757 159 182 182 214 
218 291 299 132 131 135 
134 741 183 126 138 153 
92 230 296 92 96 103 
191 898 295 136 100 65 
263 621 412 131 90 72 
203 307 412 179 153 126 
271 661 411 104 128 152 
212 202 263 28 56 75 
174 904 324 137 100 74 
259 630 396 68 87 108 
198 547 217 72 84 103 
151 321 331 88 84 85 
276 471 281 104 124 146 
150 541 209 100 121 151 
270 517 342 153 155 164 
227 875 334 152 110 81 
339 648 437 109 91 72 
135 208 298 59 25 22 
244 760 397 168 150 135 
158 758 252 91 104 117 
118 549 319 90 120 155 
338 626 366 82 99 117 
133 515 359 110 129 153 
187 751 170 205 199 203 
290 830 313 214 156 126 
216 463 390 123 136 159 
146 239 357 70 54 56 
90 236 294 53 61 69 
160 592 203 93 106 120 
140 447 213 100 123 146 
110 382 243 113 92 91 
154 326 358 144 69 97 
242 981 247 153 124 92 
187 626 166 143 148 159 
282 771 406 192 172 159 
184 356 437 195 166 137 
209 375 195 112 127 145 
152 768 315 156 125 97 
176 571 219 101 104 114 
200 312 391 144 81 70 
104 267 296 84 28 45 
149 642 146 97 121 143 
259 441 340 106 125 147 
88 532 265 173 132 79 
284 24 350 132 116 105 
189 203 401 100 82 91 
175 823 220 146 148 154 
96 465 260 86 108 128 
257 896 315 143 105 78 
214 551 386 87 110 141 
289 668 405 138 161 187 
147 180 354 92 29 39 
237 487 205 131 143 165 
180 266 439 146 146 151 
185 676 178 142 149 163 
190 626 170 158 165 180 
243 563 213 92 120 171 
234 346 220 164 129 90 
111 690 140 99 116 159 
181 636 382 73 56 55 
133 577 345 118 139 182 
284 666 440 75 63 138 
177 415 413 112 125 156 
266 426 274 55 93 130 
81 257 287 79 46 20 
186 418 428 87 104 160 
248 880 320 167 121 93 
181 134 325 91 74 61 
184 905 352 168 125 106 
181 186 256 82 63 46 
95 237 295 61 47 33 
150 531 341 77 93 122 
94 239 294 66 50 37 
119 660 188 127 89 97 
259 479 220 96 105 119 
242 888 257 107 74 36 
116 654 270 176 113 110 
197 266 391 132 132 138 
276 824 362 210 155 126 
268 98 338 116 96 75 
131 183 274 80 70 60 
193 667 395 147 98 79 
261 566 263 148 157 174 
262 861 298 196 147 117 
204 411 411 138 98 55 
133 623 285 73 107 165 
249 981 306 94 80 68 
247 643 413 58 82 103 
182 585 180 113 128 144 
94 417 266 104 63 58 
262 472 346 96 108 143 
171 810 269 174 142 117 
230 137 321 131 114 100 
243 665 386 74 100 123 
190 222 409 118 40 61 
275 499 246 136 143 157 
115 406 297 120 123 132 
196 215 395 112 40 45 
83 230 306 112 79 49 
116 400 322 80 92 110 
108 501 243 159 133 104 
159 784 287 84 61 52 
255 944 335 107 89 71 
212 672 221 125 135 150 
159 230 345 85 33 44 
197 542 212 87 92 100 
80 231 311 101 81 58 
170 678 179 144 146 156 
226 460 201 85 111 141 
277 783 400 99 99 108 
110 437 290 151 123 92 
255 382 300 84 104 125 
154 419 199 136 93 97 
260 551 239 111 138 168 
132 681 311 105 118 133 
268 580 342 114 131 153 
253 530 371 108 122 139 
255 978 285 118 95 70 
157 355 398 128 95 92 
341 679 463 132 141 189 
299 676 294 73 102 135 
223 370 206 100 119 140 
192 781 344 192 148 124 
84 225 311 108 85 69 
161 772 321 183 158 136 
165 474 382 96 114 154 
147 701 356 150 90 91 
256 32 320 137 117 115 
159 510 369 95 115 158 
213 981 247 126 99 70 
128 261 290 87 40 40 
101 316 252 101 80 94 
145 719 348 132 90 123 
199 144 389 117 81 59 
152 168 358 81 74 70 
243 660 252 78 106 138 
280 505 310 136 144 157 
278 499 312 139 145 156 
138 781 208 162 177 198 
243 713 402 146 128 114 
180 608 377 71 73 84 
256 602 381 84 77 72 
174 409 408 90 109 153 
132 207 257 102 84 72 
231 597 403 148 113 97 
111 592 300 90 111 176 
243 392 342 91 112 135 
287 611 364 97 109 124 
221 257 299 125 121 123 
152 289 361 141 114 79 
267 51 309 124 101 77 
85 229 311 110 83 65 
273 460 292 106 127 150 
106 436 307 150 126 99 
231 705 217 128 86 87 
101 405 253 71 88 102 
103 581 250 155 158 168 
128 669 144 104 115 127 
235 263 254 81 107 133 
197 992 254 166 136 107 
114 452 329 46 70 102 
157 791 267 146 118 112 
209 656 397 73 94 129 
196 258 393 136 133 136 
158 438 323 62 81 123 
181 642 167 118 143 171 
307 50 322 113 102 94 
110 701 160 131 159 192 
291 671 404 125 152 180 
207 312 200 85 112 139 
228 298 282 84 117 145 
194 389 188 116 133 159 
264 858 295 196 146 114 
258 781 254 164 139 117 
161 592 362 105 118 135 
174 662 242 82 97 134 
269 114 310 127 100 71 
285 651 441 116 128 144 
270 657 401 110 133 156 
176 478 397 152 161 178 
172 546 367 92 107 131 
81 231 313 92 82 72 
145 298 341 92 103 117 
269 538 251 201 193 194 
106 370 234 89 67 82 
81 230 315 96 86 76 
99 509 301 142 121 100 
212 433 194 74 103 132 
336 759 409 164 131 101 
245 352 247 105 122 140 
128 343 236 97 68 59 
152 288 231 105 80 77 
263 935 300 68 55 47 
152 308 377 75 96 115 
308 701 422 132 87 99 
290 641 441 163 165 174 
238 362 225 148 110 54 
124 297 335 106 109 117 
151 595 353 95 120 146 
83 228 316 107 87 74 
83 229 316 104 86 74 
82 230 316 100 88 77 
152 770 249 77 32 53 
205 430 191 92 118 148 
121 638 222 130 131 153 
206 801 340 197 142 121 
142 174 306 96 85 75 
248 503 372 39 80 129 
179 960 350 204 153 132 
217 364 393 125 127 136 
232 892 262 79 58 40 
270 442 277 78 108 140 
161 152 303 79 66 53 
335 719 445 132 154 180 
209 480 410 90 117 164 
108 588 293 76 105 167 
173 687 155 63 87 109 
187 833 237 178 145 113 
170 299 211 127 90 61 
249 687 239 97 124 149 
186 139 311 107 85 75 
167 660 248 83 126 159 
196 436 187 42 88 121 
203 169 292 118 75 28 
206 446 397 102 117 140 
85 228 312 109 83 66 
159 588 227 64 83 105 
169 701 363 165 80 18 
236 660 252 69 111 151 
293 664 453 64 103 156 
226 377 388 185 158 131 
218 522 385 126 136 153 
231 756 396 195 177 166 
254 141 345 100 89 80 
232 908 246 60 47 31 
241 634 390 18 48 69 
88 376 273 69 96 117 
319 701 444 157 173 196 
121 416 235 82 106 131 
85 231 314 110 79 63 
192 988 334 118 101 88 
275 169 321 127 129 139 
165 218 348 78 57 62 
213 582 385 74 99 131 
126 670 160 102 115 132 
106 602 269 108 132 189 
335 63 320 99 88 78 
196 253 401 145 143 148 
261 580 286 157 167 187 
142 302 330 69 86 105 
105 382 333 123 127 137 
85 230 316 110 81 66 
248 919 334 174 126 100 
125 655 298 128 100 103 
249 786 246 131 116 103 
150 286 361 79 100 124 
81 233 306 123 75 37 
334 624 363 66 93 116 
259 904 278 57 46 42 
100 365 257 89 87 96 
186 684 173 122 129 141 
178 189 367 86 54 50 
216 722 406 160 139 121 
196 345 438 127 123 143 
195 356 395 147 16 61 
277 846 317 208 153 120 
169 700 139 80 107 135 
148 788 242 121 50 84 
189 709 162 119 137 159 
253 830 267 171 128 94 
97 571 255 158 56 92 
251 983 273 125 100 72 
155 348 398 120 135 155 
144 622 177 67 91 112 
104 398 233 165 158 159 
351 718 380 143 144 147 
275 514 248 113 132 165 
149 704 271 88 104 122 
133 387 223 119 60 68 
151 764 221 123 129 140 
187 128 362 108 83 67 
196 992 279 95 74 56 
182 744 160 171 185 206 
267 498 343 155 154 162 
166 651 142 148 150 158 
82 348 282 158 97 75 
197 371 435 199 166 131 
354 657 443 78 71 65 
255 888 322 105 82 59 
157 393 328 42 67 108 
80 235 308 123 73 36 
101 333 233 153 65 54 
276 62 341 131 108 85 
150 157 307 75 61 46 
109 360 280 94 100 112 
80 235 310 130 67 27 
240 613 280 98 122 147 
159 717 266 91 105 121 
228 162 368 48 76 103 
309 613 375 51 79 101 
164 659 215 115 127 149 
242 296 356 93 132 164 
168 699 362 163 93 32 
167 144 344 109 83 50 
223 415 205 113 127 147 
293 30 318 123 109 97 
216 132 348 127 113 100 
81 238 305 116 74 37 
90 476 260 148 119 87 
360 715 425 168 179 197 
136 198 405 132 46 72 
189 676 201 81 104 150 
226 917 247 70 56 41 
166 232 437 106 70 86 
111 464 329 85 109 147 
82 458 273 142 62 56 
153 373 390 110 67 116 
140 133 392 101 90 80 
240 582 379 105 113 125 
127 269 289 73 41 62 
82 238 305 114 73 40 
242 815 247 144 129 118 
83 238 305 105 76 60 
257 13 314 166 137 118 
242 462 370 76 100 136 
353 703 451 158 167 198 
83 239 306 102 76 62 
131 623 286 60 100 166 
267 499 228 140 145 156 
80 236 309 127 71 16 
133 282 251 93 82 74 
132 748 153 200 200 220 
129 720 317 103 132 160 
179 719 150 174 171 179 
186 305 440 186 160 134 
190 823 221 212 168 116 
227 377 381 191 160 127 
167 942 304 76 60 50 
197 819 217 204 158 122 
100 542 292 127 111 96 
107 585 248 145 145 152 
241 595 406 141 109 92 
165 674 254 49 73 94 
344 652 447 100 85 71 
140 636 165 138 142 151 
223 399 390 170 116 89 
80 323 287 93 61 78 
146 302 384 90 123 153 
234 956 259 120 92 63 
130 573 322 115 134 162 
116 409 293 102 116 134 
103 385 252 140 80 86 
280 497 273 168 165 168 
188 802 198 151 9 43 
176 427 408 64 86 146 
356 716 398 159 176 198 
259 65 335 99 81 62 
85 233 308 106 75 56 
225 887 264 93 73 51 
308 793 329 129 104 76 
300 717 301 104 114 133 
206 836 301 183 136 112 
96 373 262 139 104 73 
165 604 169 111 129 149 
118 539 234 86 101 125 
225 601 228 87 138 176 
200 467 421 138 156 181 
217 886 361 169 130 106 
170 137 357 100 76 58 
341 624 401 84 103 121 
125 276 287 74 55 70 
233 473 204 100 121 145 
172 940 290 62 50 44 
253 382 307 83 105 127 
202 291 204 138 135 137 
243 421 221 109 121 138 
243 346 305 107 114 125 
169 379 193 113 127 144 
117 499 235 89 106 130 
84 238 307 103 77 63 
149 697 271 57 77 126 
168 728 138 164 155 157 
84 237 308 103 77 64 
256 610 319 60 73 86 
306 759 322 129 120 115 
251 678 391 87 121 152 
167 807 200 176 80 78 
235 291 267 97 116 135 
178 918 291 114 80 55 
81 262 309 92 65 55 
164 431 377 53 69 95 
176 333 435 153 21 71 
308 796 331 142 108 75 
193 620 173 107 120 138 
238 196 304 70 29 32 
181 805 304 102 134 162 
188 726 158 83 107 131 
189 445 420 164 174 192 
200 761 185 143 78 80 
251 780 248 125 112 102 
258 70 313 111 88 61 
143 477 352 68 88 132 
255 737 246 102 48 61 
144 803 224 150 21 44 
309 784 406 156 142 134 
139 479 216 57 95 134 
201 366 407 165 117 78 
159 450 343 56 68 93 
272 481 322 169 161 160 
80 234 313 123 80 37 
292 728 414 108 60 61 
256 798 370 187 137 108 
245 722 236 120 133 149 
266 948 293 71 58 49 
213 1003 259 95 69 35 
207 890 364 135 63 70 
270 679 265 135 136 142 
278 514 257 95 124 162 
194 241 393 113 95 94 
234 171 361 73 107 135 
241 298 355 81 124 159 
148 804 205 173 187 200 
203 647 197 122 150 180 
76 334 295 132 41 58 
124 648 170 78 94 111 
91 482 278 137 15 50 
198 832 282 186 131 108 
257 107 336 85 71 56 
232 668 235 127 129 136 
140 326 327 102 55 70 
231 141 313 135 121 108 
214 831 238 127 113 105 
110 538 314 117 138 171 
82 234 319 95 76 64 
222 308 385 138 138 144 
269 190 333 108 92 117 
83 234 319 97 76 61 
128 617 246 125 132 143 
223 312 313 100 117 136 
246 132 317 102 83 63 
99 522 294 133 111 82 
138 643 214 160 112 93 
143 665 144 116 127 140 
223 872 335 152 115 86 
345 626 397 99 109 122 
255 180 347 144 89 82 
284 81 335 127 103 80 
149 768 278 125 130 141 
189 398 187 104 120 143 
152 368 336 73 79 109 
83 237 316 103 63 36 
83 237 317 102 58 29 
204 171 387 125 58 62 
204 498 197 145 157 188 
125 571 232 68 84 113 
288 31 342 99 79 56 
188 708 160 118 135 155 
344 747 402 163 139 117 
215 996 319 69 49 39 
99 293 257 98 76 63 
104 551 301 118 117 124 
303 677 454 74 120 188 
177 762 165 192 185 189 
101 452 247 121 119 120 
256 56 317 94 75 55 
231 169 363 75 111 141 
241 954 257 104 88 76 
194 409 396 137 78 46 
259 862 287 200 154 120 
142 522 334 86 103 128 
133 145 379 135 69 50 
198 361 191 157 153 157 
180 314 440 134 139 150 
233 240 364 117 76 77 
260 618 392 99 94 95 
145 304 388 76 114 143 
323 54 310 121 110 103 
85 234 313 109 74 53 
234 739 219 124 106 123 
262 436 245 124 130 140 
227 663 249 80 111 148 
160 648 360 104 85 100 
264 15 351 107 96 88 
135 277 296 80 40 51 
175 655 380 133 73 50 
217 632 223 156 160 172 
249 971 275 105 82 62 
163 497 195 85 114 164 
206 150 303 120 108 101 
119 446 317 52 63 75 
247 595 284 154 163 180 
136 626 215 89 93 99 
199 452 422 121 144 184 
198 920 365 191 138 122 
354 635 379 102 111 123 
100 407 248 145 139 140 
147 158 376 95 56 43 
223 416 205 112 125 144 
204 424 191 120 131 147 
76 389 287 134 145 161 
266 511 225 152 160 175 
167 658 245 72 69 119 
123 737 170 51 53 101 
271 635 317 80 113 141 
182 729 153 148 167 193 
262 723 403 81 72 80 
124 626 247 80 102 123 
84 237 315 104 76 58 
323 650 331 70 95 120 
202 955 362 205 160 138 
265 424 265 64 100 131 
265 483 227 77 105 134 
129 638 263 130 99 96 
202 679 198 107 122 140 
364 695 440 147 152 182 
224 292 283 85 118 145 
135 666 326 105 106 111 
325 668 460 120 139 165 
207 132 341 130 114 99 
82 353 295 58 61 78 
192 374 436 180 113 26 
161 153 346 87 65 55 
153 266 407 80 114 145 
162 716 264 102 114 128 
179 567 384 74 118 170 
129 184 398 129 48 44 
244 222 355 99 101 107 
143 738 134 164 169 225 
208 140 379 128 84 65 
100 392 235 167 44 89 
232 314 354 135 109 115 
218 936 253 74 57 37 
259 16 351 122 114 110 
255 592 304 189 179 178 
196 937 258 73 62 52 
186 711 213 128 137 152 
211 1010 283 114 85 48 
208 997 307 85 58 41 
254 755 245 105 116 126 
223 139 315 148 130 115 
200 320 436 180 154 126 
183 492 193 76 112 161 
194 516 407 90 120 180 
190 492 406 157 166 184 
106 367 281 84 97 113 
232 289 374 152 148 152 
239 380 341 114 98 101 
163 453 345 70 84 111 
202 442 396 124 130 144 
113 386 281 110 112 119 
162 728 133 157 156 164 
138 184 369 76 41 36 
162 452 378 83 97 142 
216 825 234 197 159 114 
165 676 138 87 128 163 
230 368 347 129 116 108 
191 689 212 145 147 157 
143 179 416 107 104 110 
141 658 160 114 124 137 
330 710 336 163 170 183 
149 278 372 88 87 97 
109 383 238 93 66 80 
325 632 416 94 110 130 
84 240 294 86 73 61 
197 884 362 129 95 75 
190 506 198 122 144 192 
356 657 446 75 69 65 
148 292 358 73 99 124 
143 485 350 99 114 135 
205 324 197 87 114 140 
149 171 426 115 108 106 
104 447 311 102 117 135 
238 229 359 111 78 87 
214 619 393 158 108 100 
226 488 382 140 144 154 
328 682 461 108 136 176 
151 321 382 124 97 99 
166 137 378 95 66 43 
130 297 316 101 100 103 
134 718 289 147 164 186 
99 349 261 57 77 96 
175 800 190 83 84 144 
154 331 379 151 144 144 
238 736 223 152 84 96 
225 173 370 102 104 115 
257 868 312 122 87 60 
164 631 362 74 108 134 
183 602 167 134 140 150 
149 606 195 96 114 132 
85 245 288 125 86 47 
271 498 237 159 161 171 
118 379 309 81 103 125 
150 337 324 96 42 61 
335 644 345 40 69 102 
255 458 356 115 131 149 
84 247 288 125 75 41 
221 978 342 113 87 73 
328 761 415 114 110 113 
172 730 209 134 135 144 
309 774 412 166 141 117 
211 547 206 130 132 138 
148 796 196 141 134 152 
237 552 206 107 122 143 
225 869 272 153 117 80 
133 341 232 139 134 134 
87 247 295 85 70 55 
140 648 150 98 105 115 
155 766 230 98 118 141 
224 290 282 75 110 138 
117 439 315 37 52 67 
239 278 332 98 123 150 
121 657 172 121 133 147 
269 949 315 95 78 65 
222 451 199 83 108 141 
179 726 234 94 99 127 
165 710 180 74 91 127 
202 331 393 170 140 106 
221 948 360 188 139 112 
222 351 391 133 45 73 
252 366 279 127 57 64 
261 923 294 71 56 46 
151 297 230 141 129 119 
189 907 283 125 76 32 
231 749 215 144 151 173 
200 302 408 176 150 124 
262 398 283 85 111 134 
150 751 274 97 23 47 
82 247 300 87 68 59 
84 243 296 79 64 56 
171 135 294 75 61 46 
244 337 267 149 115 88 
140 413 322 71 92 113 
84 245 297 76 61 47 
363 686 451 178 185 200 
244 370 325 128 132 142 
264 425 306 131 143 159 
247 369 241 106 98 105 
183 827 266 170 110 114 
87 466 262 146 117 86 
160 142 379 94 60 39 
288 830 310 208 151 121 
276 787 399 168 126 102 
115 452 238 135 104 72 
96 452 277 122 51 53 
210 330 391 155 119 92 
165 725 194 82 102 130 
147 211 308 97 33 28 
111 676 151 110 130 152 
231 312 341 83 127 162 
153 612 356 162 159 164 
342 682 343 54 83 131 
249 605 410 152 108 92 
164 175 334 94 39 39 
273 529 254 119 136 167 
71 348 297 36 46 62 
215 734 194 97 112 130 
242 352 315 103 117 134 
152 271 238 92 88 87 
260 138 340 107 88 68 
131 216 343 36 52 79 
136 762 201 114 134 159 
177 133 325 87 74 63 
233 883 346 160 116 86 
122 504 229 58 107 144 
201 629 199 81 123 156 
221 609 232 117 152 185 
291 28 337 82 68 55 
334 634 417 91 111 131 
237 290 239 127 127 133 
119 702 121 72 81 113 
337 747 423 163 97 86 
228 608 401 176 129 113 
163 231 351 82 32 49 
247 639 301 62 53 51 
103 279 245 139 75 0 
173 148 294 78 66 53 
111 680 150 95 118 144 
221 686 209 81 109 134 
230 852 265 227 161 117 
264 453 239 74 96 117 
188 887 354 129 64 64 
365 691 399 128 150 183 
183 410 427 124 71 106 
211 464 396 146 153 165 
82 248 294 92 68 49 
265 181 310 70 87 115 
333 689 333 143 150 166 
220 256 222 89 111 134 
82 250 293 86 64 46 
82 251 292 73 50 36 
150 481 198 63 97 146 
218 151 377 104 56 53 
157 660 374 98 89 84 
136 186 404 116 64 60 
75 352 300 64 67 96 
212 463 193 162 163 174 
187 931 357 128 100 78 
187 760 359 144 87 86 
163 587 218 61 83 103 
260 616 339 56 69 86 
152 544 340 73 87 103 
213 905 263 62 51 42 
170 411 403 100 117 143 
240 966 337 135 104 92 
177 229 432 104 77 84 
135 708 330 86 121 150 
193 962 357 198 150 131 
121 320 283 102 99 101 
130 399 315 49 69 91 
257 682 394 87 123 152 
340 756 405 136 134 138 
203 247 384 80 108 132 
212 381 396 173 142 107 
170 918 317 149 110 84 
82 254 289 95 60 31 
134 515 224 97 114 138 
122 661 269 186 120 111 
143 519 361 82 110 154 
279 828 356 213 162 134 
189 756 173 154 153 161 
183 613 165 163 167 176 
148 680 276 94 78 88 
224 394 379 137 100 70 
80 253 294 55 46 36 
283 786 284 119 111 107 
259 635 310 72 76 83 
156 285 229 109 64 63 
162 734 349 121 113 113 
270 759 265 108 91 79 
158 757 255 63 83 102 
91 309 235 83 67 83 
210 441 413 86 114 159 
199 416 430 164 110 112 
179 704 185 78 97 133 
167 459 360 116 122 136 
145 513 333 143 146 155 
152 745 139 162 166 225 
149 802 249 97 96 106 
198 403 394 160 62 3 
320 623 350 70 108 138 
164 419 395 45 79 141 
145 779 175 176 191 210 
155 746 342 138 128 130 
261 470 349 116 128 145 
99 346 244 141 61 71 
240 181 355 106 106 112 
195 791 197 174 71 72 
188 230 411 104 83 98 
249 579 254 149 167 191 
87 255 293 55 56 61 
206 857 309 162 122 96 
227 748 399 139 110 85 
208 906 364 183 136 117 
324 60 297 143 128 115 
245 717 236 115 139 164 
284 51 316 109 92 74 
129 664 175 114 102 112 
230 498 381 135 142 156 
145 605 348 80 125 159 
81 248 296 100 79 66 
147 624 166 104 118 133 
133 461 220 115 132 152 
262 467 344 156 158 166 
240 812 244 135 121 110 
236 830 332 193 132 114 
287 40 324 105 85 66 
242 857 267 188 131 84 
292 58 320 118 95 68 
319 59 308 167 151 142 
265 426 300 95 117 143 
217 569 191 129 141 156 
265 47 310 123 97 70 
276 15 319 154 136 123 
269 460 317 168 162 163 
217 231 282 60 48 66 
206 499 198 124 148 186 
240 306 246 143 144 152 
154 352 355 106 120 137 
214 912 256 67 56 46 
81 250 303 80 60 48 
144 453 207 112 124 142 
116 372 314 69 92 113 
99 380 240 131 100 101 
334 723 350 116 58 68 
201 715 176 75 106 133 
176 719 146 176 169 170 
269 727 267 147 11 30 
189 966 353 204 154 136 
83 250 301 85 73 64 
141 461 323 71 86 113 
205 1010 266 177 147 119 
147 544 211 147 144 147 
307 49 324 102 90 82 
310 682 442 141 169 198 
241 647 291 55 80 104 
355 666 361 105 130 157 
245 848 322 188 136 110 
266 921 276 70 52 45 
112 594 246 122 129 151 
354 712 443 149 170 196 
266 570 283 149 156 172 
142 247 338 82 80 83 
205 138 382 130 78 68 
264 930 295 68 56 47 
212 228 375 82 73 88 
312 92 311 173 118 102 
171 505 382 117 139 167 
242 325 265 117 120 129 
212 964 252 82 68 54 
195 168 289 124 63 3 
85 249 299 83 70 58 
196 816 211 179 154 139 
314 639 330 92 104 117 
77 317 296 85 41 59 
262 401 274 71 102 132 
107 261 294 75 30 36 
154 452 321 112 118 128 
195 501 410 92 117 176 
186 959 270 109 90 71 
114 350 245 56 83 106 
250 779 246 137 125 115 
104 280 298 95 46 52 
174 808 283 133 129 130 
197 260 393 139 136 139 
153 337 323 103 52 61 
174 500 195 155 170 188 
94 523 279 171 137 97 
150 558 343 91 112 136 
101 424 242 110 130 151 
172 719 140 153 151 155 
196 809 320 176 123 103 
214 991 331 98 82 68 
269 938 330 94 74 66 
84 249 301 85 73 64 
255 484 216 120 130 144 
210 458 419 61 95 163 
95 438 263 149 152 162 
369 685 431 172 177 198 
231 144 360 145 71 3 
258 754 249 53 41 81 
157 593 223 74 85 98 
278 109 309 129 102 71 
84 253 297 67 57 47 
127 680 188 158 105 84 
306 752 321 136 119 106 
253 790 374 198 144 118 
125 290 310 102 22 40 
84 253 298 72 64 58 
322 671 320 95 113 134 
214 629 387 132 87 78 
264 587 318 91 125 163 
289 749 293 81 71 63 
266 670 264 117 117 121 
173 453 188 102 131 161 
195 759 373 170 161 159 
221 557 384 137 143 155 
103 336 291 73 71 77 
353 713 379 170 186 207 
244 579 239 150 172 199 
264 547 245 113 134 169 
74 345 303 44 68 91 
339 622 388 126 128 134 
92 287 238 163 78 0 
174 176 415 101 50 67 
145 718 187 70 78 125 
137 247 366 116 103 104 
