ply
format ascii 1.0
comment Created by CloudCompare v2.11.1 (Anoia)
comment Created 2/28/22 9:45 PM
obj_info Generated by CloudCompare!
element vertex 2010
property float x
property float y
property float z
property uchar red
property uchar green
property uchar blue
end_header
131 148 378 149 61 30 
157 779 228 101 121 142 
225 829 332 182 123 107 
177 434 405 115 129 154 
245 486 205 84 106 138 
174 385 190 157 125 88 
301 812 389 197 126 99 
197 315 399 163 134 103 
203 600 390 74 82 98 
241 836 252 186 136 105 
247 334 255 132 52 75 
92 408 275 97 113 132 
123 303 332 98 116 137 
249 993 256 137 100 68 
101 307 258 95 68 62 
185 663 224 90 102 137 
182 59 256 120 101 80 
217 323 201 83 111 138 
117 367 312 59 85 106 
178 901 337 149 108 83 
319 650 341 92 104 118 
136 620 315 104 129 162 
273 583 315 119 127 161 
125 635 249 133 103 89 
221 297 293 98 117 135 
158 812 206 198 66 104 
236 864 272 154 109 72 
182 601 383 91 74 81 
227 327 319 98 121 143 
226 815 227 166 142 119 
199 835 276 195 141 116 
181 657 393 86 59 53 
266 416 306 75 103 131 
152 542 334 142 138 140 
219 140 352 125 112 100 
260 122 314 111 87 59 
237 514 208 144 147 184 
278 179 326 62 81 114 
226 662 257 74 98 122 
309 758 340 134 110 88 
142 643 339 77 126 165 
205 1013 279 153 132 115 
116 369 272 80 100 121 
251 747 409 129 121 116 
132 335 233 74 103 129 
300 708 303 128 132 142 
161 431 377 77 97 150 
289 618 389 59 82 102 
77 356 289 94 64 82 
200 408 404 149 57 5 
199 540 405 95 122 174 
239 285 371 150 143 140 
146 775 190 121 140 166 
184 55 270 60 44 30 
164 783 313 173 134 91 
226 897 364 175 132 103 
128 666 153 66 89 111 
239 503 203 135 143 169 
157 130 268 100 82 64 
161 654 136 82 104 124 
245 260 309 125 27 54 
268 54 309 119 97 75 
126 312 247 112 34 19 
300 99 323 140 113 89 
115 580 304 102 124 171 
101 304 243 104 99 104 
186 310 198 117 122 130 
279 676 279 91 98 108 
112 400 271 92 107 124 
279 544 296 127 146 173 
248 538 381 173 167 169 
257 554 217 190 186 191 
337 658 449 98 82 67 
287 622 416 69 80 92 
152 523 203 161 160 167 
161 541 352 117 134 169 
150 298 383 93 119 147 
237 612 260 158 159 168 
103 270 286 90 39 52 
237 648 410 76 99 121 
148 606 349 108 128 151 
220 337 202 144 143 147 
197 478 419 180 185 199 
213 687 195 61 93 122 
226 329 306 98 94 105 
133 322 327 111 14 52 
214 723 402 147 121 107 
116 425 271 101 94 104 
153 338 388 146 140 141 
131 218 346 38 48 80 
265 220 314 152 36 60 
159 629 160 78 99 118 
134 314 237 102 54 68 
235 316 327 110 124 145 
186 63 259 114 92 67 
210 580 183 83 100 116 
194 709 391 125 106 87 
111 314 230 98 83 104 
185 61 261 112 92 69 
279 478 300 99 120 145 
171 439 394 130 140 158 
107 388 272 68 92 116 
185 61 263 112 93 72 
204 333 411 183 152 119 
122 641 289 160 164 176 
255 264 328 179 155 150 
227 370 207 93 114 137 
261 631 336 42 91 131 
151 782 181 117 144 197 
185 706 141 100 78 69 
162 726 351 179 54 28 
223 645 398 95 102 114 
220 675 226 113 128 144 
284 705 415 91 124 151 
258 417 340 113 127 143 
184 56 264 118 98 76 
172 931 316 111 89 67 
184 57 264 121 99 73 
202 677 397 170 144 119 
291 103 306 124 98 67 
361 686 443 184 186 198 
302 697 301 49 59 88 
185 56 266 108 89 67 
265 414 316 126 138 155 
203 953 367 215 172 151 
284 63 308 115 100 86 
303 695 443 119 149 179 
169 428 369 66 78 109 
269 625 342 92 117 141 
161 140 326 91 78 65 
225 793 215 94 127 155 
293 681 427 126 157 188 
255 590 278 186 186 196 
268 517 350 99 115 143 
279 842 310 196 144 113 
123 606 244 114 120 173 
162 762 336 136 115 104 
139 416 220 107 118 129 
145 531 211 129 130 136 
154 144 354 94 72 52 
304 629 350 87 115 141 
138 210 403 93 42 71 
215 153 305 127 114 104 
260 783 401 136 103 77 
185 59 269 114 95 74 
169 393 193 166 128 82 
247 244 305 100 33 25 
80 269 273 126 113 99 
208 433 413 117 101 96 
132 548 328 97 116 142 
122 565 233 81 104 140 
117 449 233 74 94 113 
243 796 238 127 110 97 
174 916 339 182 137 115 
182 421 185 166 163 167 
229 765 207 152 17 16 
200 721 402 138 69 36 
208 665 220 77 92 107 
156 360 390 125 129 140 
98 435 274 131 87 61 
280 497 257 94 112 133 
308 651 330 72 99 123 
123 630 276 133 139 157 
128 377 231 140 135 135 
293 680 428 141 163 190 
135 150 401 133 63 13 
258 618 429 146 109 86 
174 725 186 96 108 130 
208 843 255 166 154 148 
126 673 282 187 136 128 
199 338 436 148 31 63 
157 135 372 99 73 53 
279 486 257 153 154 161 
232 360 386 154 87 64 
201 980 270 70 50 41 
160 467 194 65 99 134 
206 1002 300 140 111 82 
134 538 344 106 119 143 
120 413 234 105 113 126 
118 405 311 57 77 101 
148 744 186 126 132 150 
170 610 171 77 108 135 
184 782 174 167 205 230 
265 420 317 103 121 142 
174 912 327 147 109 82 
208 842 249 211 162 137 
163 664 199 125 120 136 
290 818 307 167 123 89 
340 743 414 167 77 69 
150 300 389 109 130 152 
88 419 271 115 81 98 
154 269 237 101 97 96 
177 382 425 183 87 11 
257 923 332 125 78 59 
221 575 189 95 109 125 
215 141 323 145 123 106 
181 48 273 84 71 60 
159 148 328 101 92 83 
242 360 317 93 114 135 
157 648 142 77 108 134 
202 353 406 161 113 75 
272 659 288 93 100 110 
205 871 315 156 120 90 
348 664 450 54 55 57 
79 316 286 71 45 64 
201 693 197 107 122 151 
191 621 160 74 104 137 
265 958 323 89 70 56 
276 76 306 133 106 79 
259 392 315 92 113 138 
127 260 336 60 99 129 
352 685 468 179 186 202 
251 290 357 163 161 165 
217 686 200 51 88 120 
93 356 263 125 129 139 
129 742 299 113 134 157 
275 135 308 123 96 64 
157 144 298 92 74 55 
268 223 337 160 72 81 
257 808 372 185 134 102 
262 501 360 123 134 150 
224 724 197 68 104 133 
225 826 234 191 154 115 
291 697 287 165 163 170 
121 277 259 99 35 32 
289 827 376 213 141 115 
256 555 217 121 135 153 
180 224 425 67 99 124 
154 790 184 200 205 220 
129 403 230 84 109 133 
218 699 193 110 129 152 
283 519 277 144 153 169 
139 649 327 117 92 115 
138 258 297 57 60 79 
250 443 365 86 109 142 
140 659 152 66 79 91 
166 362 366 96 105 135 
326 706 339 122 141 167 
166 718 358 151 44 23 
265 769 410 172 140 104 
189 725 212 133 140 153 
148 250 347 83 76 75 
159 666 137 111 119 129 
302 818 347 194 138 104 
184 49 279 79 69 59 
107 353 277 103 107 116 
209 997 251 174 144 118 
151 723 175 56 76 132 
271 438 267 152 149 153 
223 894 270 92 76 67 
284 674 426 132 159 189 
202 442 406 94 63 86 
145 294 234 52 68 86 
262 115 311 118 91 58 
191 990 328 106 90 82 
149 298 334 64 76 90 
200 673 194 115 137 162 
167 457 372 49 54 78 
175 410 407 101 119 155 
262 585 284 182 179 184 
132 223 385 32 55 107 
161 741 346 137 108 83 
179 446 417 133 146 166 
268 923 327 174 115 90 
197 359 436 194 165 135 
184 52 276 70 57 44 
152 611 353 113 127 145 
243 716 402 126 58 65 
189 659 161 119 122 129 
266 569 272 146 153 171 
240 702 403 149 77 97 
244 227 301 78 55 72 
255 950 342 97 77 59 
110 366 273 101 109 120 
185 53 279 92 80 69 
75 264 294 116 86 50 
246 864 324 174 123 95 
265 720 261 150 162 179 
145 442 319 59 77 111 
262 598 331 95 119 153 
185 54 278 94 81 68 
88 263 290 75 73 74 
139 671 166 113 111 127 
111 447 291 145 120 93 
201 590 176 137 142 151 
157 306 376 98 115 135 
105 510 300 155 38 90 
152 141 289 103 84 64 
260 774 252 90 83 78 
164 226 430 135 72 75 
178 655 224 84 108 151 
137 395 224 125 66 20 
211 355 424 158 35 71 
154 650 236 90 78 112 
252 771 240 111 96 83 
268 787 267 178 134 89 
252 599 295 113 125 165 
287 115 327 131 106 80 
151 281 399 142 145 154 
170 574 371 55 84 122 
134 338 231 76 102 127 
314 661 468 112 129 152 
202 992 344 91 77 65 
158 672 132 114 121 130 
197 654 173 109 129 150 
187 49 283 100 86 73 
142 268 381 113 123 136 
146 313 226 93 64 56 
204 349 191 84 117 145 
254 501 211 37 81 124 
117 525 238 70 81 94 
87 299 267 103 67 73 
320 784 389 178 150 122 
309 711 450 135 138 148 
315 733 336 156 89 99 
234 307 220 128 121 118 
208 385 398 170 138 102 
333 742 377 158 119 79 
306 780 419 152 127 102 
181 916 283 113 82 59 
284 620 418 82 83 87 
187 953 272 95 72 60 
141 383 313 117 115 118 
281 539 312 121 122 159 
241 940 351 181 134 111 
144 252 376 93 100 110 
71 279 313 55 83 106 
259 553 221 186 186 193 
154 328 387 92 70 85 
149 631 180 101 109 119 
178 270 215 102 52 50 
186 787 179 166 187 206 
187 55 282 99 86 72 
239 296 339 171 166 170 
206 482 414 93 128 180 
198 306 198 117 121 127 
139 597 331 70 118 156 
182 918 350 179 131 111 
253 984 260 139 109 75 
211 604 401 123 104 85 
196 276 419 156 154 159 
235 300 378 157 152 154 
117 279 248 88 80 75 
132 634 239 144 104 88 
276 556 324 110 133 157 
188 667 155 141 143 151 
231 377 210 103 114 130 
154 335 385 140 133 133 
189 488 410 79 105 168 
272 435 292 61 101 138 
194 542 205 103 112 125 
226 799 217 156 130 111 
256 203 350 86 106 129 
234 275 374 79 108 137 
333 683 343 131 141 159 
167 411 367 78 90 117 
310 52 318 116 104 95 
190 51 287 115 96 79 
297 813 392 201 132 102 
237 1011 276 165 138 115 
157 394 377 108 118 138 
129 709 162 86 114 144 
130 438 226 160 122 76 
247 514 379 128 143 164 
125 561 334 108 127 148 
255 488 211 130 136 149 
189 53 285 102 87 73 
149 597 225 44 80 118 
224 533 389 172 167 170 
266 39 338 103 80 56 
185 742 379 149 122 104 
122 389 297 103 109 120 
105 542 288 145 127 109 
348 640 392 107 117 130 
153 267 239 118 99 80 
233 185 363 128 108 101 
248 507 378 40 92 143 
215 925 365 196 150 135 
267 560 258 147 164 185 
177 970 334 173 131 111 
159 393 202 156 120 75 
223 684 396 87 119 147 
111 384 327 63 88 111 
115 355 274 113 115 123 
160 406 376 91 107 140 
88 337 270 152 66 72 
351 647 391 132 137 146 
139 665 192 168 115 94 
111 441 233 82 121 155 
198 376 399 167 136 100 
269 811 281 145 109 72 
186 57 275 101 87 74 
187 57 274 104 90 77 
167 474 371 60 69 94 
248 605 288 161 165 177 
180 790 326 121 130 141 
228 331 210 129 137 149 
232 654 269 64 78 95 
145 636 344 157 146 143 
206 935 257 62 52 41 
273 473 245 93 112 133 
151 150 274 99 82 65 
110 414 313 78 104 129 
249 725 240 122 137 156 
272 669 438 75 93 152 
226 699 202 98 127 155 
337 682 474 167 175 190 
232 441 380 106 119 142 
187 57 277 104 89 75 
205 754 394 142 143 151 
186 56 279 100 86 72 
148 367 215 103 117 135 
365 678 424 185 187 199 
149 685 116 86 78 70 
81 398 271 109 78 96 
151 655 200 171 117 97 
202 694 202 94 114 142 
256 53 322 92 73 50 
164 561 217 97 100 107 
195 690 185 112 121 158 
81 399 272 123 104 111 
187 61 272 116 97 78 
295 826 369 214 147 118 
217 140 339 127 114 102 
219 1014 291 143 112 78 
170 561 216 64 82 99 
156 758 145 155 162 205 
107 467 243 98 110 125 
157 305 376 92 113 136 
203 162 391 32 68 103 
153 191 317 74 43 40 
259 736 249 104 96 117 
213 746 183 105 143 179 
98 314 240 49 98 132 
232 401 369 147 129 112 
141 167 289 82 71 61 
188 60 275 111 94 78 
186 739 381 147 127 109 
256 726 407 80 43 78 
152 650 237 110 85 106 
331 678 341 106 121 146 
262 11 336 119 107 99 
145 268 394 117 108 103 
277 481 315 165 163 168 
363 654 410 112 123 138 
180 741 370 169 150 137 
182 516 196 86 116 172 
159 414 377 82 101 146 
163 407 339 77 91 130 
152 774 261 175 107 114 
266 861 300 191 144 112 
266 769 264 92 84 80 
260 552 222 174 179 192 
152 789 226 139 7 43 
158 361 378 127 119 116 
221 229 276 89 37 45 
105 276 283 103 49 55 
181 666 150 60 37 29 
177 946 355 181 139 116 
173 682 130 50 70 83 
256 604 420 119 101 84 
171 381 410 147 127 108 
149 678 350 94 112 130 
191 813 310 177 122 103 
314 693 317 119 133 154 
189 63 278 115 97 81 
251 892 277 91 75 58 
141 267 384 115 106 101 
281 477 286 80 111 141 
142 205 333 51 31 34 
164 458 374 75 90 128 
190 912 373 143 112 90 
290 675 292 105 120 137 
218 970 253 93 74 51 
367 669 419 116 144 179 
120 259 262 49 42 51 
125 694 164 90 105 156 
290 629 344 43 99 136 
246 663 257 72 109 142 
240 406 215 65 99 126 
287 800 299 142 102 64 
318 56 325 131 118 109 
182 183 416 106 42 65 
173 709 117 77 125 160 
185 750 149 135 154 178 
173 482 362 111 112 123 
198 323 193 97 115 133 
250 893 273 107 85 66 
196 838 260 156 157 164 
177 706 249 70 92 119 
263 752 414 179 163 153 
228 142 322 125 113 103 
209 502 397 150 155 167 
118 263 260 56 32 37 
275 527 246 155 166 184 
133 278 306 90 28 42 
259 154 307 113 103 94 
124 561 341 108 134 172 
189 58 284 108 91 75 
230 161 310 130 66 5 
111 338 330 113 120 131 
305 785 336 121 102 84 
176 918 313 127 95 70 
135 297 332 110 112 119 
241 890 336 147 104 75 
163 322 209 128 129 136 
197 651 177 75 104 129 
189 60 280 112 95 79 
131 640 210 51 32 67 
264 938 310 83 68 55 
194 711 203 111 120 141 
344 667 470 109 136 167 
236 889 353 160 114 86 
164 366 321 73 80 104 
280 16 312 153 137 126 
134 585 224 88 103 125 
146 779 194 117 139 171 
189 63 280 116 97 77 
260 570 370 138 141 152 
91 494 264 147 73 63 
335 718 363 169 181 198 
152 648 348 75 123 159 
222 148 367 136 73 4 
189 60 284 112 94 76 
153 177 422 127 102 82 
157 352 207 148 143 143 
191 149 402 68 80 95 
179 734 370 134 125 122 
142 640 242 154 106 92 
160 686 358 154 128 115 
253 720 405 144 116 96 
189 466 416 99 123 176 
109 433 237 90 118 143 
189 63 284 115 96 75 
281 532 325 81 103 156 
251 974 328 79 63 50 
366 660 434 82 113 159 
226 807 223 83 75 73 
265 438 244 83 104 125 
333 674 473 124 141 162 
146 777 186 77 95 157 
145 274 312 84 20 33 
115 574 304 74 107 164 
235 363 378 189 161 132 
189 732 145 189 186 194 
131 288 318 85 69 74 
225 675 229 121 134 150 
265 790 396 173 128 98 
224 395 201 104 118 135 
153 645 230 132 95 95 
210 200 264 52 48 49 
173 954 341 176 136 111 
292 723 425 120 105 89 
212 849 290 181 136 112 
110 434 237 76 113 143 
162 35 291 111 92 75 
188 468 415 79 108 174 
228 531 386 98 114 152 
215 394 399 165 118 79 
265 966 316 109 88 69 
131 180 296 84 76 71 
274 443 284 51 93 130 
170 135 337 95 85 77 
222 785 209 135 107 70 
186 720 191 138 139 146 
212 564 389 123 140 161 
199 832 298 179 123 105 
184 960 356 195 150 129 
250 192 351 131 111 106 
208 791 195 200 168 118 
201 976 270 79 52 46 
137 205 258 125 59 3 
210 654 409 108 132 160 
244 334 289 95 110 126 
190 665 191 107 132 158 
162 36 288 109 91 74 
304 636 425 61 64 68 
246 383 229 144 144 149 
164 419 344 110 112 135 
144 580 218 131 133 140 
253 990 297 110 86 64 
131 189 287 99 68 51 
170 507 193 80 113 167 
208 448 411 82 105 144 
156 423 202 136 49 70 
162 801 262 53 58 82 
99 293 244 126 68 24 
171 944 336 167 128 102 
280 125 334 123 97 68 
296 787 308 105 96 88 
114 353 274 109 112 121 
168 376 406 143 130 121 
200 1005 290 187 159 133 
222 591 385 108 119 135 
146 155 373 102 64 44 
275 454 276 112 128 147 
90 292 238 170 81 1 
284 14 337 115 100 88 
114 402 228 123 143 171 
111 331 330 117 125 137 
134 269 315 79 31 35 
268 12 322 152 132 118 
210 365 428 187 155 122 
152 645 217 153 100 87 
141 743 276 160 59 92 
154 350 384 158 152 154 
240 323 359 155 154 158 
128 338 283 81 102 122 
165 432 353 116 119 135 
187 159 275 73 65 59 
264 979 299 110 90 72 
159 549 346 164 159 161 
106 432 322 141 85 68 
261 456 228 89 106 124 
153 131 276 102 85 68 
153 665 352 115 131 151 
185 385 431 185 83 10 
268 593 348 106 134 163 
155 476 334 140 142 151 
173 967 311 102 82 67 
348 639 396 99 110 123 
115 563 240 66 95 121 
162 32 296 112 91 73 
123 676 155 118 138 163 
163 32 296 111 90 72 
242 383 223 151 149 152 
89 288 266 123 72 25 
230 227 257 100 50 49 
163 32 298 111 89 72 
248 186 352 128 110 104 
131 324 311 92 89 90 
215 853 273 202 150 120 
155 189 323 80 39 44 
216 530 388 89 99 139 
210 451 417 69 107 170 
162 393 356 88 107 134 
163 32 300 113 89 72 
169 187 422 102 75 71 
198 144 395 109 82 75 
125 386 311 100 103 110 
193 139 324 105 84 69 
257 551 374 89 104 128 
192 559 222 65 80 100 
150 344 215 128 130 137 
151 527 345 99 127 165 
203 433 408 91 79 68 
130 341 307 100 99 103 
87 377 280 81 60 74 
171 815 260 142 120 99 
180 659 209 117 127 151 
126 567 340 122 147 186 
136 329 301 102 89 76 
326 710 341 123 137 159 
225 499 387 111 121 138 
136 181 287 82 70 58 
277 543 271 143 151 171 
129 704 310 126 143 163 
329 747 375 103 115 129 
257 605 321 94 118 142 
257 456 222 84 103 123 
229 243 299 116 26 36 
170 147 256 122 95 62 
315 727 333 154 163 176 
166 576 215 110 112 118 
229 652 418 68 92 118 
173 734 362 129 125 126 
168 138 394 106 94 85 
185 317 439 179 157 137 
190 676 160 194 185 192 
245 665 418 134 158 189 
173 153 408 88 97 107 
188 474 188 127 147 175 
318 724 453 178 65 87 
275 496 330 94 111 147 
246 918 237 70 57 46 
253 436 224 62 89 113 
148 223 417 109 89 101 
184 433 424 116 131 172 
169 768 337 190 153 111 
242 350 228 163 127 86 
151 760 203 83 98 129 
204 996 332 95 78 66 
135 419 316 68 89 113 
167 741 198 107 108 116 
154 253 418 152 149 154 
177 731 243 97 103 114 
197 895 297 100 80 60 
188 782 343 168 127 102 
118 315 277 96 32 51 
154 143 367 95 49 11 
201 758 388 128 121 125 
344 723 449 165 187 213 
239 698 221 133 125 128 
205 334 431 185 159 134 
211 692 410 161 136 111 
233 305 382 134 135 141 
251 691 238 83 125 159 
167 37 300 107 88 67 
280 665 288 49 64 78 
166 36 302 108 88 67 
134 191 404 116 67 56 
140 292 331 116 119 127 
302 73 308 134 102 63 
208 848 303 157 114 88 
144 391 315 68 85 109 
166 223 429 138 115 102 
137 310 236 97 65 68 
152 394 209 121 114 116 
248 416 223 43 81 109 
295 680 441 148 168 193 
116 602 252 125 140 189 
255 258 354 133 30 69 
118 640 278 99 89 79 
123 441 312 53 65 80 
215 1006 305 139 106 77 
257 835 339 201 146 120 
229 276 306 86 98 112 
163 47 291 105 87 71 
314 710 458 125 157 189 
124 615 310 113 137 168 
150 673 145 126 131 138 
168 597 371 134 146 163 
275 569 304 130 146 166 
110 314 229 101 83 105 
335 754 410 76 52 87 
342 651 368 91 105 123 
217 754 399 194 173 159 
150 718 113 170 157 171 
341 715 459 184 194 212 
125 649 287 105 79 69 
238 188 359 117 114 117 
265 597 340 137 137 143 
221 189 287 74 48 53 
134 519 358 53 93 156 
200 412 404 147 56 12 
146 152 377 103 71 56 
239 409 364 107 120 140 
220 377 199 121 133 148 
137 665 307 78 82 128 
148 188 303 76 74 80 
143 162 300 74 67 62 
148 678 352 96 93 103 
202 419 397 106 90 74 
180 531 393 87 111 147 
247 136 324 89 75 61 
241 589 374 143 136 136 
153 577 348 82 109 139 
285 815 396 208 144 116 
212 827 226 187 162 141 
125 397 309 63 77 94 
169 759 221 62 92 129 
166 42 291 109 90 73 
168 639 371 62 74 91 
243 278 318 163 72 6 
164 373 374 87 90 102 
179 216 425 77 111 139 
132 596 326 79 93 123 
177 492 389 156 164 180 
149 349 216 113 120 131 
141 716 115 61 99 182 
107 543 295 114 104 129 
214 690 409 126 95 80 
150 383 316 75 90 112 
319 786 395 171 156 146 
244 583 221 201 196 200 
135 465 221 108 123 141 
169 325 427 119 131 150 
105 387 326 137 140 149 
183 395 429 139 118 100 
189 318 194 112 122 135 
226 323 301 94 75 90 
153 647 151 101 105 111 
212 753 398 157 129 108 
166 428 360 125 126 141 
171 322 430 112 132 156 
255 873 282 185 141 107 
173 137 317 83 70 58 
218 658 243 86 89 94 
143 220 403 47 71 105 
77 322 288 108 45 55 
177 622 378 160 115 110 
174 490 396 144 157 175 
164 47 291 105 87 71 
231 407 372 104 110 127 
163 369 320 60 72 104 
280 729 283 143 151 163 
254 961 339 107 81 67 
177 655 197 119 133 156 
167 44 289 104 87 70 
233 341 354 147 144 149 
249 928 262 77 62 50 
212 493 391 87 108 154 
227 795 366 205 150 127 
259 816 363 192 139 112 
139 672 264 177 108 104 
211 857 297 153 114 86 
166 46 289 105 87 71 
214 457 194 57 96 140 
143 203 297 77 35 34 
196 963 361 195 149 127 
233 506 386 144 144 164 
155 649 231 96 87 110 
148 220 418 102 84 107 
243 393 349 116 123 136 
268 207 343 111 115 123 
198 337 397 175 143 106 
149 718 172 64 94 137 
130 280 289 83 69 74 
173 583 219 74 93 116 
203 897 368 115 69 59 
310 77 315 136 100 47 
175 483 394 90 117 160 
185 896 315 128 102 74 
166 655 134 126 129 136 
100 310 227 114 100 103 
139 421 219 138 74 93 
283 490 282 121 133 150 
202 722 163 125 145 168 
123 315 279 102 41 66 
146 764 192 140 147 160 
206 687 403 162 113 46 
164 338 205 91 119 145 
219 321 203 84 116 144 
261 149 343 103 92 82 
108 411 270 135 117 100 
153 651 238 94 80 121 
214 765 388 110 146 178 
247 283 339 108 126 148 
196 192 394 125 37 35 
287 616 369 103 115 132 
111 411 327 79 89 110 
199 435 185 63 107 143 
169 518 195 108 130 175 
146 685 348 130 142 159 
279 154 311 123 110 98 
172 634 147 110 119 131 
259 827 271 167 126 94 
154 565 210 60 84 115 
76 310 292 120 59 73 
184 685 149 63 129 175 
212 302 201 135 130 129 
160 295 415 82 126 160 
235 335 218 117 126 138 
163 46 299 104 87 69 
129 739 313 154 113 119 
156 685 176 90 72 75 
163 46 300 104 86 69 
163 47 300 103 86 69 
352 687 379 130 151 176 
221 892 277 89 70 49 
245 645 289 52 65 81 
247 491 207 136 141 156 
259 873 313 123 87 61 
228 932 362 184 141 114 
199 306 198 113 119 129 
214 383 194 109 116 126 
189 726 387 70 68 76 
116 407 298 79 95 111 
282 488 290 69 104 139 
125 701 142 115 137 169 
160 423 378 76 98 152 
189 701 236 47 74 116 
241 579 208 112 149 185 
244 906 347 176 128 100 
303 797 327 145 111 74 
203 416 408 147 63 23 
147 663 183 142 99 87 
119 663 280 199 147 141 
326 730 355 141 6 50 
148 543 330 65 86 105 
165 810 197 231 52 56 
184 835 228 162 139 135 
254 985 280 87 69 52 
107 482 274 165 133 97 
267 495 225 107 123 144 
220 349 202 145 144 148 
216 959 260 77 55 35 
139 748 325 129 30 95 
81 288 278 89 117 143 
119 334 276 110 108 112 
296 705 428 113 149 183 
254 463 364 123 135 152 
169 440 371 67 78 103 
211 660 221 81 105 137 
172 631 149 98 115 133 
265 800 392 177 135 106 
173 779 331 121 122 129 
174 137 317 83 70 58 
293 771 422 164 152 149 
166 45 297 104 86 69 
243 441 211 62 94 123 
275 568 323 133 143 158 
150 191 424 93 94 105 
167 45 297 104 86 68 
137 749 168 64 43 123 
148 200 301 111 29 18 
139 751 162 151 171 197 
174 273 435 158 157 163 
139 143 405 112 86 71 
214 881 365 177 133 109 
288 834 320 204 146 117 
200 420 404 118 95 86 
225 218 277 65 40 59 
140 665 142 122 126 133 
117 368 273 82 103 124 
211 803 205 99 109 121 
126 613 315 97 128 173 
157 260 429 149 150 158 
109 346 248 48 76 96 
317 712 328 147 159 176 
244 376 334 100 112 128 
164 47 302 103 86 68 
284 512 281 112 134 159 
175 789 175 184 185 202 
236 312 280 97 117 138 
268 149 340 111 96 82 
154 170 314 126 60 6 
157 537 201 136 147 173 
325 764 422 168 135 116 
254 276 342 154 153 161 
167 44 301 102 84 65 
246 953 347 92 69 56 
267 926 278 71 55 41 
310 741 333 170 128 59 
141 492 345 101 113 129 
136 653 247 153 96 87 
147 488 342 74 89 128 
344 709 461 150 172 202 
214 977 249 128 105 82 
246 310 368 100 106 121 
140 192 344 76 42 40 
199 141 318 129 99 80 
270 466 241 97 115 135 
169 813 200 232 36 42 
233 364 214 164 134 100 
231 663 419 95 110 154 
91 298 238 162 65 0 
193 268 423 141 138 139 
309 797 357 149 113 75 
257 556 220 0 83 139 
248 639 300 52 58 66 
134 678 277 190 141 128 
214 912 268 63 53 42 
266 115 311 126 99 70 
191 677 219 98 111 142 
175 692 133 142 120 119 
275 562 313 157 156 163 
274 916 328 147 97 74 
148 743 134 167 155 205 
195 821 210 108 111 119 
216 951 259 81 58 31 
210 640 199 89 103 119 
134 188 284 81 68 57 
154 766 254 48 44 53 
201 634 173 161 180 206 
133 495 316 93 102 127 
255 179 305 42 63 100 
148 236 403 95 56 82 
136 688 172 151 103 81 
273 475 329 88 106 147 
166 33 305 111 89 67 
242 841 257 193 140 107 
314 57 303 152 135 124 
194 954 265 101 79 52 
160 536 359 107 125 169 
335 65 319 166 150 139 
143 273 245 128 80 38 
166 34 304 109 88 67 
270 423 282 67 104 133 
176 383 188 162 148 139 
206 643 192 64 88 109 
113 280 255 88 81 75 
234 272 231 91 51 51 
97 534 254 177 65 8 
165 647 141 74 104 129 
151 233 421 132 74 84 
175 546 378 74 102 163 
270 887 330 119 95 77 
257 420 236 114 124 137 
259 967 324 102 79 69 
208 343 418 194 166 137 
282 803 295 147 103 69 
230 353 334 143 140 144 
160 295 221 136 125 119 
267 634 333 90 115 153 
229 826 236 208 170 128 
79 351 281 99 87 91 
108 311 255 101 45 66 
209 508 395 105 121 166 
221 353 394 114 63 90 
259 914 268 95 77 62 
83 382 272 97 57 81 
213 957 260 82 61 43 
256 465 362 66 94 137 
122 631 295 97 120 171 
275 668 280 101 104 110 
164 447 374 59 76 119 
278 787 409 117 111 108 
172 633 373 155 110 101 
219 181 292 119 41 11 
221 683 210 85 110 134 
195 923 264 98 77 63 
97 308 260 97 77 70 
169 33 308 111 88 65 
158 719 349 192 79 20 
163 710 357 168 64 46 
135 646 326 143 114 129 
290 30 325 86 64 49 
266 454 239 113 121 133 
108 312 228 100 86 97 
198 690 211 85 100 134 
103 266 288 81 33 47 
198 299 390 102 99 118 
214 195 274 82 48 24 
290 19 345 136 124 118 
170 35 308 107 85 63 
341 692 359 63 102 161 
199 563 211 102 118 136 
176 482 189 102 121 160 
171 34 310 108 86 63 
231 303 217 88 111 132 
137 291 244 90 69 62 
282 486 296 93 117 140 
263 135 310 113 90 63 
170 134 347 110 100 91 
167 598 197 104 118 135 
226 407 202 99 117 138 
249 417 223 52 85 111 
324 710 337 153 167 187 
325 650 348 71 91 117 
133 323 235 78 102 128 
246 826 249 147 137 132 
103 320 283 100 46 63 
193 793 185 86 104 140 
187 949 270 112 90 66 
195 137 364 129 71 23 
285 17 326 126 110 96 
230 913 251 77 60 47 
101 306 259 91 76 63 
231 652 420 63 88 121 
244 602 377 63 93 118 
164 313 424 124 140 160 
170 458 363 93 98 132 
99 338 283 60 90 112 
211 809 208 45 41 58 
213 350 398 153 123 93 
141 498 220 91 126 157 
210 783 367 201 149 123 
267 436 252 115 130 148 
164 355 404 96 122 149 
161 823 222 163 135 106 
200 259 213 88 63 60 
312 795 385 167 161 163 
174 914 325 148 109 82 
257 617 342 49 62 75 
171 506 367 73 85 113 
209 139 380 146 70 5 
172 32 311 115 88 67 
120 596 241 117 132 183 
253 802 252 185 164 146 
229 313 214 95 83 86 
105 506 299 133 117 94 
155 741 193 60 80 121 
254 569 224 119 142 182 
172 34 310 108 86 64 
87 362 283 47 81 106 
180 976 303 84 68 62 
144 143 400 113 95 78 
140 451 216 142 62 79 
128 567 325 72 103 135 
240 340 375 110 133 158 
160 139 352 100 86 75 
140 249 296 31 39 60 
294 51 331 88 71 50 
154 296 352 82 108 137 
233 462 202 68 103 135 
203 1001 272 117 96 73 
205 201 380 69 37 37 
247 582 373 146 137 136 
148 172 260 95 84 73 
145 619 312 85 99 140 
260 87 315 116 91 62 
166 425 362 142 141 147 
216 195 372 128 51 67 
149 150 285 102 84 65 
172 39 309 107 85 63 
252 230 304 95 62 94 
253 247 310 109 55 58 
174 36 310 108 87 64 
233 394 366 138 125 116 
96 364 260 135 113 96 
272 780 270 115 101 90 
222 592 386 109 121 137 
282 617 381 55 71 99 
247 329 267 128 123 123 
139 748 278 139 18 56 
245 325 247 120 37 43 
231 241 368 120 106 93 
169 757 144 160 173 218 
293 659 458 126 144 165 
282 504 308 137 145 159 
143 212 297 112 33 22 
150 644 159 97 105 117 
209 643 388 94 64 60 
268 447 248 138 140 147 
356 671 387 125 143 165 
159 347 321 68 84 108 
213 873 332 108 84 57 
249 606 388 93 79 67 
283 493 296 108 136 164 
168 43 306 105 85 64 
238 344 307 138 138 142 
130 200 385 108 36 55 
169 43 306 105 85 65 
265 435 245 36 82 113 
174 128 296 72 58 43 
119 460 315 41 53 67 
200 435 398 115 103 88 
258 518 216 140 160 195 
166 718 115 221 206 209 
140 300 308 80 87 97 
269 568 280 201 195 198 
185 719 380 87 70 68 
242 287 336 100 130 159 
241 537 211 131 135 145 
188 740 387 140 121 106 
131 639 210 59 69 106 
143 527 219 83 102 123 
242 638 280 112 113 119 
225 586 188 119 143 174 
209 806 205 75 50 83 
92 404 276 123 128 138 
148 501 324 146 145 150 
226 271 303 113 118 128 
143 660 207 161 103 88 
248 721 239 150 162 180 
245 271 316 162 64 6 
170 541 367 66 87 128 
265 666 402 115 144 173 
157 183 327 88 38 36 
236 179 361 67 107 137 
232 596 215 197 194 200 
134 679 175 161 111 89 
155 557 207 91 107 126 
189 727 143 173 172 179 
153 795 242 130 63 66 
271 771 270 129 121 118 
178 518 397 113 136 171 
133 712 127 170 168 182 
250 343 261 111 102 109 
267 740 417 117 119 125 
233 380 213 109 116 128 
223 539 220 80 95 113 
275 854 317 199 145 114 
181 255 433 81 116 145 
196 474 419 159 168 186 
226 330 311 92 106 122 
207 781 188 186 39 71 
140 205 296 70 38 35 
222 532 217 130 123 120 
123 697 154 76 114 161 
172 41 310 107 86 63 
176 455 402 135 150 171 
225 547 207 98 117 136 
188 806 317 190 135 113 
91 296 238 161 77 0 
217 162 304 116 64 5 
198 388 401 173 142 107 
236 333 221 124 132 144 
336 637 373 99 109 122 
354 666 382 94 123 153 
175 572 385 101 135 175 
224 144 316 142 129 117 
108 307 256 93 82 78 
156 282 402 150 149 156 
285 801 296 142 96 69 
233 235 299 73 38 34 
188 137 356 118 80 54 
286 72 338 143 111 93 
134 634 310 88 87 103 
263 66 338 108 88 68 
286 741 427 76 92 109 
172 44 310 105 84 61 
145 544 210 109 120 137 
133 628 300 95 110 133 
255 269 335 148 147 152 
202 728 163 114 138 164 
202 649 184 54 70 86 
179 977 331 106 86 72 
138 747 156 126 144 198 
182 680 140 81 129 166 
205 747 170 121 133 151 
176 735 198 76 96 127 
121 655 268 164 114 104 
263 520 361 111 120 148 
136 555 228 57 78 109 
147 426 212 119 102 116 
188 207 408 105 88 95 
175 507 391 110 133 168 
207 536 392 82 108 146 
95 541 260 162 57 5 
176 794 314 105 104 108 
70 284 303 52 75 97 
223 688 396 53 103 139 
327 693 335 129 138 160 
172 929 324 164 122 95 
299 805 317 153 114 80 
220 905 267 64 52 38 
222 647 231 132 146 166 
199 258 214 92 46 47 
205 453 401 90 107 145 
289 616 365 78 107 141 
190 495 192 176 179 195 
119 597 305 134 155 178 
167 684 123 71 105 135 
276 186 328 132 96 91 
243 961 348 117 95 79 
87 265 289 72 70 70 
182 671 384 181 115 68 
195 969 272 91 75 65 
140 348 319 121 55 85 
284 510 282 142 149 163 
176 661 192 130 139 157 
146 202 422 111 77 70 
239 639 273 131 131 136 
235 629 268 91 109 127 
185 137 358 117 80 56 
200 221 390 99 50 55 
299 679 301 91 112 136 
257 778 403 126 114 107 
288 130 317 131 101 68 
195 699 187 103 118 151 
343 734 410 176 78 76 
173 923 326 161 118 92 
151 489 335 126 131 141 
128 444 317 86 99 120 
308 51 306 120 107 97 
110 329 250 94 81 86 
183 804 313 181 137 110 
196 634 389 164 121 112 
241 296 372 128 129 135 
152 251 399 125 133 146 
140 185 412 102 97 103 
328 662 469 82 114 163 
222 540 220 86 100 115 
147 508 323 105 116 139 
246 726 233 116 124 136 
127 413 231 77 100 123 
271 905 319 162 128 102 
162 48 301 104 87 69 
106 583 256 107 124 173 
285 829 306 186 140 108 
208 647 392 93 95 102 
223 144 364 123 94 63 
129 202 292 86 91 97 
236 592 222 200 197 204 
125 391 289 88 106 126 
230 273 306 93 98 105 
157 757 259 88 58 51 
149 767 290 91 78 85 
162 51 303 103 87 72 
187 170 262 96 54 12 
224 141 340 120 108 97 
223 615 227 92 153 199 
229 931 253 69 52 34 
249 580 376 120 119 123 
229 421 376 98 116 136 
236 200 361 140 74 74 
126 333 314 102 95 93 
204 984 274 86 67 40 
244 738 228 177 80 102 
182 897 318 137 107 80 
129 378 230 141 138 141 
144 481 357 139 144 155 
205 331 429 184 157 129 
234 673 237 118 128 140 
133 460 223 163 122 70 
133 296 332 119 119 126 
162 52 303 103 86 71 
232 252 301 111 2 33 
173 754 226 92 113 135 
249 896 267 116 86 56 
134 639 234 151 101 87 
312 651 334 102 113 126 
160 299 219 138 136 138 
153 650 215 148 97 81 
76 289 307 79 83 92 
252 721 244 162 172 188 
142 701 174 95 105 164 
161 696 261 37 51 94 
187 548 396 122 139 168 
146 435 212 140 55 81 
225 649 249 99 111 126 
241 300 239 144 143 148 
160 59 301 105 88 72 
141 646 333 73 127 169 
259 926 334 116 82 55 
225 991 249 136 104 68 
165 422 328 75 93 115 
146 186 420 100 89 95 
155 627 166 79 95 111 
186 701 384 184 174 174 
267 151 306 113 102 94 
163 422 325 62 85 121 
132 661 153 103 116 130 
275 458 267 107 125 147 
224 921 365 201 147 123 
250 232 303 90 65 90 
179 655 192 115 130 154 
218 320 393 165 141 115 
183 606 383 144 101 95 
162 404 345 77 89 130 
238 186 359 105 110 120 
169 743 354 145 129 119 
222 309 297 79 112 139 
144 689 282 121 125 134 
174 947 296 93 81 69 
219 977 249 103 83 61 
197 166 286 119 72 35 
103 258 287 51 41 43 
280 616 374 85 99 114 
259 235 312 124 104 111 
162 53 304 103 86 70 
239 316 354 84 125 159 
207 139 343 126 112 99 
262 406 318 85 112 137 
109 321 227 137 59 58 
325 769 390 159 141 126 
179 675 378 165 107 41 
283 119 333 136 106 83 
198 370 187 155 153 158 
100 444 255 87 111 135 
241 377 339 109 115 126 
166 376 321 54 91 117 
260 25 351 135 122 115 
133 572 227 106 112 123 
164 51 304 102 85 67 
207 520 405 106 131 162 
124 570 336 121 145 179 
172 709 367 66 86 108 
253 619 378 55 64 73 
156 590 356 96 115 135 
160 785 289 52 66 77 
235 841 252 198 146 102 
174 134 306 75 61 46 
167 49 307 103 83 62 
146 764 274 184 88 82 
241 186 356 90 100 113 
166 51 306 105 85 64 
67 271 310 118 123 132 
256 203 304 108 43 46 
200 840 247 211 194 186 
143 636 254 153 105 94 
267 657 441 51 92 127 
136 310 297 121 95 61 
221 816 343 193 134 118 
117 301 321 90 87 90 
218 558 387 64 93 129 
204 993 277 99 79 66 
269 687 403 119 139 161 
235 544 207 119 127 140 
218 1000 320 131 107 79 
184 708 242 103 114 126 
67 264 317 157 71 0 
301 618 371 36 65 91 
151 145 287 103 84 65 
117 616 290 59 90 167 
177 655 218 115 123 150 
193 540 403 122 140 174 
164 371 374 116 114 116 
272 441 305 136 141 152 
219 740 403 178 160 147 
86 368 274 70 67 97 
166 55 306 108 88 66 
147 232 347 61 55 59 
101 294 260 104 51 13 
154 321 216 135 131 132 
260 667 423 116 144 180 
345 663 367 62 96 135 
145 260 317 68 36 43 
162 56 304 107 89 71 
281 617 389 43 73 98 
154 765 254 53 47 52 
143 279 385 114 130 150 
339 691 353 30 62 121 
163 57 305 108 89 69 
144 542 211 95 110 129 
206 346 432 155 46 78 
308 805 368 173 121 87 
152 249 404 149 147 152 
75 329 297 71 62 79 
79 269 275 134 120 105 
177 225 428 66 91 112 
273 551 267 153 164 180 
124 613 247 132 136 149 
227 379 392 179 150 120 
175 724 367 65 71 86 
78 259 310 92 76 76 
183 226 421 56 52 78 
208 660 198 80 123 175 
172 801 295 174 153 136 
186 137 346 102 85 74 
255 273 352 161 155 157 
157 718 264 120 126 137 
145 644 226 146 97 83 
164 57 305 107 88 68 
296 68 308 124 100 72 
164 57 306 108 88 68 
244 317 250 123 130 139 
165 57 306 107 88 67 
240 442 375 82 107 142 
129 372 314 125 95 58 
174 278 435 140 143 154 
318 748 439 159 122 89 
222 1003 259 99 67 40 
108 529 239 170 80 8 
166 56 307 107 87 65 
134 321 294 128 51 5 
163 757 254 58 58 65 
166 756 251 83 104 125 
310 783 358 159 145 138 
200 430 426 185 182 187 
295 114 315 141 109 81 
218 487 387 92 110 146 
209 190 273 115 42 20 
217 708 401 139 60 47 
201 913 270 89 72 53 
102 347 281 74 89 105 
239 627 390 47 42 49 
114 280 253 88 86 87 
159 762 334 163 154 152 
187 387 185 113 127 144 
289 60 313 124 105 84 
213 689 410 146 122 96 
118 269 254 126 56 24 
270 457 247 108 122 139 
164 689 116 78 106 134 
142 620 235 33 44 56 
356 651 434 116 126 140 
323 777 404 174 149 125 
360 660 397 126 137 155 
129 219 383 39 44 81 
263 780 256 152 138 128 
136 242 388 155 134 111 
186 595 387 124 145 176 
172 620 158 74 112 141 
98 317 239 48 100 135 
230 929 362 193 142 114 
177 923 280 84 66 42 
170 624 371 129 124 132 
221 697 398 64 72 95 
192 644 155 153 166 187 
188 668 153 132 138 147 
183 273 211 127 87 66 
97 332 260 110 94 96 
161 291 357 127 114 105 
81 373 285 56 95 127 
267 544 360 106 120 143 
234 383 362 124 110 104 
250 366 312 119 128 141 
113 421 299 143 123 105 
180 309 201 98 94 92 
165 438 387 85 111 159 
292 19 342 105 89 73 
230 362 344 147 145 148 
171 51 309 104 84 62 
167 135 339 99 90 82 
206 566 200 76 108 137 
174 825 252 157 131 112 
284 504 288 149 154 165 
139 193 258 111 90 68 
316 629 359 91 113 135 
202 375 406 175 141 100 
291 84 302 138 111 85 
119 359 237 71 62 74 
242 330 232 105 108 115 
178 213 424 110 113 123 
274 757 275 120 103 87 
128 695 131 131 146 176 
261 896 326 104 83 68 
288 126 320 125 100 71 
252 577 238 144 166 194 
221 298 302 125 125 129 
127 468 316 77 89 111 
196 462 187 134 147 182 
167 155 411 85 81 87 
106 402 273 82 101 121 
350 663 460 72 68 66 
244 591 371 136 129 127 
165 494 355 92 108 126 
142 757 177 79 105 149 
322 624 379 98 108 120 
256 382 253 144 146 153 
199 337 404 183 151 117 
264 491 354 129 134 146 
129 720 142 112 134 194 
118 500 239 102 96 104 
215 652 413 84 113 145 
159 348 334 78 91 109 
132 734 151 124 154 205 
105 509 281 171 70 0 
235 351 354 160 157 160 
220 599 396 71 74 79 
213 402 193 68 98 129 
94 346 262 103 87 109 
167 421 331 84 91 108 
174 51 310 106 85 62 
129 553 346 76 105 158 
294 681 431 139 164 191 
275 187 319 131 101 91 
189 955 272 98 73 55 
173 52 310 106 86 63 
253 411 232 79 103 128 
170 430 371 75 84 106 
276 735 279 152 58 51 
199 353 188 88 121 150 
179 686 165 85 114 140 
174 52 310 106 85 63 
233 272 374 85 120 148 
332 743 439 180 92 86 
310 768 348 148 125 103 
149 428 210 106 123 142 
270 638 439 144 106 82 
265 935 299 61 48 41 
187 453 186 63 100 147 
174 55 310 108 86 64 
269 543 240 103 133 168 
175 55 311 109 87 64 
152 237 417 119 34 68 
107 350 324 64 74 85 
249 607 377 82 74 69 
137 412 316 60 84 109 
265 769 260 114 103 94 
124 703 151 77 112 165 
146 506 334 120 125 136 
169 321 369 100 80 83 
284 621 433 107 91 75 
139 540 330 61 91 120 
166 601 192 69 100 126 
284 617 360 58 117 157 
296 618 384 63 88 108 
190 720 227 69 86 125 
170 57 309 107 87 65 
225 548 206 114 124 137 
206 570 195 87 117 144 
149 352 320 118 23 62 
325 725 455 130 152 178 
152 732 270 92 104 118 
139 462 217 110 130 153 
133 750 293 166 95 104 
172 961 330 174 136 113 
280 75 339 122 101 79 
214 331 198 89 116 141 
177 326 198 147 144 146 
270 485 234 87 108 131 
265 934 322 132 82 70 
253 478 211 90 111 135 
296 799 313 145 111 71 
129 553 310 139 151 167 
326 689 332 128 136 158 
235 670 245 118 130 146 
168 63 309 105 86 66 
145 713 272 123 136 154 
125 470 232 115 125 142 
129 276 299 77 32 40 
171 756 143 121 145 206 
263 242 333 75 116 148 
159 321 212 110 119 131 
257 231 351 72 111 140 
103 435 269 127 91 63 
166 379 196 97 110 125 
128 675 143 64 87 116 
83 287 289 62 67 76 
233 232 365 47 69 94 
281 678 458 96 123 192 
295 643 330 90 114 138 
263 607 412 94 84 76 
137 659 192 158 111 90 
151 690 274 70 79 117 
249 657 433 25 51 100 
152 596 351 103 128 154 
202 836 284 187 134 111 
256 606 319 86 112 137 
202 269 387 135 133 137 
247 309 366 88 126 158 
196 672 198 64 92 149 
136 194 295 96 71 56 
258 372 282 132 88 95 
195 701 223 90 100 133 
146 778 207 137 156 179 
229 152 310 119 105 96 
260 498 216 76 104 133 
177 722 371 154 137 134 
318 57 310 166 149 138 
229 436 202 70 99 128 
175 135 359 109 89 74 
227 969 354 172 128 106 
265 736 415 125 110 98 
366 674 418 185 187 197 
275 639 444 139 106 81 
162 293 219 135 130 129 
192 673 215 133 134 142 
239 774 223 76 50 94 
257 667 262 69 88 107 
174 63 310 109 88 67 
180 740 229 92 105 128 
143 609 232 66 87 111 
127 316 318 91 86 89 
236 855 267 228 159 115 
107 482 272 169 137 100 
224 1014 294 74 61 46 
247 621 411 135 94 77 
276 137 308 125 98 65 
179 734 202 131 137 149 
247 462 372 85 106 139 
241 316 356 77 125 161 
182 917 279 78 62 52 
259 635 323 40 59 76 
190 590 181 76 117 150 
208 492 409 110 138 173 
172 628 151 70 98 124 
275 571 330 147 150 161 
220 670 238 109 119 132 
176 518 195 62 97 158 
208 879 365 181 136 118 
195 707 157 153 153 161 
202 341 407 179 147 110 
162 489 192 78 111 156 
234 383 354 124 111 101 
157 141 391 98 87 79 
165 437 334 57 81 111 
194 879 358 164 124 106 
140 717 117 86 73 174 
139 251 336 69 93 115 
322 646 442 103 87 73 
340 730 388 163 118 126 
154 396 320 52 75 110 
168 664 196 121 121 140 
225 435 380 103 116 135 
135 636 274 119 119 146 
336 687 475 116 135 190 
270 499 344 128 136 150 
218 943 367 177 145 117 
215 801 208 101 121 141 
261 480 359 110 119 138 
179 38 311 111 88 64 
141 290 313 105 98 97 
332 629 381 103 114 127 
180 34 311 115 89 65 
266 136 309 115 92 65 
205 408 427 167 148 135 
155 525 352 101 137 179 
149 547 334 87 108 131 
280 510 256 177 173 178 
257 665 428 89 114 139 
152 135 284 102 84 65 
144 164 351 81 74 69 
235 703 216 160 160 169 
239 826 346 189 137 119 
200 880 309 145 110 82 
131 643 257 163 112 101 
225 649 251 98 102 111 
282 508 268 175 172 176 
152 171 311 123 59 4 
176 466 187 108 134 163 
206 319 195 95 102 113 
199 485 417 102 130 180 
265 124 311 119 94 65 
277 905 336 138 113 87 
206 405 427 154 134 122 
195 718 392 147 140 137 
265 224 345 112 105 118 
306 619 401 92 103 117 
266 462 343 163 161 168 
175 549 379 96 119 163 
167 476 372 43 59 96 
152 652 214 147 96 82 
253 933 339 101 73 57 
111 541 304 104 132 174 
159 389 202 161 120 67 
277 114 336 137 106 78 
275 498 241 109 124 147 
105 346 225 125 49 61 
135 366 227 135 134 139 
83 412 268 166 165 171 
241 597 405 93 85 80 
127 376 292 58 86 113 
183 32 312 110 83 64 
233 479 384 168 164 166 
183 33 312 115 86 64 
204 400 429 160 109 65 
218 141 327 145 125 109 
193 650 170 127 147 171 
240 274 312 145 70 5 
259 194 305 45 42 62 
239 274 245 78 114 144 
177 41 311 110 88 63 
229 515 205 186 186 197 
245 387 341 114 125 143 
337 710 464 124 162 203 
235 872 270 129 88 53 
252 937 261 68 54 50 
250 487 373 89 112 141 
191 685 394 134 111 88 
179 41 311 110 87 62 
140 641 239 156 108 91 
221 926 254 71 58 48 
179 613 161 108 128 148 
161 549 361 102 116 167 
273 15 308 155 137 123 
128 641 303 63 75 99 
273 834 347 192 142 114 
193 707 226 115 120 132 
180 941 274 123 107 91 
176 572 376 72 113 160 
177 46 311 106 84 61 
167 406 366 55 74 122 
262 906 280 69 53 49 
150 754 267 76 33 46 
154 151 302 86 71 57 
179 45 311 108 85 60 
161 561 355 130 136 157 
275 657 443 96 115 135 
151 499 204 58 97 128 
179 47 311 107 84 59 
248 868 323 178 125 98 
196 690 394 145 106 52 
186 259 215 111 64 54 
184 774 350 132 119 110 
252 146 309 103 89 77 
190 716 196 120 129 143 
219 730 404 120 86 58 
255 357 274 136 88 99 
182 40 311 112 88 61 
118 283 318 79 62 69 
183 40 311 112 88 61 
272 202 326 78 79 107 
148 247 340 85 83 87 
155 381 206 120 119 122 
219 682 400 88 128 160 
124 388 294 80 96 114 
180 44 311 110 86 60 
130 561 341 90 108 128 
313 773 422 183 160 142 
125 278 281 79 56 65 
274 788 276 119 120 128 
257 81 317 111 86 58 
255 442 357 138 147 161 
211 688 410 169 144 120 
277 648 446 117 130 167 
206 873 326 109 86 59 
286 33 349 119 94 72 
298 30 331 115 98 81 
336 739 440 121 74 116 
171 942 336 162 125 96 
172 610 371 89 109 136 
113 560 303 101 129 169 
177 971 297 96 77 64 
102 566 275 150 111 113 
229 223 270 123 38 22 
184 36 311 116 89 65 
203 668 200 105 132 159 
271 780 269 151 128 107 
162 723 183 68 81 106 
83 411 268 170 166 171 
172 448 393 96 120 157 
161 145 257 121 96 66 
169 137 388 101 89 80 
121 498 237 121 118 130 
312 655 331 80 99 118 
211 380 417 198 165 130 
231 332 303 132 135 144 
242 939 259 77 60 42 
158 391 376 69 86 130 
255 577 371 149 145 148 
228 290 278 133 136 144 
214 482 390 107 124 158 
196 801 193 191 33 35 
227 849 324 166 120 96 
189 197 407 141 66 66 
271 122 336 123 98 69 
176 744 212 71 90 133 
286 760 423 159 146 138 
113 428 324 66 80 97 
188 39 310 116 88 63 
121 330 278 110 109 114 
152 193 333 77 31 30 
274 631 338 61 103 138 
249 344 290 156 120 75 
200 698 208 134 139 151 
147 638 259 151 103 94 
226 397 391 178 85 4 
207 557 213 87 110 133 
258 795 255 171 140 109 
204 424 188 41 92 135 
175 474 402 87 108 158 
176 547 380 109 129 162 
178 790 323 150 138 131 
73 324 300 92 39 72 
247 338 249 123 130 137 
137 299 330 109 110 117 
211 190 276 96 45 28 
261 479 358 104 115 146 
169 612 368 123 98 95 
268 422 270 39 88 125 
246 682 396 89 122 151 
152 270 399 114 115 122 
95 467 253 129 131 137 
162 578 362 115 135 158 
214 484 390 99 121 156 
128 647 306 39 89 133 
204 360 189 103 78 76 
253 153 308 129 115 103 
181 663 146 167 148 143 
129 348 305 85 95 108 
143 613 336 109 127 147 
124 609 315 139 155 177 
176 677 374 157 72 10 
102 432 270 118 9 52 
123 657 288 130 99 94 
137 749 161 125 142 193 
118 264 257 86 30 33 
170 542 367 66 87 127 
252 838 265 187 138 106 
109 365 238 104 82 118 
180 908 350 175 134 111 
287 623 349 98 125 151 
271 578 299 149 165 187 
259 374 288 116 82 95 
188 34 312 116 90 68 
168 467 189 104 125 153 
164 351 375 93 99 108 
143 165 415 118 88 79 
127 537 352 120 140 168 
221 958 363 189 140 114 
152 650 348 71 122 158 
237 313 377 105 126 149 
173 496 365 67 74 114 
106 314 281 91 56 68 
190 34 312 117 94 73 
169 444 371 83 88 106 
260 253 330 57 68 106 
274 775 412 191 174 165 
143 694 351 90 86 84 
198 380 399 170 139 103 
295 99 304 122 90 58 
274 561 288 74 105 147 
159 816 210 188 30 74 
249 169 307 103 81 58 
142 222 346 48 35 60 
97 407 261 76 114 146 
274 506 336 146 149 160 
137 671 290 123 109 124 
166 532 199 169 171 183 
266 538 228 146 163 185 
214 862 285 174 130 102 
212 848 271 208 152 123 
117 394 313 114 116 124 
138 480 220 103 122 154 
260 415 334 87 111 143 
259 87 315 117 92 63 
202 475 191 103 118 170 
187 42 310 113 86 62 
251 974 274 92 66 53 
139 305 329 91 98 108 
292 44 331 88 70 54 
128 394 231 125 134 147 
209 330 196 87 113 136 
197 666 173 218 214 221 
274 563 342 116 132 152 
179 477 410 116 137 171 
113 276 279 101 53 51 
154 712 177 89 108 147 
185 47 310 111 85 62 
105 472 306 135 125 122 
142 758 282 184 110 130 
162 285 358 90 105 123 
220 684 207 53 94 124 
298 623 409 89 101 114 
334 751 395 81 62 114 
206 673 210 65 92 116 
78 297 293 90 65 68 
309 44 316 104 93 83 
144 649 242 151 103 90 
213 144 312 140 117 100 
234 380 352 134 121 113 
234 268 230 84 105 125 
171 806 191 126 109 162 
103 256 287 40 38 45 
185 814 299 157 107 85 
225 755 400 173 160 154 
188 162 408 50 74 97 
177 670 376 141 94 71 
248 248 306 131 51 47 
152 525 348 107 135 173 
267 561 361 158 159 168 
284 87 334 131 107 83 
188 41 310 115 87 63 
269 524 229 149 155 168 
219 596 386 87 106 126 
202 402 187 140 145 158 
138 638 330 138 139 146 
155 261 417 151 151 157 
189 42 309 116 88 64 
126 378 293 54 90 117 
344 707 374 120 140 176 
123 303 320 84 83 88 
178 284 437 152 154 162 
226 544 213 102 126 151 
192 257 421 77 111 139 
209 511 394 105 120 160 
233 588 385 68 100 138 
219 677 219 84 116 144 
260 889 297 108 80 61 
197 561 401 60 132 178 
188 47 307 115 87 64 
160 692 111 77 105 132 
124 609 312 116 137 163 
235 470 383 95 120 145 
272 435 286 69 103 138 
144 495 319 84 98 121 
120 661 277 190 135 128 
163 767 331 158 137 116 
89 301 265 118 83 75 
194 711 202 100 112 139 
257 610 427 121 101 80 
248 727 237 112 123 136 
140 755 171 100 112 149 
190 45 307 116 86 63 
225 274 273 135 127 129 
227 399 388 176 85 10 
132 739 286 23 69 110 
184 952 276 90 73 60 
229 272 265 85 97 116 
107 421 246 130 130 136 
131 629 226 91 92 95 
160 354 332 104 107 116 
132 362 316 128 93 81 
132 727 136 138 161 196 
154 479 199 94 114 144 
213 380 194 141 144 153 
271 917 335 152 124 94 
185 243 424 126 107 107 
189 45 308 115 87 63 
128 545 350 147 162 182 
256 597 308 157 157 166 
340 693 357 79 105 163 
110 313 330 81 110 137 
147 764 312 157 156 164 
179 292 207 138 71 2 
171 726 362 97 88 90 
210 447 401 118 126 153 
288 87 332 131 106 81 
174 532 378 104 130 169 
272 519 235 120 134 163 
240 280 317 154 65 6 
236 286 258 120 117 121 
189 718 233 83 101 122 
248 470 209 94 111 131 
247 335 247 128 131 136 
287 620 403 64 90 111 
266 128 309 116 92 65 
267 619 392 85 94 109 
210 656 201 130 151 178 
182 136 275 93 77 61 
277 49 344 119 95 78 
219 672 409 103 94 98 
196 546 211 82 88 97 
147 757 194 83 99 143 
164 146 307 82 69 57 
253 999 289 116 83 65 
243 614 417 161 114 98 
115 367 227 107 72 75 
190 52 290 119 96 75 
342 665 361 62 47 102 
190 53 291 120 97 76 
207 150 302 132 104 86 
157 279 417 140 144 154 
162 334 375 128 122 122 
166 441 350 116 122 137 
269 823 285 157 121 84 
156 137 358 96 74 54 
267 441 327 166 161 164 
254 485 211 123 136 157 
235 718 218 111 136 165 
307 776 421 190 161 133 
180 370 431 128 139 155 
94 323 262 101 87 104 
358 668 466 133 149 169 
177 451 186 59 105 146 
166 358 363 147 141 142 
226 991 332 132 106 82 
129 696 168 140 157 198 
149 145 358 91 73 60 
229 212 297 40 52 76 
280 537 321 133 147 167 
148 626 347 167 159 159 
189 834 226 214 188 168 
248 337 257 128 38 61 
307 709 312 73 72 105 
148 767 260 185 122 114 
192 702 391 119 95 82 
127 339 236 70 103 130 
244 213 356 107 82 87 
270 955 298 88 66 47 
236 372 342 129 133 141 
220 764 195 160 175 194 
200 1006 290 193 166 142 
195 744 157 147 163 184 
107 333 278 92 76 81 
