ply
format ascii 1.0
comment Created by CloudCompare v2.11.1 (Anoia)
comment Created 2/28/22 9:45 PM
obj_info Generated by CloudCompare!
element vertex 2014
property float x
property float y
property float z
property uchar red
property uchar green
property uchar blue
end_header
288 955 350 108 91 79 
273 362 291 117 57 71 
125 472 215 158 31 51 
163 528 356 104 120 150 
267 544 379 133 145 164 
253 668 235 67 99 150 
163 568 370 61 86 133 
295 815 364 181 128 94 
273 605 266 182 177 182 
187 742 238 102 117 134 
206 75 296 126 99 82 
184 602 386 132 146 167 
264 976 283 88 69 49 
180 158 269 103 88 71 
156 201 266 113 37 23 
227 155 271 75 65 56 
266 659 314 86 93 109 
209 783 389 160 115 87 
161 497 372 119 131 149 
173 500 344 70 89 133 
204 712 390 129 35 45 
204 79 296 119 96 76 
157 361 299 145 91 106 
189 757 394 149 128 107 
218 669 148 102 114 127 
265 86 332 106 87 66 
224 393 390 155 135 115 
139 285 246 100 55 74 
220 984 368 157 123 105 
192 67 305 111 87 66 
199 692 125 118 131 152 
192 369 342 96 93 95 
136 322 214 73 104 129 
217 730 117 81 120 187 
277 188 347 152 62 1 
224 808 178 223 52 57 
283 941 313 64 51 40 
254 768 182 157 164 177 
187 807 306 185 139 114 
144 603 299 122 101 115 
125 576 284 125 151 180 
152 398 239 159 135 109 
279 376 309 102 118 136 
168 347 313 85 102 120 
213 702 167 68 56 70 
166 720 374 105 98 104 
207 687 116 64 98 126 
159 184 415 75 97 118 
250 568 394 119 128 144 
289 558 329 109 125 149 
260 536 210 100 123 178 
155 626 241 76 79 87 
158 304 301 93 108 125 
170 790 290 189 160 141 
196 977 304 96 77 61 
194 70 305 114 91 68 
163 317 306 122 16 43 
181 666 397 61 79 103 
240 752 134 171 182 210 
249 657 146 150 149 155 
269 349 303 116 30 49 
277 292 309 115 130 148 
215 797 375 191 140 113 
196 65 305 111 87 66 
246 298 275 127 124 127 
149 242 256 54 33 54 
272 601 335 172 171 178 
134 340 277 74 80 90 
272 711 209 137 144 157 
224 926 379 203 154 132 
198 64 304 113 89 67 
252 299 236 133 137 147 
191 379 346 61 72 90 
198 67 304 111 88 66 
252 969 364 126 97 83 
210 286 198 107 46 58 
190 526 396 110 125 158 
153 525 332 95 106 123 
226 361 185 136 142 155 
155 390 246 98 109 123 
281 425 351 87 114 144 
255 643 251 161 164 174 
189 238 310 83 13 47 
294 527 329 115 131 156 
221 152 321 73 61 48 
208 766 404 193 157 118 
191 391 195 133 93 62 
265 534 381 97 116 144 
186 642 208 166 105 92 
149 188 408 78 106 130 
192 389 320 34 74 112 
258 662 227 53 97 159 
130 379 233 115 117 125 
255 368 220 139 137 142 
274 444 366 125 134 148 
164 316 213 61 49 64 
284 974 319 130 104 78 
121 373 283 138 135 140 
224 539 196 97 122 201 
227 762 139 216 195 231 
190 918 360 182 135 113 
120 443 218 200 164 124 
194 793 192 155 166 184 
289 74 302 136 110 83 
135 541 281 87 97 117 
304 931 327 119 94 79 
141 748 295 171 121 94 
221 675 207 79 94 133 
262 362 238 146 145 150 
215 697 170 67 60 48 
181 694 251 118 122 132 
151 506 206 98 109 129 
191 970 306 91 74 65 
279 581 259 103 116 132 
214 666 182 118 83 71 
226 267 201 55 85 109 
283 387 325 111 121 138 
264 62 335 93 74 53 
257 722 483 148 166 190 
202 768 399 192 175 165 
148 606 281 99 108 126 
144 697 272 134 147 164 
259 636 186 144 155 172 
144 356 193 70 93 115 
197 654 392 83 58 62 
213 998 356 88 73 61 
196 443 411 149 134 118 
163 504 365 110 126 150 
225 635 291 107 117 140 
215 191 408 69 56 69 
226 618 371 115 120 133 
268 1001 274 135 103 75 
296 769 367 72 66 62 
194 82 302 116 90 68 
227 618 161 118 126 139 
202 614 421 103 92 83 
226 526 187 145 162 203 
259 638 412 50 68 87 
216 652 213 69 93 144 
155 244 304 123 121 123 
139 333 210 92 102 115 
196 579 392 74 96 139 
198 285 341 93 74 76 
271 303 309 102 118 138 
293 787 408 175 154 137 
141 179 325 87 30 35 
191 347 351 109 74 62 
193 87 302 112 89 65 
311 684 348 145 147 156 
271 470 221 124 129 141 
265 971 282 127 107 87 
255 318 286 123 124 131 
215 812 357 194 140 118 
194 87 301 112 88 64 
195 86 301 111 88 63 
198 359 197 132 131 135 
227 870 297 150 109 85 
287 731 261 127 141 157 
146 160 308 140 60 0 
278 730 230 133 151 171 
243 701 488 104 127 195 
274 722 503 175 194 220 
140 192 365 67 34 35 
171 385 357 114 62 84 
157 407 202 92 81 84 
205 761 152 50 84 176 
191 205 418 136 84 80 
187 342 202 74 110 139 
286 802 411 121 108 101 
211 452 395 98 116 145 
193 661 146 46 85 113 
185 413 345 79 89 113 
286 459 271 93 112 132 
130 266 298 108 69 74 
274 905 314 90 67 52 
253 904 275 92 67 48 
295 633 422 118 122 130 
287 518 348 71 100 145 
182 693 251 112 118 130 
186 948 309 95 76 62 
191 278 211 87 71 78 
296 787 349 162 146 136 
150 757 310 159 123 98 
300 751 361 89 59 63 
148 206 305 57 33 43 
257 618 188 128 147 169 
302 750 384 49 55 94 
290 740 273 125 136 156 
243 776 161 108 135 193 
300 687 511 112 125 180 
200 681 420 57 75 126 
174 749 388 162 137 117 
144 627 300 89 104 121 
308 730 372 162 112 123 
199 86 300 106 85 61 
224 229 380 29 69 111 
309 725 361 136 127 148 
138 426 203 75 109 141 
136 222 315 125 35 28 
282 831 378 208 146 112 
255 320 288 123 124 129 
145 644 251 100 69 64 
260 70 324 89 70 50 
277 691 249 68 69 73 
283 567 266 84 116 159 
230 637 148 93 115 136 
214 663 199 99 107 127 
260 697 508 110 130 182 
295 787 343 161 151 147 
249 395 375 100 81 61 
135 169 402 159 77 32 
132 357 280 97 101 109 
276 292 358 139 137 142 
294 705 279 126 140 159 
149 626 252 47 53 59 
284 791 435 202 158 114 
167 403 199 112 128 149 
178 694 252 80 96 118 
273 224 352 74 109 136 
292 35 333 93 76 63 
135 235 302 99 42 36 
240 294 207 123 52 6 
159 264 282 76 32 42 
248 463 390 77 108 144 
270 576 238 82 107 139 
131 433 261 124 68 19 
315 707 405 81 136 179 
243 581 190 96 111 127 
299 763 426 135 120 113 
211 653 207 91 116 147 
144 269 205 100 89 78 
145 730 264 109 123 138 
261 324 303 95 110 126 
128 504 306 86 105 124 
132 343 276 94 90 91 
195 95 302 109 87 64 
263 991 269 149 115 78 
266 367 362 168 164 169 
313 703 352 114 138 164 
196 908 369 183 132 115 
132 369 271 64 82 99 
152 751 323 127 92 88 
209 732 403 122 109 103 
246 931 261 78 61 49 
157 149 350 108 72 59 
221 550 404 113 127 147 
286 167 301 109 97 87 
183 337 354 104 89 90 
143 304 281 104 72 54 
260 156 333 73 60 45 
196 219 318 98 34 53 
230 229 380 44 49 71 
266 73 336 115 96 77 
254 322 232 92 80 83 
253 874 280 135 110 88 
208 372 184 147 130 114 
241 723 437 125 52 71 
137 313 215 136 100 62 
161 254 403 111 96 117 
257 910 351 155 117 86 
186 804 230 120 79 71 
197 93 302 110 87 61 
252 485 198 120 127 140 
174 189 352 100 53 55 
215 418 393 157 67 6 
270 604 320 152 157 169 
221 790 386 185 131 102 
251 490 196 83 102 128 
198 92 301 108 87 63 
301 755 422 76 96 129 
200 149 402 126 58 0 
279 811 413 193 129 96 
296 526 317 89 111 145 
199 757 174 70 90 136 
274 98 335 111 91 70 
301 726 312 173 50 64 
221 292 194 147 142 143 
244 687 447 130 154 181 
203 84 295 112 88 62 
203 288 318 59 82 101 
282 14 330 131 114 99 
201 171 409 91 69 54 
294 633 403 48 63 77 
269 986 331 101 86 72 
234 574 402 111 123 140 
132 162 373 145 78 57 
218 668 208 74 93 139 
145 758 290 139 88 71 
269 333 319 75 109 137 
168 781 269 154 121 91 
207 81 293 121 96 74 
148 610 280 122 130 143 
206 593 199 102 114 130 
254 573 389 128 135 152 
195 651 393 134 98 87 
271 103 308 121 89 56 
281 983 315 123 98 79 
138 421 202 97 119 141 
294 502 276 132 141 155 
253 692 199 77 103 128 
166 536 330 143 138 139 
199 317 199 86 118 145 
266 116 331 70 60 50 
227 665 151 109 119 131 
316 702 389 46 90 164 
223 787 405 133 118 106 
205 85 294 113 88 60 
162 180 314 106 58 46 
206 830 201 229 171 133 
167 334 311 101 97 107 
137 386 268 74 88 104 
205 87 294 111 87 59 
165 766 256 137 54 73 
168 755 373 167 144 123 
207 84 293 115 90 66 
286 648 465 40 91 126 
262 354 240 143 143 147 
302 752 387 61 58 86 
145 755 294 151 86 82 
227 978 372 194 140 115 
211 671 125 84 100 117 
322 55 307 131 116 104 
161 675 263 108 102 122 
282 479 352 165 164 171 
216 786 161 129 151 215 
159 179 271 184 71 0 
126 533 232 148 129 104 
186 324 354 69 82 102 
161 347 309 124 28 48 
235 369 386 139 5 52 
256 649 451 57 66 78 
278 147 307 112 89 63 
192 142 393 104 94 86 
201 271 411 75 120 156 
250 328 376 91 115 139 
259 688 225 61 90 115 
264 10 338 113 103 97 
286 487 250 81 106 130 
256 581 202 88 104 120 
137 319 280 92 66 62 
202 80 297 119 96 76 
173 411 388 147 128 111 
184 343 354 123 117 116 
309 725 369 168 181 201 
156 625 239 72 78 89 
293 701 278 106 126 148 
265 376 240 108 123 142 
185 445 341 81 95 117 
241 568 198 83 100 117 
143 543 239 111 101 92 
238 614 163 80 103 123 
144 617 279 41 34 41 
249 682 149 68 113 148 
254 959 366 110 87 70 
208 889 323 111 86 57 
247 233 371 89 49 69 
220 654 199 110 118 135 
281 849 340 190 132 99 
161 288 267 73 49 65 
175 266 367 139 61 2 
246 701 121 86 118 145 
159 751 345 116 100 87 
315 693 446 132 153 179 
271 580 369 127 135 149 
308 695 482 86 108 183 
224 644 413 73 91 114 
211 833 319 178 117 99 
272 597 361 143 151 164 
203 678 172 143 92 75 
280 678 286 111 108 109 
220 787 394 177 126 97 
294 666 338 120 125 134 
270 983 333 93 77 64 
159 179 285 139 60 2 
278 110 335 115 94 73 
294 194 339 138 56 6 
137 315 215 139 107 74 
178 498 399 104 128 178 
223 615 385 102 111 124 
221 863 303 162 121 91 
247 514 396 108 116 147 
164 566 205 115 127 162 
221 265 382 128 123 126 
274 12 348 113 101 92 
301 751 440 169 137 101 
286 417 329 84 111 142 
298 227 314 46 46 53 
208 987 298 101 74 57 
281 849 328 191 142 107 
161 157 315 80 67 72 
136 356 213 145 104 74 
168 500 380 84 99 150 
205 91 295 105 81 59 
206 88 293 109 85 58 
146 577 230 173 174 184 
206 997 340 99 84 74 
200 753 181 137 145 158 
199 767 212 96 107 121 
148 581 229 141 156 181 
206 88 294 110 86 59 
259 331 239 79 113 143 
254 159 328 81 68 53 
270 548 230 142 150 165 
207 90 292 109 87 64 
209 433 394 113 97 81 
305 736 427 77 75 133 
172 694 387 139 109 77 
220 524 187 105 132 177 
154 639 347 61 94 117 
149 426 253 123 99 68 
140 703 294 106 129 152 
156 210 411 141 62 77 
253 732 145 155 154 161 
279 864 317 182 133 104 
150 643 242 125 68 69 
199 148 316 73 59 45 
282 427 343 104 129 157 
231 910 285 71 58 48 
160 699 362 149 113 105 
259 659 486 114 93 72 
207 94 293 106 81 59 
250 440 199 64 104 136 
259 835 246 200 167 133 
273 600 315 159 160 172 
214 758 412 121 118 120 
213 732 405 108 71 61 
269 74 309 128 100 73 
240 208 380 135 49 56 
224 816 186 187 15 42 
263 57 315 108 83 57 
218 680 454 77 107 146 
188 191 324 99 68 74 
293 740 290 95 62 98 
201 910 377 167 123 104 
270 340 312 123 121 123 
256 394 373 142 130 126 
223 994 290 102 78 46 
182 378 200 103 120 140 
295 714 280 113 138 165 
142 514 213 192 69 13 
202 89 297 102 81 56 
189 951 298 112 93 77 
185 268 361 111 109 114 
228 886 372 156 119 89 
143 532 281 65 77 100 
189 934 313 85 65 50 
130 454 231 143 118 92 
207 346 407 185 157 128 
214 906 303 105 84 58 
150 707 328 194 97 13 
163 759 253 160 14 38 
204 263 408 82 120 152 
260 730 166 80 122 158 
160 328 262 77 89 104 
199 882 360 149 118 90 
265 355 344 68 98 125 
232 708 204 93 99 111 
153 294 191 101 55 59 
139 746 287 175 61 69 
132 277 300 124 125 132 
287 476 342 98 112 149 
253 283 252 136 135 139 
218 695 206 76 86 111 
209 632 441 149 112 92 
160 745 251 151 160 172 
133 189 379 109 36 43 
119 486 230 188 159 126 
202 93 298 104 84 60 
294 520 269 169 169 177 
181 737 243 103 116 130 
186 917 335 143 106 79 
189 648 183 140 98 71 
154 487 301 58 72 87 
129 416 270 57 63 80 
150 640 240 187 126 125 
205 725 157 151 148 153 
186 299 209 127 32 26 
163 537 329 136 133 135 
211 682 208 79 90 118 
260 881 332 171 123 92 
163 161 324 93 89 89 
126 372 273 70 66 71 
132 336 234 84 55 68 
168 579 384 74 125 167 
264 121 329 69 56 43 
270 745 206 159 119 134 
280 914 303 70 57 47 
252 692 194 103 122 142 
167 186 266 126 66 40 
232 412 378 103 88 74 
183 297 312 75 95 116 
308 696 326 59 66 77 
240 635 433 72 74 79 
252 681 164 106 113 139 
215 611 368 136 133 137 
188 970 353 197 149 128 
291 549 330 168 167 174 
136 466 254 127 49 6 
317 698 374 127 138 164 
231 923 275 59 48 41 
224 807 373 194 141 116 
214 1000 332 111 85 71 
268 655 332 50 56 64 
256 13 309 158 132 116 
137 702 323 88 103 119 
157 338 299 140 57 97 
190 979 341 155 119 102 
248 917 262 79 62 45 
192 486 182 92 128 163 
220 635 152 122 129 140 
245 335 380 131 142 157 
155 649 240 180 118 110 
168 523 349 83 102 130 
186 241 416 139 108 105 
208 69 295 119 95 76 
237 634 456 102 87 73 
258 390 368 107 118 132 
195 240 327 76 11 27 
256 375 221 138 138 143 
250 534 198 186 182 189 
189 676 153 99 110 160 
149 410 296 63 83 122 
270 364 325 108 88 66 
126 461 231 168 141 113 
288 296 328 169 73 5 
210 68 294 117 95 75 
188 585 207 166 168 178 
141 670 279 70 70 72 
260 767 458 142 139 142 
206 818 190 154 149 170 
139 199 262 136 61 0 
211 71 292 120 96 79 
192 696 228 79 100 127 
200 245 325 82 62 53 
182 461 336 100 107 121 
243 539 194 107 134 184 
307 691 493 106 133 186 
193 359 199 149 145 148 
275 55 342 121 99 79 
307 650 397 20 68 98 
214 964 379 201 158 135 
236 697 104 81 114 144 
257 746 464 122 37 54 
280 51 345 126 95 81 
232 637 421 79 80 87 
194 942 364 71 59 53 
208 837 286 182 130 111 
228 638 458 116 94 72 
163 270 299 51 70 91 
191 940 361 104 94 94 
167 541 386 109 133 159 
255 640 436 70 86 103 
227 670 404 109 135 160 
281 578 349 113 131 151 
279 736 233 129 144 163 
151 670 266 108 94 104 
264 611 323 127 138 165 
278 450 356 77 101 148 
228 683 443 57 94 153 
297 770 414 75 63 62 
170 548 389 105 132 179 
190 818 218 168 131 123 
278 462 357 74 106 149 
267 791 443 152 116 93 
279 957 297 95 72 58 
188 781 367 169 137 118 
151 277 285 89 33 40 
214 578 204 59 88 112 
166 565 384 110 143 177 
154 287 218 69 48 71 
181 447 407 92 115 143 
268 914 276 114 93 73 
256 290 368 78 116 145 
214 69 290 115 91 72 
308 662 375 63 95 123 
176 138 331 104 86 73 
310 47 315 120 107 98 
226 676 396 106 132 157 
211 597 190 66 90 111 
194 459 399 122 128 144 
238 306 201 108 112 119 
278 64 341 129 106 84 
183 326 315 113 92 80 
250 243 367 93 83 102 
144 179 406 55 83 112 
174 701 384 116 85 52 
139 335 276 88 89 93 
121 349 226 68 110 142 
230 184 388 86 66 82 
208 66 296 111 90 71 
149 606 336 118 136 159 
196 417 413 133 109 78 
166 148 326 118 73 46 
167 426 308 72 94 136 
138 587 260 126 139 172 
167 483 317 101 107 120 
297 640 444 133 134 140 
131 428 230 141 119 96 
139 729 278 69 109 140 
207 840 242 149 124 106 
188 977 331 125 98 79 
166 542 333 78 101 124 
172 434 353 52 76 118 
141 490 249 135 55 1 
234 794 415 173 155 140 
244 791 180 161 58 94 
187 284 313 78 95 113 
274 837 281 169 127 92 
186 745 234 107 126 146 
155 332 272 102 100 102 
192 460 409 63 98 165 
252 710 139 80 124 159 
222 624 399 111 90 74 
257 238 361 115 70 75 
168 776 324 192 174 163 
141 152 400 113 102 94 
210 74 293 124 99 81 
177 409 409 146 127 118 
158 368 253 98 94 91 
252 904 360 166 124 96 
185 261 417 77 117 149 
287 456 336 69 101 144 
217 258 204 107 97 91 
228 159 395 135 118 106 
155 637 232 151 96 92 
258 412 369 123 133 148 
197 774 388 134 136 144 
145 150 359 133 69 0 
187 393 338 70 98 127 
174 785 254 122 141 174 
245 239 373 51 83 111 
254 599 189 139 137 140 
196 589 208 41 72 104 
243 448 193 82 115 144 
195 658 392 78 76 90 
251 962 279 90 66 38 
294 933 342 150 124 99 
138 506 296 76 89 104 
208 77 294 122 96 77 
132 404 216 134 131 135 
257 525 202 151 156 168 
209 78 292 121 98 77 
226 693 462 129 145 187 
219 697 395 97 131 161 
141 304 197 56 84 110 
207 794 173 186 193 207 
210 78 292 121 97 76 
221 397 182 144 60 83 
208 668 214 105 108 117 
282 784 444 180 155 134 
204 186 411 92 90 101 
244 179 365 88 104 121 
271 681 261 117 128 142 
284 400 328 99 122 147 
177 427 194 157 117 72 
181 641 394 160 108 100 
315 706 416 145 158 183 
246 269 254 113 110 111 
191 820 241 159 133 103 
303 704 307 113 130 150 
216 847 316 155 104 88 
247 247 294 74 39 51 
201 382 190 124 48 54 
140 549 285 74 103 132 
252 300 293 81 88 98 
239 708 423 127 64 86 
261 435 215 52 91 121 
199 194 413 108 40 63 
236 262 377 111 34 64 
194 470 405 69 101 160 
305 645 445 60 85 108 
267 99 331 83 68 54 
268 687 244 83 107 129 
200 783 375 189 139 110 
190 203 329 69 69 75 
225 746 125 223 206 212 
137 299 298 70 85 100 
202 721 214 115 119 128 
278 261 355 151 136 131 
211 731 210 89 100 115 
211 262 403 83 105 125 
281 867 323 157 109 78 
250 831 224 149 123 103 
284 418 339 61 108 144 
163 639 372 147 106 110 
267 872 294 182 137 106 
279 519 227 106 122 140 
142 537 218 178 159 149 
156 395 304 71 97 132 
296 29 325 103 92 81 
142 685 312 128 146 167 
263 911 275 92 68 49 
222 787 405 154 139 127 
175 489 326 94 107 125 
248 614 377 98 113 134 
295 776 403 196 158 115 
198 899 371 100 66 59 
253 578 201 96 114 134 
236 773 429 176 149 128 
167 769 256 163 121 118 
303 718 482 156 169 186 
210 830 200 235 185 86 
122 491 218 195 163 128 
305 727 336 188 67 63 
216 70 288 121 93 74 
187 360 316 108 55 81 
106 261 222 118 103 87 
221 884 375 170 129 103 
288 125 306 116 91 62 
247 941 266 74 56 38 
209 81 291 118 97 74 
137 505 297 78 94 111 
292 819 332 157 116 84 
139 490 251 140 59 1 
187 579 389 79 96 120 
278 393 337 119 127 139 
98 293 240 149 39 80 
227 782 416 170 156 146 
248 923 261 64 49 37 
200 574 205 74 82 99 
253 930 365 171 124 98 
197 561 197 108 125 163 
170 747 384 102 96 100 
171 791 285 146 118 92 
235 841 223 195 185 184 
151 557 344 64 95 131 
144 512 244 154 61 7 
145 671 325 142 153 169 
207 281 320 83 82 85 
130 285 244 60 92 117 
248 167 359 143 69 6 
278 471 356 114 130 151 
208 82 292 119 95 72 
143 677 339 99 97 131 
276 405 341 69 89 110 
202 834 243 153 124 97 
261 629 263 79 140 184 
154 277 295 108 105 108 
277 523 368 134 139 158 
229 406 381 133 91 81 
252 615 369 150 146 151 
297 243 337 156 61 83 
252 308 231 140 141 148 
209 86 290 113 91 66 
149 527 334 95 110 129 
257 672 203 104 141 175 
193 260 336 134 132 137 
256 662 492 115 94 71 
191 550 391 101 107 120 
213 755 411 171 160 155 
149 647 327 71 121 159 
238 660 188 116 129 151 
185 452 410 64 95 155 
264 249 297 76 33 23 
196 770 391 175 160 149 
240 157 332 88 77 67 
125 535 287 61 84 107 
244 210 295 90 40 54 
294 758 330 144 129 119 
211 87 288 114 91 66 
264 670 284 47 92 128 
149 262 230 138 53 29 
250 716 452 118 140 164 
208 85 292 113 91 67 
197 235 327 78 29 32 
182 473 345 81 93 114 
153 279 196 122 78 73 
270 323 358 100 118 141 
267 796 438 229 209 198 
209 713 394 47 51 95 
266 368 338 145 140 142 
175 773 242 153 70 54 
242 169 365 149 73 2 
287 298 328 171 71 4 
249 259 369 127 97 92 
240 619 161 88 108 127 
230 785 161 169 171 212 
210 147 349 126 95 71 
248 883 341 146 104 75 
283 162 301 99 84 67 
208 88 291 111 88 64 
208 89 291 110 87 63 
272 602 319 193 181 177 
187 917 334 144 108 81 
268 593 369 86 103 129 
123 441 269 120 103 82 
138 194 264 144 71 16 
220 235 392 125 38 48 
203 608 195 56 77 96 
149 394 284 79 95 127 
171 325 380 80 114 140 
247 641 441 64 74 84 
220 224 386 66 60 98 
180 791 323 137 112 98 
229 1011 276 170 140 113 
211 632 169 119 127 139 
248 502 194 90 112 137 
151 650 331 73 123 161 
180 617 217 60 95 123 
173 502 326 110 117 132 
153 441 240 123 21 58 
212 502 183 70 107 155 
285 751 268 169 95 71 
179 532 192 67 95 159 
202 384 188 128 32 43 
208 88 292 110 87 64 
244 715 437 106 101 126 
298 737 314 160 60 78 
227 668 175 116 120 131 
261 976 353 103 85 68 
289 762 308 122 109 102 
189 904 353 155 114 87 
168 499 381 88 105 153 
251 195 359 72 103 129 
154 360 198 114 99 98 
229 249 377 105 37 58 
172 172 276 105 82 67 
202 577 397 102 122 152 
247 691 176 152 158 170 
181 338 414 115 119 133 
187 235 309 64 44 53 
284 401 333 86 115 142 
178 286 308 70 90 113 
284 481 246 82 107 134 
218 317 189 148 144 145 
225 672 457 106 129 154 
253 700 169 128 134 145 
251 510 393 125 135 151 
168 293 384 154 152 157 
226 606 373 127 133 147 
190 619 413 140 110 92 
204 887 332 106 81 51 
191 980 320 107 85 71 
139 216 256 2 91 145 
193 892 351 150 116 86 
255 663 166 157 162 176 
208 94 292 108 84 61 
257 632 372 47 63 80 
271 162 342 91 75 59 
184 774 370 124 131 143 
250 739 140 191 192 203 
215 818 350 192 134 115 
256 657 226 98 126 153 
316 703 403 85 103 167 
148 589 302 87 123 154 
312 709 437 130 142 180 
296 63 304 112 92 68 
231 1002 351 88 69 59 
255 433 205 77 113 144 
279 702 239 96 70 73 
226 924 379 205 157 135 
134 496 257 134 115 96 
152 358 243 127 130 140 
298 229 316 81 34 59 
279 890 321 113 85 62 
204 244 412 108 77 96 
235 653 220 118 128 151 
281 980 323 111 87 63 
195 389 412 202 171 141 
158 348 262 67 87 103 
293 706 508 108 132 197 
263 551 223 145 151 165 
287 572 293 115 129 163 
192 928 316 112 82 59 
201 893 328 117 90 53 
244 406 380 133 111 100 
225 605 170 131 137 146 
210 762 147 155 175 208 
259 774 199 161 51 50 
156 325 198 106 40 31 
161 207 256 75 67 82 
224 468 397 62 88 139 
235 873 284 175 127 93 
199 316 316 106 108 115 
252 247 296 82 42 60 
288 570 308 135 151 173 
289 557 333 120 131 154 
259 724 162 146 153 166 
210 749 196 86 94 105 
161 752 350 140 121 104 
269 223 352 120 115 116 
298 29 337 128 115 106 
182 600 385 124 137 156 
232 871 339 153 108 82 
206 544 191 182 181 192 
230 722 196 100 106 116 
116 411 232 114 27 52 
163 777 275 134 104 95 
238 815 192 199 171 128 
170 352 386 113 126 143 
217 682 389 97 129 158 
307 733 395 185 40 62 
203 661 411 38 71 112 
285 406 324 69 100 139 
193 97 264 130 98 70 
294 242 309 134 49 55 
251 953 273 69 52 32 
147 205 368 72 47 74 
208 916 382 131 93 76 
193 98 264 129 99 72 
288 750 477 87 86 148 
246 547 205 116 136 165 
192 100 265 130 99 70 
216 144 374 131 69 18 
279 850 318 176 133 99 
179 286 411 140 141 150 
232 219 381 54 40 44 
139 497 325 78 103 137 
127 459 276 110 106 107 
193 644 221 136 101 104 
267 371 327 99 94 94 
295 522 271 183 178 181 
229 791 405 152 109 82 
286 53 344 136 110 91 
280 864 329 168 124 93 
283 392 317 97 115 134 
195 103 264 127 98 69 
274 635 435 66 87 107 
274 419 253 82 112 140 
250 670 143 83 122 152 
191 355 341 114 87 52 
160 569 352 74 92 136 
259 34 330 96 69 51 
115 298 243 97 66 78 
234 1018 277 200 167 141 
256 749 168 108 116 150 
276 792 271 142 126 113 
192 107 265 126 101 70 
248 870 338 162 114 86 
276 994 302 107 82 60 
192 107 266 128 102 71 
186 302 357 81 98 118 
213 693 208 81 86 105 
184 177 413 125 85 72 
180 169 270 120 97 69 
194 106 264 124 97 65 
232 255 265 33 58 84 
194 107 265 125 99 69 
256 783 200 148 159 173 
253 728 462 102 124 144 
243 819 399 189 141 114 
256 362 224 88 64 65 
221 691 180 126 126 138 
222 772 149 222 214 231 
234 738 426 153 120 124 
252 976 362 131 101 87 
288 433 325 70 101 144 
143 198 317 44 41 35 
296 783 366 171 152 137 
152 653 350 88 106 124 
256 401 214 104 114 126 
177 304 363 97 116 137 
254 674 186 182 181 189 
149 215 261 41 62 92 
229 453 184 76 108 140 
255 768 453 152 107 93 
192 812 311 192 138 118 
222 552 202 85 98 116 
305 677 340 108 115 127 
253 761 169 149 148 156 
145 698 272 108 132 156 
168 395 317 60 83 117 
247 711 114 82 132 170 
177 272 365 128 115 107 
273 669 292 75 109 146 
296 721 286 140 155 175 
279 316 325 109 117 129 
174 737 246 116 127 142 
264 804 237 111 101 95 
198 104 264 124 97 70 
263 119 327 66 55 42 
174 477 315 93 106 125 
194 915 309 171 126 106 
185 316 356 74 102 127 
264 842 359 192 141 112 
177 695 253 84 98 119 
301 754 410 122 106 92 
285 748 480 88 67 96 
198 422 411 144 122 100 
150 196 308 66 39 41 
253 878 284 133 108 86 
179 415 410 126 108 91 
220 929 378 183 136 119 
199 538 190 86 114 183 
201 370 190 119 127 139 
285 567 273 86 112 155 
154 629 238 104 93 84 
293 528 263 112 129 152 
145 361 274 131 105 80 
191 234 359 102 23 60 
322 78 308 151 105 65 
192 621 416 156 114 101 
202 596 395 82 117 152 
225 146 368 133 80 45 
176 450 189 145 103 52 
168 413 364 88 112 140 
192 142 264 112 92 71 
128 229 257 104 91 82 
212 659 428 77 114 160 
278 794 279 143 122 101 
282 670 309 117 119 125 
175 487 330 93 108 128 
260 56 320 91 71 48 
277 471 233 66 91 115 
257 833 380 191 139 112 
188 816 240 110 94 96 
156 479 200 140 144 156 
257 651 315 53 64 76 
251 963 367 123 96 77 
191 225 304 91 58 62 
148 761 276 153 75 94 
163 183 414 72 85 101 
280 668 311 114 117 124 
151 271 208 113 73 59 
147 218 303 61 39 42 
221 277 383 140 138 141 
276 986 323 125 100 76 
160 702 260 94 113 134 
283 256 301 118 31 47 
126 320 296 80 118 149 
228 849 252 199 176 162 
231 522 187 78 116 162 
160 299 257 88 46 64 
210 734 180 110 115 127 
237 186 383 96 72 90 
287 640 379 68 104 133 
279 484 234 119 130 145 
130 500 271 107 121 150 
272 124 335 90 75 59 
299 748 461 95 66 107 
250 690 194 129 137 151 
191 346 416 165 156 152 
265 332 360 75 120 158 
129 546 236 158 0 55 
272 604 296 148 157 173 
154 545 339 72 91 121 
218 879 305 141 102 71 
213 650 146 83 101 126 
203 102 264 122 96 68 
172 602 220 68 98 159 
239 645 470 111 92 71 
207 377 406 161 70 58 
310 99 316 148 115 95 
204 98 264 137 108 77 
193 514 186 146 158 185 
237 853 336 167 121 98 
205 99 264 136 107 74 
203 454 396 70 82 114 
184 806 295 154 146 143 
205 765 209 99 102 108 
204 970 374 198 150 131 
288 222 300 106 39 37 
195 677 236 47 76 104 
277 494 229 137 140 149 
143 687 291 131 144 162 
205 100 265 131 103 69 
205 101 265 129 101 68 
253 668 273 56 65 77 
232 685 208 98 107 132 
190 418 327 82 98 119 
266 731 490 165 176 193 
246 764 442 76 65 69 
261 631 196 163 166 177 
135 288 216 152 70 10 
157 185 271 149 69 8 
135 519 218 198 83 13 
189 941 292 93 78 67 
227 871 334 131 95 68 
242 774 158 214 212 218 
180 401 412 179 69 7 
240 714 108 191 165 170 
240 775 432 182 149 114 
200 105 264 122 96 69 
268 545 229 110 123 141 
194 695 382 72 87 102 
273 718 505 129 149 195 
268 402 241 102 119 140 
222 677 139 125 127 131 
178 149 312 116 80 60 
255 903 345 147 107 78 
202 104 265 116 92 63 
173 780 250 109 104 107 
203 104 265 117 93 65 
136 304 216 128 62 56 
153 540 207 87 107 149 
318 682 400 65 77 97 
160 172 274 157 96 49 
289 461 282 133 138 150 
201 638 161 87 104 130 
149 282 294 124 122 127 
121 276 218 139 55 2 
283 966 313 102 79 59 
255 260 364 125 80 77 
175 536 194 111 128 166 
277 997 296 145 120 96 
212 846 230 201 173 150 
201 111 264 119 95 67 
203 402 402 194 156 111 
134 513 317 114 137 173 
169 715 251 118 133 151 
229 147 387 139 60 3 
203 109 264 118 95 68 
228 324 191 103 63 56 
215 791 380 188 137 109 
203 110 264 117 93 67 
224 1020 303 152 130 111 
144 662 345 102 83 75 
194 917 306 147 94 77 
212 874 319 164 124 97 
148 264 209 113 80 54 
278 689 255 74 93 111 
204 107 265 113 90 62 
143 533 216 159 134 111 
205 107 265 115 91 63 
214 827 336 176 120 103 
160 675 363 138 99 89 
188 766 219 88 111 133 
141 216 308 74 42 28 
188 770 234 15 56 79 
260 600 377 171 165 166 
137 152 321 119 61 3 
265 725 182 82 131 168 
282 301 336 144 93 43 
228 987 272 99 71 37 
149 390 276 124 126 133 
310 663 380 74 103 131 
294 237 309 121 38 53 
205 109 265 113 90 63 
174 591 213 127 140 177 
196 283 418 96 70 73 
293 651 369 106 119 134 
269 871 297 181 136 104 
230 683 190 87 105 136 
199 813 334 190 136 114 
176 746 390 31 26 44 
164 523 325 99 106 119 
110 340 228 72 82 99 
146 665 353 69 53 74 
224 662 170 109 111 121 
157 165 410 136 68 14 
152 156 300 127 64 2 
187 761 234 110 112 114 
152 235 259 47 35 44 
292 224 303 105 48 38 
239 910 374 163 118 89 
104 265 231 113 60 24 
178 665 388 51 68 94 
275 596 352 128 131 155 
198 682 428 133 155 193 
211 967 377 196 153 131 
240 1000 346 129 108 92 
193 254 327 122 120 125 
192 654 231 73 45 90 
154 318 192 126 59 48 
229 533 193 65 111 193 
294 485 296 91 118 144 
141 585 253 63 89 146 
215 970 279 140 111 82 
164 536 354 123 133 148 
135 546 227 139 111 96 
153 695 267 144 152 167 
228 991 271 102 74 41 
303 693 502 185 189 200 
290 486 269 146 149 159 
154 433 244 103 97 97 
314 664 411 95 105 129 
124 445 232 159 135 110 
307 646 426 89 111 133 
154 187 308 99 43 46 
221 906 299 90 71 50 
205 930 380 179 131 118 
303 738 348 110 53 109 
306 730 440 155 29 51 
265 133 314 99 80 60 
166 562 203 116 135 178 
194 115 266 121 96 67 
211 349 402 193 164 135 
204 275 204 93 89 93 
262 849 349 191 138 108 
252 705 147 80 103 123 
193 116 266 120 97 70 
222 420 182 154 105 108 
223 424 383 118 102 87 
198 145 341 106 82 64 
214 306 193 141 137 138 
186 378 349 60 64 88 
193 118 266 119 97 72 
269 771 458 150 124 111 
315 697 360 167 167 176 
206 914 381 137 88 78 
223 951 272 63 52 44 
255 950 271 61 49 38 
209 270 205 88 90 95 
253 646 454 92 82 73 
221 668 168 120 114 122 
219 830 200 220 115 128 
194 116 266 120 97 69 
157 442 200 116 126 141 
110 267 248 117 89 86 
164 312 214 43 51 64 
151 612 341 117 135 157 
249 697 455 116 147 178 
211 673 437 33 66 125 
292 822 335 167 123 90 
203 705 158 101 129 165 
185 628 191 62 84 105 
179 211 334 89 73 77 
276 817 278 110 120 133 
216 814 356 193 139 118 
152 585 330 55 89 124 
220 659 136 81 104 127 
140 156 371 126 69 47 
308 707 326 126 133 146 
168 776 262 90 97 128 
196 114 264 124 98 68 
181 739 243 105 133 163 
203 142 305 73 59 44 
190 471 181 88 122 162 
177 759 384 141 122 109 
151 271 195 161 71 27 
237 761 139 118 140 202 
238 615 369 119 117 123 
191 139 297 87 76 68 
152 400 257 114 106 101 
265 299 366 140 140 145 
156 188 271 145 67 0 
142 347 272 96 89 89 
278 529 235 211 208 215 
260 325 275 116 125 139 
145 636 294 148 143 145 
138 561 257 87 109 135 
317 677 477 111 142 195 
173 598 386 85 110 158 
183 559 198 97 117 167 
288 208 344 122 101 87 
180 149 316 114 79 55 
274 695 236 121 123 128 
224 703 104 189 181 182 
166 489 193 98 120 145 
245 343 202 85 117 146 
181 145 381 106 96 88 
257 791 441 195 163 131 
252 516 197 177 170 170 
255 641 343 71 78 87 
228 925 379 204 154 132 
224 655 191 101 110 130 
288 430 296 79 105 139 
199 476 397 83 104 139 
190 691 144 66 111 169 
192 463 181 91 117 154 
257 919 269 76 62 53 
144 472 285 136 137 142 
195 120 264 117 93 63 
242 809 412 186 142 113 
220 601 176 56 105 140 
141 261 291 89 70 69 
143 237 311 91 34 55 
144 706 323 67 87 107 
244 365 199 140 138 141 
183 789 338 199 149 124 
195 122 264 116 92 64 
273 371 261 134 97 54 
155 602 355 95 119 152 
255 854 342 185 133 105 
214 986 291 89 67 51 
267 84 333 111 92 73 
167 273 382 131 108 78 
151 210 261 66 59 77 
163 450 324 63 94 125 
181 486 184 78 130 171 
166 786 290 193 175 164 
190 940 291 95 79 70 
213 547 194 131 149 189 
168 616 382 85 102 126 
206 636 421 137 95 77 
181 678 398 68 60 61 
226 631 422 94 83 74 
183 151 403 122 75 12 
234 811 186 147 163 180 
316 679 442 143 158 178 
273 48 309 122 101 78 
257 420 211 107 119 137 
140 374 209 122 57 68 
232 356 387 143 67 86 
199 427 410 150 128 114 
294 511 269 117 132 152 
279 515 227 152 153 160 
195 127 265 116 93 66 
211 882 326 131 99 71 
273 792 259 167 151 140 
283 683 278 116 118 124 
139 447 255 112 99 85 
265 862 335 197 141 109 
201 421 398 174 60 5 
253 307 371 135 133 137 
143 475 234 128 2 50 
231 685 446 54 94 156 
244 235 293 32 50 76 
282 752 478 182 52 67 
130 246 301 109 70 83 
197 152 261 113 93 70 
232 448 393 96 115 149 
243 1008 271 88 53 37 
166 451 381 110 121 137 
130 519 221 202 87 14 
221 694 178 79 92 119 
149 507 288 66 79 94 
283 679 288 117 119 126 
148 591 297 74 121 156 
260 603 198 113 133 156 
183 947 343 161 123 96 
99 297 236 154 31 68 
236 193 384 111 75 90 
204 680 385 94 119 143 
186 345 316 114 66 77 
222 280 197 109 65 71 
143 367 234 120 124 133 
205 896 320 104 80 52 
150 195 262 132 61 4 
248 270 252 123 117 117 
262 354 358 106 119 135 
225 442 183 90 112 137 
177 151 284 102 90 80 
204 992 354 86 71 62 
199 767 174 119 129 146 
213 259 402 71 107 137 
267 313 367 161 154 154 
219 799 170 183 200 222 
151 595 233 115 130 172 
217 648 444 148 103 80 
282 841 323 182 135 102 
202 117 263 112 90 64 
278 640 371 69 109 141 
217 434 386 132 115 110 
231 637 148 94 116 137 
296 763 450 63 62 95 
181 262 314 125 124 129 
182 285 312 72 93 113 
225 299 385 127 127 131 
200 115 264 116 94 69 
262 612 331 169 167 172 
176 777 346 106 86 74 
281 572 264 119 134 163 
223 728 202 76 92 119 
194 649 395 136 95 86 
286 824 323 166 125 93 
171 509 382 135 147 164 
229 702 205 93 101 114 
274 325 329 148 141 140 
271 207 352 144 88 87 
220 225 391 94 43 59 
249 286 229 128 98 73 
254 171 358 128 69 16 
286 477 258 68 97 129 
218 272 389 130 129 133 
279 399 276 115 129 146 
195 441 412 117 99 82 
230 198 388 108 44 36 
152 231 260 47 29 45 
199 838 220 187 138 86 
204 112 264 114 92 65 
275 508 366 93 111 145 
170 524 336 67 87 122 
225 562 198 117 120 129 
243 264 256 93 65 70 
241 313 204 113 120 131 
161 299 258 95 51 70 
192 161 260 116 95 71 
259 227 358 111 89 92 
140 309 207 114 82 90 
106 286 233 104 71 77 
207 674 395 77 108 135 
165 271 264 78 65 67 
206 115 264 112 92 68 
255 310 269 105 118 133 
282 427 273 98 120 143 
233 531 402 106 122 151 
156 538 322 141 149 166 
193 957 299 80 66 57 
166 284 387 79 111 142 
239 446 191 62 103 135 
230 444 186 120 130 146 
279 428 262 93 115 139 
203 362 192 115 123 135 
283 17 319 145 128 113 
164 241 311 73 104 125 
238 886 287 134 104 80 
268 686 513 98 121 144 
171 757 377 201 161 113 
168 167 320 55 73 92 
142 473 251 123 83 27 
283 578 335 112 136 162 
156 732 254 97 113 129 
271 488 370 92 112 145 
295 541 304 136 148 165 
295 931 334 153 127 102 
249 692 152 84 147 193 
247 256 242 114 85 72 
146 663 271 85 68 104 
185 375 414 197 167 135 
148 240 296 52 40 47 
241 917 268 85 61 50 
159 174 294 122 59 16 
243 740 128 74 138 180 
200 121 264 114 93 68 
253 303 264 120 126 137 
161 713 365 143 132 128 
286 455 270 120 131 147 
186 397 346 35 61 84 
272 332 329 89 115 141 
253 714 468 151 171 196 
283 107 306 132 104 75 
315 700 364 171 170 176 
259 622 308 131 147 169 
165 750 248 132 42 43 
196 446 407 133 127 128 
271 485 219 82 111 139 
257 671 210 101 129 176 
171 603 222 44 64 146 
200 124 264 113 91 66 
317 681 426 83 116 168 
257 487 391 154 151 154 
150 417 198 149 137 135 
249 435 382 85 109 136 
137 587 264 176 177 186 
189 510 185 118 135 171 
156 332 248 130 128 132 
169 410 393 142 125 112 
182 502 186 124 140 167 
326 60 325 163 147 137 
176 376 202 88 108 129 
124 320 217 131 93 92 
284 801 422 100 112 126 
144 344 190 119 66 84 
282 516 361 140 145 156 
261 946 360 97 77 58 
251 800 200 178 35 59 
205 120 264 108 88 65 
203 651 206 125 103 102 
273 640 448 102 113 126 
149 457 246 120 92 55 
205 122 264 107 87 64 
116 479 223 141 96 126 
202 629 175 104 112 123 
242 368 197 141 138 142 
156 566 333 143 145 153 
263 732 486 166 103 111 
192 352 324 93 83 78 
256 212 357 108 109 115 
207 122 264 108 88 64 
263 952 278 86 67 46 
212 518 399 124 131 156 
210 323 403 186 161 134 
287 450 334 77 105 145 
149 464 292 74 91 129 
262 150 333 76 62 47 
225 661 132 88 110 130 
233 704 177 75 92 118 
264 438 373 95 118 143 
271 511 372 100 110 149 
247 420 198 131 137 148 
249 412 200 130 132 139 
115 289 217 130 80 76 
219 1013 300 133 107 79 
211 770 406 118 110 109 
270 963 358 110 90 70 
209 97 262 140 107 71 
268 344 330 75 112 142 
147 533 279 71 78 97 
141 615 266 91 109 160 
274 70 339 126 103 81 
201 927 293 130 70 35 
287 754 284 176 133 70 
261 671 278 57 88 115 
284 925 336 97 76 61 
236 542 195 88 110 141 
210 96 262 139 106 72 
131 577 282 72 103 133 
259 852 345 189 136 106 
131 376 219 145 30 67 
275 339 349 87 128 161 
218 660 180 111 94 106 
191 388 315 40 75 107 
200 250 319 115 98 81 
247 690 169 91 99 128 
275 418 255 67 106 137 
303 679 503 143 151 165 
158 754 255 138 149 168 
297 33 323 95 83 73 
167 531 375 70 84 131 
131 165 400 154 77 5 
202 829 280 119 101 85 
225 158 284 73 63 53 
162 240 311 117 38 77 
224 791 390 185 129 103 
257 655 175 108 141 181 
263 116 319 78 62 43 
172 415 352 66 86 123 
296 773 356 139 126 119 
216 588 191 120 126 137 
163 681 365 165 103 27 
284 450 264 116 128 145 
181 158 267 103 87 72 
212 99 261 136 103 66 
287 479 340 89 116 151 
214 880 344 109 81 50 
201 402 411 178 124 66 
214 96 260 139 105 70 
115 411 232 116 57 82 
254 298 260 116 122 133 
304 115 309 150 115 87 
202 303 199 89 109 126 
188 961 311 81 66 54 
277 543 365 141 149 163 
284 483 246 74 99 131 
158 157 407 133 65 3 
277 596 321 178 170 169 
216 143 290 86 74 63 
143 475 283 97 105 135 
160 778 294 57 34 43 
168 284 303 114 113 117 
114 362 226 104 69 83 
212 102 262 131 100 62 
222 514 185 92 120 159 
140 297 192 57 68 89 
167 481 352 89 106 135 
227 502 399 84 106 146 
267 214 352 119 113 109 
272 605 292 146 158 176 
299 671 336 95 106 119 
108 374 225 82 125 159 
254 409 208 129 129 134 
166 316 212 80 46 63 
153 361 286 148 111 63 
147 744 310 133 133 147 
110 348 235 90 95 120 
291 749 294 146 26 47 
244 431 385 80 98 130 
240 952 375 179 135 104 
178 180 324 87 82 84 
144 630 295 131 133 142 
233 593 181 53 91 119 
138 322 294 91 105 122 
182 251 416 122 53 86 
190 338 328 119 120 125 
154 758 318 93 84 95 
251 829 372 185 137 108 
119 338 230 157 88 68 
209 103 264 127 98 65 
194 224 416 120 118 125 
210 102 264 130 100 64 
295 182 305 155 64 6 
211 103 264 127 99 66 
164 178 338 61 54 50 
284 437 273 92 112 134 
212 105 263 124 96 61 
293 548 307 118 135 156 
248 1020 305 108 88 69 
276 808 274 131 129 132 
204 621 181 62 76 90 
155 724 340 103 84 84 
174 332 364 89 116 140 
269 563 242 149 158 173 
214 701 167 77 70 78 
263 134 321 95 80 65 
271 11 328 138 120 104 
257 161 349 88 77 67 
109 410 228 159 159 167 
225 549 201 115 125 142 
294 204 305 29 70 110 
198 967 295 145 124 104 
213 108 263 121 94 61 
231 961 274 95 71 50 
208 751 192 122 121 126 
123 463 216 112 129 149 
219 946 268 86 71 61 
237 821 197 179 39 63 
295 790 362 145 134 128 
196 651 204 158 96 85 
211 656 423 89 119 147 
268 118 333 72 61 49 
241 188 298 111 84 79 
208 539 398 102 109 150 
159 543 321 125 139 161 
213 984 291 86 63 49 
120 478 218 157 6 57 
234 154 336 99 87 77 
272 321 324 130 126 127 
220 776 411 192 174 161 
203 383 186 120 28 35 
286 541 249 100 127 170 
210 106 264 122 96 64 
166 776 317 187 153 120 
292 826 355 201 144 112 
189 936 305 99 77 58 
274 219 296 110 41 72 
313 708 357 92 115 174 
151 240 308 93 76 85 
291 505 342 91 121 157 
128 413 273 62 63 71 
161 523 367 93 115 136 
195 650 206 157 96 81 
193 350 350 116 85 68 
180 142 286 75 65 55 
142 678 338 108 105 147 
247 996 346 124 103 83 
210 108 264 117 92 62 
210 109 264 116 92 61 
128 471 233 132 8 44 
164 708 367 133 72 48 
148 544 337 93 119 157 
149 484 241 139 107 65 
159 527 372 87 112 156 
245 824 210 67 68 72 
256 1018 316 131 103 75 
221 710 403 51 50 105 
118 368 226 127 75 85 
165 278 301 100 100 104 
291 272 319 121 43 60 
213 108 264 120 93 61 
261 338 241 85 91 106 
212 110 264 117 92 61 
97 279 238 143 88 67 
287 96 306 127 100 67 
149 697 332 136 123 119 
214 406 180 139 60 84 
248 473 195 87 110 137 
230 210 261 93 50 60 
231 409 187 159 115 41 
144 329 286 105 110 119 
137 724 300 80 119 150 
156 168 313 69 50 55 
184 182 259 106 89 70 
273 726 211 84 132 170 
207 502 183 84 115 165 
254 652 228 103 132 161 
171 598 219 118 142 177 
225 240 380 81 62 89 
130 249 301 130 33 72 
125 398 280 80 99 120 
230 262 204 110 97 96 
282 587 312 156 158 167 
208 803 362 201 146 122 
231 495 187 86 118 159 
127 515 221 202 85 14 
258 719 492 159 180 205 
148 530 311 131 150 180 
265 71 311 117 90 60 
219 174 406 44 62 87 
293 99 334 121 97 70 
269 603 354 105 117 159 
172 359 378 116 126 141 
144 197 265 129 65 0 
296 525 318 106 128 155 
157 232 385 54 66 109 
145 344 190 126 62 90 
123 368 236 92 28 46 
280 817 296 117 101 88 
300 145 313 121 96 68 
286 410 322 79 106 139 
281 236 350 46 86 115 
264 11 317 154 129 110 
245 717 442 132 39 50 
289 721 259 116 144 171 
228 615 387 113 119 130 
287 572 287 125 134 170 
320 60 311 123 110 99 
224 494 398 84 104 140 
234 769 147 172 177 217 
219 103 263 143 111 78 
192 386 316 45 79 113 
204 837 212 111 123 138 
142 275 180 190 85 7 
179 798 306 143 124 114 
246 703 491 106 133 190 
239 586 393 111 133 157 
219 941 379 78 57 50 
247 836 230 179 152 127 
281 954 298 90 71 57 
264 86 330 101 82 60 
258 638 434 79 95 112 
219 317 384 83 80 85 
262 670 502 77 86 96 
298 678 322 77 104 128 
254 720 143 145 138 137 
217 330 188 104 118 134 
276 360 315 126 56 74 
175 369 316 92 98 114 
253 943 366 166 127 100 
274 992 316 114 94 73 
223 97 262 138 97 80 
254 933 260 60 47 39 
263 77 316 115 90 61 
155 382 300 93 107 124 
264 596 373 125 133 157 
230 184 291 106 82 60 
260 407 220 121 127 139 
244 158 352 114 102 92 
130 303 287 112 111 114 
220 100 262 149 113 79 
222 649 416 87 106 127 
255 563 210 136 141 154 
160 284 273 79 39 64 
272 453 232 63 93 119 
177 794 264 132 94 89 
275 361 323 128 67 72 
230 818 189 180 70 71 
121 347 227 66 105 136 
136 146 304 123 106 94 
282 587 320 196 183 179 
254 648 453 84 76 71 
157 380 247 86 102 120 
181 143 345 100 84 73 
295 792 358 120 99 82 
264 845 356 194 141 111 
243 677 493 95 120 157 
230 810 375 192 140 112 
274 643 454 93 106 120 
231 662 131 98 110 124 
223 98 266 125 89 70 
223 98 267 123 92 71 
223 297 193 140 136 137 
231 718 417 58 50 98 
266 354 328 131 130 135 
224 1011 317 142 103 71 
206 708 117 141 152 172 
151 581 282 79 103 142 
277 153 339 105 85 64 
151 176 412 51 67 94 
234 261 268 64 48 61 
241 173 370 118 115 116 
291 559 296 156 159 169 
317 696 401 55 81 156 
232 316 388 141 140 146 
109 284 231 90 53 60 
233 969 374 193 143 119 
294 820 360 192 136 106 
201 532 397 138 148 167 
171 506 382 135 146 164 
109 309 238 48 68 93 
290 17 331 116 100 86 
198 367 412 163 53 86 
168 668 252 183 118 111 
109 331 235 87 40 59 
276 505 223 84 106 129 
172 630 397 175 117 112 
143 614 319 86 122 151 
171 471 350 49 71 105 
128 455 276 76 78 91 
267 609 312 123 138 168 
192 249 312 75 72 72 
265 533 212 123 141 176 
226 208 279 64 40 46 
264 636 425 73 91 109 
275 172 350 114 103 94 
279 397 281 138 141 150 
168 788 294 184 146 103 
205 819 334 184 129 109 
167 427 359 60 93 140 
266 741 482 186 86 99 
214 507 399 109 124 145 
189 781 366 190 142 112 
156 561 320 127 136 154 
236 749 431 94 93 103 
195 293 325 60 91 117 
258 594 198 81 100 118 
181 379 351 64 74 94 
239 795 421 92 122 148 
224 879 350 102 76 46 
280 218 348 136 83 65 
236 840 223 105 87 80 
114 315 238 21 40 80 
147 202 367 66 47 76 
300 128 323 117 93 67 
289 713 261 122 110 116 
294 229 307 111 39 54 
295 780 349 167 134 95 
215 682 179 139 121 121 
186 298 418 145 149 159 
140 697 313 114 137 161 
293 477 299 171 169 175 
230 857 274 212 157 127 
158 358 256 63 90 112 
129 504 235 159 127 86 
216 107 263 130 100 63 
300 760 417 154 137 125 
133 381 267 99 101 107 
218 104 263 143 112 79 
269 325 349 127 77 94 
301 89 327 128 106 83 
297 752 465 134 11 46 
147 196 264 131 70 0 
247 698 470 150 169 194 
292 699 275 84 113 139 
217 108 263 132 100 64 
138 435 270 59 68 85 
274 456 365 153 153 162 
218 106 264 141 111 80 
218 845 257 112 123 137 
268 757 471 165 119 100 
275 811 419 194 136 103 
175 629 400 162 109 103 
231 576 402 206 188 178 
213 130 281 89 72 55 
165 534 329 97 108 123 
164 533 198 105 126 152 
139 706 304 91 132 166 
297 767 367 48 40 41 
180 634 400 173 124 113 
176 173 268 106 89 71 
218 667 168 119 112 118 
240 740 432 141 111 102 
247 257 370 123 96 87 
179 622 402 135 106 90 
226 853 325 166 118 97 
242 739 435 126 73 79 
200 729 215 103 109 125 
131 445 212 143 144 152 
196 984 318 91 73 64 
190 460 409 82 114 171 
243 702 430 108 143 176 
178 476 338 73 93 114 
275 480 364 131 139 155 
251 677 166 121 118 115 
289 695 515 177 183 199 
153 224 372 67 41 73 
145 455 250 131 104 71 
269 314 314 159 152 152 
167 185 347 95 37 47 
255 677 186 180 176 181 
217 895 304 126 96 65 
304 74 298 138 106 74 
180 795 243 92 107 145 
314 98 310 155 103 95 
305 741 414 155 20 40 
202 800 182 165 180 201 
177 474 349 91 94 102 
106 364 227 77 124 160 
173 187 261 110 77 51 
240 266 261 97 48 60 
142 694 329 89 111 135 
243 731 441 158 117 114 
134 357 272 62 68 74 
134 542 227 114 86 53 
239 595 181 93 116 138 
299 743 334 209 171 120 
223 696 177 69 89 118 
190 352 334 137 107 72 
264 912 343 110 69 45 
140 547 254 101 79 83 
188 428 321 97 109 131 
149 441 295 67 90 125 
288 794 315 118 114 115 
246 820 409 194 142 114 
142 493 249 135 57 1 
263 735 484 170 50 75 
295 537 293 133 139 153 
239 697 485 64 102 168 
293 228 342 107 76 97 
199 527 394 118 126 142 
284 129 306 116 92 65 
187 945 362 140 116 94 
217 617 398 70 71 74 
214 999 322 96 76 66 
283 402 296 87 111 136 
219 665 179 111 103 110 
195 450 401 108 88 81 
276 372 294 130 60 83 
312 660 472 164 162 166 
153 277 210 110 61 57 
290 459 325 85 115 151 
280 78 338 132 105 82 
220 106 271 93 74 52 
152 190 271 134 58 1 
220 107 271 94 75 54 
122 433 270 103 78 52 
225 411 184 149 101 106 
246 559 398 160 157 163 
291 540 261 173 176 192 
147 554 340 81 108 156 
214 697 391 86 121 152 
258 621 326 121 135 161 
236 512 399 76 102 147 
164 512 195 97 122 150 
195 734 217 128 133 144 
246 864 275 232 164 121 
183 296 312 68 92 117 
159 525 368 76 93 137 
161 246 275 87 23 33 
196 905 371 169 128 105 
202 224 414 74 106 133 
148 612 281 108 127 148 
141 480 317 132 137 147 
171 229 315 63 36 80 
253 566 390 121 129 143 
244 639 420 62 76 92 
142 530 303 144 159 186 
146 412 272 46 74 102 
255 262 364 120 82 75 
164 770 329 205 174 145 
301 740 342 167 43 47 
238 154 369 129 94 55 
170 504 350 30 50 86 
155 713 345 72 63 73 
239 791 174 176 192 213 
211 96 286 113 90 64 
190 247 336 126 124 129 
231 701 410 112 100 125 
137 292 297 85 101 119 
288 797 417 160 134 110 
160 421 200 152 150 155 
257 673 501 116 130 155 
256 633 298 99 129 157 
213 638 412 87 67 58 
211 99 286 114 91 65 
157 261 285 70 39 41 
275 486 365 118 134 157 
149 350 269 75 69 75 
262 642 221 88 144 186 
191 394 314 46 70 102 
232 256 376 99 70 80 
297 213 310 41 73 107 
131 182 384 160 50 53 
170 599 220 69 91 162 
226 198 390 107 31 48 
262 58 316 106 82 54 
170 346 382 162 155 154 
269 762 221 60 86 120 
192 203 329 78 60 60 
143 481 326 134 143 158 
317 678 481 33 75 174 
102 304 229 118 40 50 
213 96 281 108 86 59 
149 453 235 137 5 61 
212 96 283 108 85 58 
202 240 324 86 0 39 
274 281 359 107 85 101 
251 424 201 91 111 135 
152 276 192 163 75 31 
213 97 283 106 83 55 
213 258 401 78 118 149 
217 393 389 152 134 118 
201 754 156 50 35 101 
293 503 333 140 150 168 
156 622 239 98 111 131 
120 444 230 170 146 120 
159 179 315 84 55 52 
224 866 301 163 125 96 
192 803 332 201 149 124 
309 728 394 161 123 130 
216 432 395 142 124 107 
255 716 486 127 155 184 
247 676 239 100 109 121 
120 392 274 113 119 129 
194 297 356 76 88 104 
287 460 337 104 128 156 
242 818 395 186 139 109 
132 487 258 149 134 124 
195 449 397 107 94 85 
259 301 300 86 85 86 
282 177 344 108 96 88 
153 722 333 173 69 9 
212 99 285 114 91 64 
255 675 202 127 155 185 
129 462 232 156 128 98 
142 615 311 93 118 139 
230 747 126 215 198 224 
160 634 371 162 118 110 
278 367 314 119 68 78 
214 692 109 106 105 109 
240 322 202 137 135 138 
227 582 402 157 159 168 
170 403 404 121 104 88 
198 825 278 114 103 106 
244 284 377 81 111 136 
160 652 362 66 39 45 
270 794 249 123 112 106 
192 344 416 180 155 131 
231 649 140 76 107 133 
124 469 215 154 42 38 
145 752 303 79 65 100 
180 189 306 106 38 51 
183 333 355 87 80 81 
271 601 328 134 137 162 
246 691 131 43 56 69 
117 319 237 110 86 78 
220 665 196 102 113 144 
188 723 230 112 126 142 
310 651 430 98 118 141 
272 120 311 116 89 56 
156 692 267 136 144 157 
236 696 176 71 93 119 
157 677 265 87 100 134 
209 602 397 95 117 151 
245 200 373 138 86 63 
228 813 371 192 141 115 
128 331 235 113 0 54 
291 22 326 114 99 83 
255 700 173 126 131 141 
239 629 387 41 58 74 
233 614 163 76 100 123 
186 943 360 130 105 83 
300 729 312 166 38 55 
218 654 420 56 69 97 
211 106 285 116 91 64 
279 445 353 98 120 154 
214 555 203 117 119 128 
210 107 287 116 91 67 
295 633 423 91 106 121 
287 189 342 150 64 2 
162 561 359 102 123 158 
218 151 326 79 66 54 
190 420 186 130 70 85 
94 258 244 67 89 113 
