ply
format ascii 1.0
comment Created by CloudCompare v2.11.1 (Anoia)
comment Created 2/28/22 9:45 PM
obj_info Generated by CloudCompare!
element vertex 2014
property float x
property float y
property float z
property uchar red
property uchar green
property uchar blue
end_header
156 691 279 129 144 163 
290 550 354 149 147 155 
267 14 306 134 117 104 
259 411 198 145 76 103 
304 718 304 149 171 196 
294 769 368 160 139 120 
242 101 287 100 76 57 
293 491 227 122 126 135 
210 186 319 93 45 52 
297 493 234 99 113 129 
200 235 404 146 119 124 
149 667 313 65 63 65 
195 528 392 173 167 168 
267 709 122 183 175 177 
248 297 198 116 49 38 
233 634 178 87 129 163 
203 682 493 141 158 180 
262 222 230 99 106 116 
256 755 484 188 159 124 
201 653 412 62 84 112 
166 538 304 101 114 134 
240 111 286 98 78 56 
283 593 314 165 166 174 
162 416 353 74 100 141 
190 691 249 121 126 135 
206 613 218 64 89 118 
206 463 385 68 92 123 
255 713 514 150 165 204 
286 531 371 36 79 141 
292 446 286 96 116 139 
288 841 291 186 139 107 
274 659 276 108 119 135 
253 962 378 151 118 96 
165 179 281 34 54 80 
222 291 209 42 46 57 
314 171 327 109 93 77 
219 133 325 90 61 6 
205 680 437 56 93 159 
163 287 175 111 71 30 
282 90 304 109 87 61 
238 552 185 103 126 180 
258 407 196 151 80 105 
156 587 341 73 105 144 
289 448 272 61 90 118 
176 200 285 98 55 59 
257 9 339 114 105 100 
298 344 330 124 104 111 
141 469 266 69 98 150 
246 206 271 90 79 90 
207 242 344 70 62 71 
295 269 358 66 111 146 
298 669 146 148 149 155 
286 706 444 179 187 202 
245 864 291 175 131 103 
273 815 202 166 81 67 
154 665 350 166 100 69 
204 148 422 116 104 95 
159 355 204 52 90 118 
277 716 461 131 134 174 
264 632 441 12 38 70 
224 469 397 106 123 146 
288 543 360 158 157 165 
213 259 410 80 108 132 
196 563 398 118 128 144 
182 345 308 139 106 60 
266 199 301 123 34 41 
156 486 203 159 145 137 
158 650 317 69 108 140 
261 847 355 177 125 99 
260 735 137 82 121 186 
291 371 299 180 145 105 
161 556 360 82 109 137 
295 598 199 114 131 152 
201 645 225 176 109 99 
264 924 260 74 55 45 
200 419 325 53 68 90 
237 867 339 142 102 77 
213 299 410 105 135 166 
256 401 188 163 71 109 
163 723 256 79 104 126 
210 184 325 78 29 52 
299 744 195 153 162 178 
190 52 282 104 84 61 
181 699 250 110 121 136 
301 695 142 166 153 157 
155 442 188 129 125 126 
260 629 328 108 130 155 
241 890 379 160 119 91 
133 479 247 110 117 128 
227 773 179 142 155 175 
282 708 456 127 137 185 
280 739 437 125 20 44 
188 53 285 104 83 59 
237 970 285 151 119 81 
189 52 285 102 82 58 
239 68 304 118 89 68 
165 327 237 109 103 103 
242 546 403 164 165 173 
200 228 310 92 32 57 
299 725 351 169 110 124 
162 689 346 153 99 43 
301 683 292 86 104 122 
286 606 272 117 68 83 
225 740 464 116 106 109 
302 247 354 150 65 76 
171 253 278 60 96 126 
246 845 234 191 162 135 
163 662 272 150 147 151 
294 621 214 112 140 168 
203 615 220 71 78 90 
274 619 295 111 138 170 
285 373 288 166 118 54 
187 57 287 105 84 61 
295 761 304 183 158 134 
244 885 375 152 111 82 
138 440 274 59 93 139 
270 86 311 94 74 50 
189 59 283 109 88 66 
191 205 297 26 37 55 
179 171 292 83 59 78 
166 582 287 63 108 141 
194 666 450 53 79 127 
229 650 459 60 72 85 
208 670 409 74 104 131 
165 287 274 114 115 120 
188 381 377 141 96 58 
183 618 424 113 97 83 
181 272 183 112 73 59 
173 552 276 85 63 74 
249 890 374 157 111 83 
302 673 339 90 123 151 
318 239 332 109 24 42 
234 570 403 116 130 152 
270 568 378 174 168 169 
140 335 247 91 115 139 
183 578 381 158 159 166 
210 483 395 102 121 150 
188 57 286 107 86 63 
188 57 287 106 85 62 
294 774 310 129 117 110 
290 395 322 169 164 168 
211 517 176 78 118 166 
216 201 339 108 58 58 
289 509 211 116 134 157 
155 616 304 124 139 157 
202 383 179 82 113 140 
287 827 373 207 150 119 
255 689 130 121 139 163 
173 298 166 102 89 86 
183 445 297 74 87 122 
179 221 398 117 89 108 
260 683 126 144 151 165 
191 60 282 111 90 68 
294 939 339 80 65 54 
164 311 239 97 78 84 
218 879 378 173 128 112 
219 827 281 187 132 111 
270 849 355 197 142 111 
267 636 295 76 126 162 
290 685 187 110 35 73 
298 664 389 137 140 150 
283 687 119 95 92 91 
189 60 285 105 86 63 
225 664 224 101 105 122 
192 213 300 35 51 88 
165 310 345 80 94 111 
278 330 296 99 106 116 
188 61 286 104 85 64 
213 770 422 176 157 143 
298 535 325 150 161 178 
303 719 157 162 161 165 
259 587 386 157 154 158 
184 605 232 95 100 149 
147 387 197 147 150 160 
211 374 181 104 118 133 
319 215 338 49 80 111 
150 665 315 59 59 64 
281 787 181 181 196 218 
295 689 235 92 111 132 
237 642 168 123 158 190 
269 427 210 133 135 143 
165 560 346 94 117 143 
231 926 283 69 56 48 
172 469 366 32 68 135 
302 529 305 127 139 163 
177 776 308 147 139 137 
297 744 308 159 20 45 
276 748 135 187 184 221 
268 367 219 166 164 170 
321 79 299 159 120 94 
144 280 252 96 103 115 
220 640 399 38 74 111 
158 367 291 82 104 127 
164 320 208 114 9 51 
204 625 428 107 92 80 
293 772 200 164 174 191 
285 525 373 86 108 150 
294 765 206 152 62 105 
278 336 277 97 107 119 
171 454 331 55 82 122 
214 558 406 119 134 153 
141 355 251 67 102 134 
164 572 371 43 105 148 
161 345 184 83 89 103 
262 685 518 92 126 183 
322 194 326 162 67 3 
274 673 262 91 97 106 
302 208 295 146 40 29 
163 292 275 129 127 132 
213 979 367 168 124 108 
189 262 204 145 39 17 
148 409 193 158 157 164 
261 46 322 101 78 57 
152 445 202 147 5 67 
268 337 231 75 71 73 
162 280 365 136 127 120 
303 517 257 155 156 164 
284 643 222 82 147 193 
270 646 356 60 61 67 
218 792 385 195 138 111 
219 705 516 107 129 192 
238 414 386 127 107 107 
308 504 298 132 140 153 
277 480 377 143 147 157 
289 441 357 72 109 156 
191 668 423 46 63 123 
287 457 352 83 108 155 
292 805 275 153 128 104 
216 589 398 130 126 130 
274 680 507 102 138 187 
252 879 348 137 98 66 
259 391 197 189 140 81 
146 535 259 100 120 162 
286 582 195 94 115 136 
148 409 273 36 70 95 
307 302 327 114 131 151 
187 39 288 106 84 59 
248 206 285 83 68 83 
283 525 376 161 164 173 
170 538 307 109 120 137 
279 126 308 109 84 52 
224 830 225 96 97 101 
159 452 350 125 138 157 
226 884 380 168 128 106 
276 357 360 73 117 153 
156 600 316 95 123 151 
159 642 325 68 118 156 
275 991 336 85 61 47 
270 931 366 103 77 61 
144 380 249 137 138 145 
174 498 297 131 134 144 
159 585 337 115 133 156 
279 101 306 103 80 52 
294 773 243 158 54 71 
282 679 211 169 170 179 
164 596 275 119 122 131 
282 661 313 55 70 84 
299 746 175 160 174 194 
193 345 191 95 45 49 
256 190 224 123 61 10 
161 327 238 101 97 98 
183 342 231 118 113 114 
152 655 330 87 73 58 
184 32 298 95 70 51 
239 638 405 51 72 97 
285 96 333 105 88 70 
159 410 211 133 20 66 
147 261 262 122 117 116 
273 609 315 126 145 168 
176 134 278 155 81 6 
284 767 409 126 116 110 
222 750 447 95 104 116 
172 556 380 40 61 94 
231 888 308 129 97 63 
269 10 317 117 101 87 
293 938 324 67 54 42 
166 654 260 65 65 70 
233 695 174 86 110 139 
160 641 291 128 27 51 
206 631 435 104 91 79 
226 600 395 166 160 162 
224 736 463 37 33 111 
298 324 326 89 84 107 
222 585 201 193 187 193 
273 334 264 83 105 125 
295 766 329 85 76 73 
317 223 340 36 50 84 
154 460 276 100 118 142 
244 648 208 81 68 67 
170 340 301 128 65 87 
190 138 291 149 78 38 
183 431 329 55 70 92 
162 709 262 127 138 154 
240 815 191 207 43 66 
233 737 179 136 140 173 
322 194 324 163 64 3 
200 312 407 179 160 138 
166 681 374 116 109 107 
302 705 204 151 153 162 
287 565 352 98 123 166 
195 676 388 98 126 154 
186 35 302 116 90 63 
290 562 346 76 90 150 
225 327 381 135 137 144 
144 552 247 89 90 145 
209 328 396 181 149 114 
161 576 347 77 98 135 
186 36 298 111 87 64 
285 343 362 104 135 165 
249 454 178 93 117 143 
159 280 247 90 87 88 
195 436 324 69 83 100 
224 983 372 122 95 83 
284 816 390 200 140 107 
274 669 500 169 169 175 
165 567 352 100 118 142 
264 629 428 73 88 104 
273 687 492 165 179 197 
295 680 171 72 112 144 
267 645 356 71 73 77 
226 752 459 126 110 92 
284 887 314 125 93 67 
186 37 301 114 90 64 
186 36 302 116 91 64 
154 709 301 159 122 73 
278 303 361 99 124 152 
296 727 378 169 24 48 
192 795 280 164 138 119 
226 672 239 37 53 84 
194 335 401 170 140 105 
172 453 363 80 105 156 
229 258 387 78 103 126 
220 641 223 171 105 80 
233 252 411 89 121 144 
197 620 429 109 96 85 
162 417 246 53 69 93 
291 791 239 100 113 127 
165 604 351 73 92 127 
209 189 357 87 60 60 
291 816 270 160 135 111 
232 840 323 164 106 89 
273 495 385 166 163 166 
186 40 291 109 87 64 
262 320 258 107 102 102 
233 688 527 38 69 111 
272 130 322 76 61 45 
234 594 394 109 131 165 
197 325 403 153 20 70 
183 152 361 114 54 22 
162 363 205 97 33 50 
295 626 172 153 153 160 
271 634 443 73 98 122 
207 295 322 87 89 95 
160 541 346 76 99 128 
236 723 177 111 127 148 
256 156 341 70 54 41 
193 172 301 117 64 55 
208 159 256 101 88 75 
282 402 271 85 104 127 
165 347 256 148 110 59 
311 503 253 145 145 150 
195 362 373 169 135 93 
248 1019 310 135 111 88 
258 402 195 149 84 88 
186 42 292 107 86 62 
265 912 364 164 120 90 
290 164 300 98 83 67 
222 680 217 115 125 150 
233 363 175 141 135 134 
288 783 392 142 140 144 
166 442 331 46 86 125 
186 43 295 106 85 61 
209 682 435 126 150 178 
305 715 327 171 181 199 
180 426 330 47 66 94 
219 143 404 106 95 85 
214 963 381 194 148 128 
304 153 304 122 98 68 
263 295 221 119 132 150 
264 22 352 137 122 113 
285 828 256 208 163 106 
164 262 373 145 142 144 
239 858 300 174 137 106 
164 558 224 94 112 156 
158 377 192 78 65 82 
200 773 399 135 133 136 
298 656 167 122 129 142 
219 357 380 121 79 82 
235 686 174 90 97 141 
186 44 293 106 85 62 
278 589 365 139 146 161 
235 815 376 194 142 113 
187 44 292 106 85 62 
213 671 406 106 132 158 
229 348 181 80 75 86 
304 711 138 70 125 164 
263 722 500 115 139 165 
224 650 472 107 91 76 
295 661 353 135 139 147 
302 91 305 140 108 72 
198 168 303 116 69 56 
163 734 369 99 98 115 
162 281 254 131 128 132 
194 205 303 46 64 90 
180 181 410 69 91 115 
278 775 426 173 153 138 
168 761 341 201 173 147 
275 843 253 133 115 102 
318 232 333 85 45 54 
304 244 301 39 64 98 
166 286 373 149 150 157 
144 565 240 141 158 182 
186 40 299 108 87 62 
225 314 199 113 39 27 
256 396 185 158 76 105 
293 752 370 98 123 147 
203 931 313 98 75 52 
212 600 212 104 123 180 
288 434 362 72 105 154 
166 367 183 124 33 70 
199 974 340 139 110 92 
224 723 465 57 67 116 
166 548 287 127 133 145 
296 539 334 155 158 168 
158 427 258 87 102 125 
252 938 275 83 66 53 
247 181 268 129 65 3 
183 676 394 103 113 149 
209 383 328 58 69 82 
295 682 430 67 59 122 
211 819 280 166 150 139 
223 585 400 119 136 157 
162 637 373 176 126 118 
191 315 313 114 117 125 
303 696 242 140 148 162 
186 43 300 107 85 60 
154 600 250 130 157 187 
165 385 182 78 107 131 
253 257 239 135 86 75 
225 874 334 140 111 84 
295 593 203 134 146 164 
147 394 198 153 153 160 
235 481 403 115 132 154 
217 902 315 148 118 87 
186 45 296 105 83 60 
154 401 344 146 129 110 
233 227 416 102 96 108 
272 113 325 66 55 42 
220 241 322 87 69 66 
219 742 194 101 119 158 
183 431 391 143 128 118 
294 769 217 161 39 66 
245 433 171 157 82 102 
254 576 206 66 89 111 
187 47 297 105 83 60 
195 528 184 98 117 168 
250 297 197 108 46 42 
158 623 328 166 157 156 
224 145 371 125 93 69 
230 499 404 126 131 143 
294 720 400 168 121 129 
264 849 355 181 131 104 
297 468 280 85 104 125 
289 519 364 116 135 158 
158 352 353 120 128 142 
289 288 301 70 98 124 
275 666 495 167 165 171 
230 381 172 132 135 144 
187 44 303 110 87 64 
282 651 202 75 138 184 
172 379 230 86 94 106 
296 681 272 98 114 130 
281 241 358 79 94 114 
243 311 375 146 145 152 
226 960 386 201 158 137 
280 359 353 106 102 111 
186 172 414 142 113 104 
176 201 285 97 34 45 
165 614 278 74 103 135 
259 754 149 133 147 188 
267 745 481 115 54 91 
188 47 302 112 90 66 
210 282 211 29 55 85 
286 825 253 163 137 110 
242 879 299 153 118 87 
302 191 347 153 61 4 
305 536 254 89 110 133 
214 895 380 117 97 89 
194 638 406 91 69 69 
244 161 271 105 90 77 
271 732 127 135 146 202 
150 716 289 79 104 135 
296 688 241 83 106 128 
291 658 424 51 74 96 
241 710 154 136 145 167 
208 258 340 88 84 83 
225 700 422 88 137 176 
145 259 253 123 111 113 
173 641 237 128 94 73 
293 897 324 112 87 68 
259 329 215 131 128 133 
184 533 192 59 97 163 
194 374 375 140 0 52 
153 540 260 132 149 185 
163 695 262 165 173 190 
228 745 476 57 36 109 
276 454 219 124 137 154 
254 411 183 146 47 69 
292 643 210 169 161 163 
173 286 291 107 117 130 
286 643 408 129 143 161 
221 694 405 116 148 179 
148 475 234 123 108 93 
159 300 246 93 49 54 
237 720 171 66 77 117 
201 974 353 178 133 112 
181 265 228 109 52 49 
248 228 280 84 31 47 
190 677 390 108 141 172 
302 531 309 141 149 163 
148 261 173 147 76 13 
289 270 300 154 39 7 
254 756 483 188 139 82 
187 36 304 120 94 67 
296 692 225 50 85 115 
308 63 330 133 111 89 
284 650 200 90 147 190 
188 138 346 105 93 84 
214 157 261 104 91 78 
226 295 378 77 88 100 
190 461 380 98 112 138 
320 221 314 42 55 85 
313 238 346 136 41 65 
153 312 188 103 48 60 
267 793 172 173 210 236 
296 795 363 119 115 115 
298 565 264 98 124 159 
194 680 432 75 97 149 
268 627 409 72 99 122 
173 243 388 126 94 90 
288 670 193 142 145 154 
265 303 212 141 146 158 
196 655 417 32 65 102 
162 694 364 135 94 63 
155 598 326 141 154 174 
188 34 310 126 107 89 
248 163 271 110 94 82 
175 358 231 96 100 109 
304 713 231 177 178 187 
238 75 277 142 104 80 
161 151 265 115 69 0 
236 867 338 140 102 76 
191 34 311 122 98 75 
170 754 373 164 145 132 
283 169 298 116 100 88 
301 731 244 166 176 193 
276 819 402 202 136 104 
155 451 189 144 143 149 
268 676 509 67 100 138 
277 984 347 102 87 73 
156 323 186 125 39 50 
250 161 274 114 100 88 
287 238 356 108 79 75 
278 117 308 110 83 53 
292 797 268 107 95 84 
181 388 228 75 88 103 
186 366 333 78 79 84 
180 391 385 183 117 43 
207 367 330 58 63 71 
190 38 307 117 91 65 
225 649 462 86 76 70 
303 720 158 164 164 171 
169 452 355 142 149 161 
154 469 338 98 123 155 
232 90 279 129 103 75 
178 507 189 159 143 139 
211 281 320 80 82 87 
269 806 186 173 77 91 
174 679 381 101 77 67 
191 628 443 118 97 77 
159 410 257 52 84 108 
297 953 319 67 55 47 
246 270 209 133 51 28 
168 390 241 126 126 132 
184 387 183 102 101 105 
308 264 347 108 101 113 
276 40 347 139 114 95 
185 349 160 69 69 90 
250 260 270 72 63 63 
258 458 398 109 120 136 
311 168 309 85 72 65 
190 33 312 138 122 110 
228 718 516 131 140 194 
205 795 364 198 145 118 
144 470 237 115 102 89 
292 49 343 129 104 86 
145 413 275 91 106 127 
187 40 304 116 91 66 
283 42 312 101 87 75 
264 613 344 138 140 162 
133 450 267 127 134 147 
174 575 263 73 73 113 
218 695 191 114 127 155 
184 591 220 125 140 161 
189 157 300 80 71 77 
200 279 211 75 48 72 
185 720 243 113 124 138 
165 568 353 98 115 136 
137 454 255 42 61 78 
245 655 207 56 67 89 
265 346 211 79 99 119 
284 652 193 110 137 170 
241 84 280 123 99 75 
291 573 306 124 130 161 
167 761 270 91 87 122 
226 763 457 142 133 140 
276 530 201 75 106 154 
273 649 348 53 58 65 
190 145 418 120 108 98 
159 245 268 71 90 112 
246 948 278 85 66 47 
173 507 194 144 151 167 
188 303 170 81 50 62 
191 43 307 114 89 67 
303 73 329 135 113 92 
163 562 346 70 103 134 
263 635 380 62 87 110 
206 690 498 117 132 186 
253 982 368 104 79 63 
292 534 351 112 122 156 
237 900 305 113 87 58 
275 835 379 208 151 118 
188 46 304 112 89 65 
192 675 399 134 143 160 
267 912 362 162 122 91 
273 650 301 159 160 170 
280 851 282 208 156 124 
299 677 306 136 137 143 
286 816 243 133 124 120 
163 529 335 108 122 144 
264 334 224 80 76 77 
235 358 176 137 132 133 
277 305 361 83 105 136 
284 1009 302 153 126 101 
170 380 377 181 145 96 
270 241 361 67 95 119 
285 664 211 100 121 143 
172 730 376 150 55 33 
179 652 382 146 100 89 
287 13 336 120 103 88 
187 48 289 102 82 60 
209 181 354 84 56 43 
302 479 289 118 130 147 
212 306 409 136 143 156 
272 644 281 85 123 153 
187 49 290 100 80 58 
303 59 303 115 96 78 
301 539 292 126 145 167 
182 144 340 104 84 69 
147 397 193 143 142 147 
231 864 328 141 103 78 
153 354 203 63 103 133 
267 260 283 87 39 39 
285 616 169 87 111 133 
257 833 385 188 142 115 
165 570 293 127 131 141 
150 666 330 77 61 115 
185 612 409 96 85 76 
292 894 327 97 75 55 
213 390 377 169 142 114 
248 753 488 185 60 77 
235 657 207 54 67 90 
186 48 295 104 83 60 
140 349 250 74 112 144 
252 246 365 88 76 95 
292 159 340 103 85 65 
182 263 153 137 110 87 
155 516 225 152 59 2 
237 773 463 169 143 144 
287 735 128 142 162 225 
299 318 333 170 163 167 
198 546 394 98 118 147 
283 544 227 113 124 139 
278 878 305 183 142 106 
159 732 306 171 64 31 
308 163 306 94 81 67 
291 832 284 180 161 145 
284 779 406 166 148 134 
228 401 170 122 113 106 
169 154 411 132 117 105 
207 297 323 88 89 95 
285 989 289 135 106 74 
227 625 190 61 78 92 
292 689 230 58 89 116 
286 403 320 88 112 150 
271 145 325 73 59 42 
221 546 184 99 121 186 
194 661 474 124 91 75 
235 858 328 165 123 99 
210 946 288 122 99 84 
177 615 407 118 99 81 
243 280 374 92 68 84 
285 789 195 198 12 36 
292 821 297 162 152 148 
214 687 245 37 71 110 
158 328 183 123 50 60 
225 738 478 74 81 113 
165 154 257 139 76 20 
205 655 482 115 92 67 
183 280 185 112 49 48 
220 487 171 80 122 162 
219 289 322 76 80 87 
187 54 293 106 85 60 
179 365 387 102 120 143 
225 439 168 175 129 82 
233 258 382 122 36 73 
296 661 359 127 131 141 
264 536 193 180 177 183 
187 55 294 109 86 60 
269 668 504 89 115 152 
266 377 232 159 159 165 
288 663 320 120 122 129 
188 50 288 102 83 61 
296 563 299 118 135 159 
296 748 319 147 128 112 
317 189 340 150 67 3 
214 655 234 203 127 120 
246 973 283 99 77 57 
284 465 238 59 84 106 
147 516 237 147 153 177 
213 637 219 174 110 86 
210 527 178 118 128 179 
231 422 387 121 99 111 
214 618 208 205 199 203 
278 840 366 204 144 110 
295 942 360 128 107 92 
191 786 354 198 145 117 
226 766 456 125 103 91 
164 346 177 134 93 103 
194 221 355 80 43 54 
278 1006 290 130 103 81 
173 267 347 118 79 53 
291 750 384 70 43 81 
276 749 450 154 123 104 
200 938 309 80 63 51 
235 807 426 195 142 115 
187 49 300 106 84 61 
251 627 364 103 116 134 
278 663 298 44 65 83 
187 51 300 104 81 58 
268 64 310 92 74 54 
279 343 263 130 133 141 
289 518 213 103 128 163 
164 189 370 73 69 67 
248 873 292 168 129 98 
279 167 361 82 71 62 
197 899 352 154 111 84 
273 285 366 118 71 85 
244 830 202 202 157 119 
187 410 389 166 76 16 
225 269 323 75 75 78 
273 752 140 33 64 99 
178 355 307 128 70 90 
313 57 325 79 64 50 
148 422 246 92 77 82 
187 55 297 111 88 64 
161 452 332 62 85 132 
286 172 360 109 97 88 
233 873 344 95 72 44 
188 388 399 200 167 132 
191 628 221 138 93 77 
220 219 314 91 66 66 
211 178 330 46 42 46 
158 495 200 202 168 132 
136 518 236 120 134 163 
207 155 313 41 63 98 
183 146 411 118 106 96 
221 678 185 104 116 138 
193 360 186 111 105 104 
189 49 303 114 90 67 
274 630 424 28 54 91 
297 490 238 125 129 136 
284 630 247 82 131 171 
197 273 339 78 80 85 
278 74 306 119 94 68 
158 659 309 127 122 120 
177 499 190 150 23 55 
198 969 334 99 75 59 
143 546 247 155 167 184 
281 67 304 126 101 75 
215 673 507 121 130 142 
157 631 356 144 106 93 
210 191 419 108 93 112 
188 53 300 110 88 65 
289 811 384 189 134 99 
221 144 373 114 87 66 
163 361 266 135 101 49 
185 679 384 112 123 151 
153 178 268 92 56 33 
199 254 313 71 82 96 
207 386 380 160 139 120 
169 199 371 101 50 51 
222 339 189 72 96 119 
162 162 258 95 64 41 
298 659 159 133 141 154 
159 306 244 106 99 97 
214 728 236 102 119 138 
215 155 417 146 76 4 
157 152 399 104 95 91 
172 226 358 43 48 78 
185 625 227 109 96 83 
209 954 296 101 82 71 
224 832 333 178 119 101 
191 659 240 159 109 92 
220 719 478 129 150 174 
202 592 400 110 132 158 
293 815 331 152 114 80 
187 56 289 102 82 60 
225 713 434 113 147 178 
282 442 252 55 87 126 
276 343 250 94 112 132 
270 325 282 82 68 68 
150 710 289 83 102 120 
173 206 398 147 81 83 
219 363 181 122 120 122 
163 702 361 112 61 42 
266 819 415 199 131 101 
153 582 242 165 182 216 
191 667 247 170 129 118 
306 709 288 169 173 187 
228 160 256 107 90 72 
233 988 373 100 81 68 
165 696 354 147 61 46 
265 545 196 123 145 178 
226 733 493 141 122 133 
205 670 249 129 114 109 
154 296 205 83 77 85 
193 168 302 116 69 62 
274 650 477 139 148 162 
252 560 394 171 167 168 
188 152 345 138 65 6 
187 58 293 112 88 62 
187 59 292 110 88 63 
290 631 182 123 140 165 
283 808 399 189 132 100 
207 154 265 99 86 72 
228 832 250 198 174 155 
299 80 303 143 117 93 
238 834 355 186 131 110 
228 84 277 132 107 81 
249 167 271 109 94 82 
285 810 229 93 87 84 
300 541 292 49 82 121 
272 169 364 109 96 86 
187 61 291 108 88 65 
254 720 137 45 89 167 
168 349 301 124 33 71 
274 648 287 87 118 143 
245 259 377 110 70 67 
223 256 218 49 42 71 
149 396 200 142 135 133 
247 898 294 88 70 50 
263 903 363 165 123 93 
183 763 381 195 174 159 
303 544 246 135 142 155 
291 816 325 152 113 79 
239 988 283 133 106 78 
232 120 298 92 70 42 
208 666 494 114 91 67 
232 339 375 119 127 141 
284 828 252 176 142 104 
219 820 227 155 146 145 
185 348 311 126 101 69 
181 271 228 89 72 75 
235 660 481 68 72 78 
282 102 303 122 91 60 
300 542 306 101 123 154 
300 736 159 167 168 177 
284 362 350 144 137 136 
303 716 166 162 162 170 
216 903 320 118 93 64 
188 63 291 107 87 65 
197 195 304 52 35 48 
215 677 510 71 97 148 
188 144 399 120 107 96 
227 194 417 84 50 65 
305 685 382 105 130 166 
284 273 362 81 95 119 
170 592 375 88 117 155 
234 406 377 111 89 69 
172 395 299 40 77 120 
196 391 313 60 88 114 
298 695 218 89 113 137 
303 485 266 85 107 130 
289 668 213 67 108 141 
234 879 376 149 114 85 
276 425 383 70 109 155 
307 192 346 154 63 4 
263 604 186 79 93 109 
220 292 208 45 44 47 
188 269 344 97 91 92 
235 370 368 163 138 114 
157 432 253 96 109 128 
164 494 191 214 178 137 
166 390 219 105 111 121 
297 320 351 137 117 98 
216 494 398 80 99 132 
188 59 298 111 88 65 
188 59 299 111 88 67 
195 363 185 113 110 111 
174 403 375 128 107 88 
188 56 301 113 90 68 
184 398 331 56 71 93 
217 646 428 74 78 85 
161 419 221 159 138 117 
183 554 380 81 102 130 
223 876 333 138 109 81 
208 508 397 163 159 163 
189 58 300 112 90 69 
285 322 302 99 111 126 
290 777 190 178 187 201 
204 979 326 109 88 75 
173 773 288 91 88 89 
190 56 302 114 91 70 
190 56 303 114 91 70 
176 268 289 129 126 128 
291 571 310 122 134 156 
302 533 305 100 118 160 
203 627 423 112 95 81 
241 295 202 100 44 30 
218 136 274 96 83 70 
292 799 380 160 116 80 
205 981 353 113 90 78 
258 628 405 68 83 99 
229 612 211 86 100 116 
295 548 334 116 128 149 
214 647 410 48 69 94 
155 431 338 38 79 132 
188 61 297 111 89 65 
187 232 353 96 64 65 
254 388 178 123 64 63 
166 414 289 58 81 127 
300 666 381 110 122 138 
247 990 277 127 98 65 
238 329 185 82 104 129 
188 62 297 111 89 65 
283 606 282 170 165 168 
208 437 170 113 131 151 
241 112 290 92 71 48 
276 615 294 173 168 171 
189 62 299 111 89 66 
220 789 220 111 57 56 
283 639 236 89 148 191 
224 145 364 126 82 52 
209 816 311 195 138 120 
158 626 374 163 110 105 
277 449 226 116 132 153 
204 314 407 157 45 85 
170 361 364 168 143 117 
233 410 379 97 85 74 
253 629 383 62 82 101 
206 798 238 143 113 82 
226 986 303 117 88 67 
145 219 266 123 39 33 
179 779 304 83 69 78 
194 541 188 71 104 158 
191 527 388 145 148 159 
150 435 200 142 1 60 
192 142 271 117 72 39 
276 528 200 63 101 154 
259 798 174 202 215 233 
288 475 329 114 132 154 
191 671 432 27 61 131 
219 684 205 135 138 152 
192 310 332 77 81 88 
177 297 381 98 124 149 
280 457 236 105 125 147 
220 622 199 169 173 185 
269 571 379 131 142 159 
186 552 382 138 140 150 
179 505 189 162 144 137 
242 825 198 213 165 118 
286 687 213 85 107 130 
260 377 188 113 124 140 
264 410 215 139 111 81 
197 209 359 72 43 49 
191 55 304 113 91 69 
289 830 365 200 139 109 
168 335 212 65 101 127 
175 326 371 133 136 144 
171 621 245 131 127 132 
281 95 333 109 90 71 
203 603 393 128 128 135 
233 250 405 125 40 77 
249 162 376 140 69 5 
178 263 227 111 62 58 
169 185 399 67 109 142 
200 790 362 196 143 115 
188 338 200 71 28 37 
194 296 207 131 43 23 
274 195 304 95 46 43 
229 762 177 52 73 123 
212 722 238 109 120 134 
284 684 122 132 132 136 
168 534 377 84 111 146 
267 473 191 100 122 148 
173 508 298 90 104 134 
279 409 375 62 104 143 
215 785 416 156 122 122 
235 995 367 97 81 68 
248 86 283 113 85 66 
226 664 203 115 113 116 
164 281 245 64 65 73 
190 315 183 94 41 50 
198 435 379 109 97 89 
245 434 172 156 85 101 
204 568 196 53 89 146 
222 683 178 86 111 156 
286 830 260 197 174 156 
249 640 161 63 64 66 
167 385 335 100 37 77 
191 593 212 94 119 172 
280 991 327 89 72 56 
281 516 201 87 123 160 
190 206 297 35 52 75 
166 759 268 140 134 132 
176 276 180 124 81 64 
180 141 350 108 97 87 
196 638 405 87 73 67 
237 126 285 88 74 59 
209 564 406 87 104 130 
192 358 332 73 76 83 
286 709 441 154 165 184 
293 942 300 89 69 50 
204 937 293 87 73 63 
289 538 360 185 175 174 
177 291 149 121 129 140 
298 732 344 98 48 62 
305 694 276 82 119 150 
238 676 511 90 78 66 
200 515 179 87 117 164 
279 852 281 209 157 126 
185 250 397 111 78 89 
222 922 285 107 87 65 
218 215 341 70 30 32 
247 1009 283 164 129 110 
210 286 321 74 78 86 
176 320 301 120 109 100 
295 773 332 143 127 115 
234 993 296 91 67 51 
237 812 423 198 142 116 
285 415 283 80 114 143 
179 13 322 128 116 108 
251 700 133 100 118 145 
158 433 253 84 98 122 
241 1011 288 164 139 121 
168 490 350 129 141 158 
221 671 242 37 33 82 
217 827 297 196 138 118 
227 788 434 157 141 133 
158 454 226 146 122 96 
166 215 364 74 35 42 
192 433 175 148 147 153 
263 336 219 81 100 119 
259 832 399 198 136 109 
211 201 331 110 52 57 
182 680 431 101 122 159 
147 672 310 59 55 56 
157 405 261 52 81 105 
203 799 252 186 164 154 
248 269 258 94 34 60 
277 780 427 139 113 92 
167 636 387 169 117 105 
224 441 390 65 93 132 
219 530 179 123 134 180 
183 12 321 121 108 100 
259 291 276 120 117 117 
237 777 458 181 170 166 
292 947 298 105 81 61 
216 673 409 115 137 161 
276 1013 316 147 113 89 
270 232 301 46 41 50 
174 323 301 137 102 52 
267 597 376 160 161 171 
185 11 320 119 106 98 
274 841 366 203 145 113 
286 747 409 121 88 100 
252 243 276 37 38 42 
284 672 279 95 102 111 
254 978 280 96 76 52 
221 340 188 74 100 124 
250 699 135 42 101 144 
201 720 240 111 129 148 
258 665 136 78 95 113 
228 90 277 133 106 76 
278 710 463 72 122 181 
272 146 314 92 70 44 
258 618 177 84 101 119 
173 258 282 74 108 136 
165 569 325 158 154 158 
187 13 321 118 106 97 
271 275 286 74 100 122 
186 15 322 131 118 110 
247 623 183 109 114 121 
282 293 297 80 57 72 
210 947 384 177 135 113 
154 592 253 129 145 166 
186 618 428 113 97 83 
277 580 195 76 110 139 
289 448 266 62 94 122 
192 389 387 190 153 111 
192 715 378 77 36 79 
188 14 322 123 111 105 
143 437 249 104 94 84 
275 540 219 62 84 117 
216 201 416 124 49 79 
300 197 295 117 120 128 
154 696 288 116 138 163 
279 428 243 61 99 134 
251 154 338 71 56 44 
241 679 525 56 60 64 
279 865 299 188 142 111 
304 143 304 124 98 66 
163 425 360 113 125 148 
162 219 367 52 37 48 
173 294 169 114 67 69 
278 532 380 88 106 151 
191 15 322 102 91 83 
215 296 377 128 130 140 
248 630 377 53 63 74 
188 363 332 75 77 83 
252 916 271 74 53 41 
294 22 340 106 88 69 
217 709 479 119 141 165 
312 81 300 136 110 84 
186 328 156 134 64 74 
163 226 374 52 33 52 
177 772 343 170 163 162 
178 17 321 143 128 122 
178 16 322 140 125 118 
171 358 336 124 122 125 
221 724 218 75 102 127 
272 670 131 86 112 134 
300 289 352 121 130 143 
200 924 327 132 97 72 
264 662 501 58 97 130 
185 356 163 74 74 87 
150 265 206 110 73 84 
235 680 182 90 100 128 
155 478 230 114 52 45 
210 325 403 192 163 134 
159 591 305 138 141 150 
156 461 212 161 123 93 
307 241 303 37 65 115 
272 125 322 74 59 43 
228 995 319 142 108 78 
220 941 386 108 81 61 
264 192 357 100 67 76 
186 717 376 113 28 29 
281 963 293 124 97 73 
209 535 403 114 125 142 
269 694 495 118 132 177 
218 685 241 50 63 84 
242 534 400 107 120 153 
260 333 190 159 162 173 
277 122 310 99 76 45 
183 19 321 151 137 132 
309 524 290 81 108 162 
183 197 289 86 25 38 
183 19 322 152 137 132 
187 201 293 46 34 47 
213 752 423 129 99 97 
234 715 176 87 106 157 
275 360 251 162 154 156 
228 241 417 72 67 95 
170 766 330 186 168 155 
266 59 333 102 81 59 
169 267 380 151 149 153 
295 669 423 53 75 116 
161 400 352 140 130 127 
245 873 296 156 121 91 
205 745 407 109 107 110 
291 789 229 177 138 83 
266 999 280 99 72 54 
190 655 457 156 111 85 
269 639 286 81 119 152 
185 383 373 159 126 90 
221 199 314 79 73 77 
287 427 287 77 104 132 
204 137 274 96 84 73 
279 315 297 92 105 122 
167 751 367 159 137 119 
198 611 223 117 127 161 
185 18 322 149 136 131 
286 51 307 102 91 81 
273 1012 303 167 137 107 
191 323 201 123 18 17 
187 16 322 141 129 124 
297 654 173 169 167 174 
279 705 114 81 82 97 
222 433 384 61 77 100 
226 171 412 113 78 62 
266 164 301 119 102 86 
227 742 476 99 71 87 
283 362 274 114 134 156 
181 290 383 126 135 148 
272 138 320 88 69 47 
162 277 360 114 118 126 
183 558 201 103 111 162 
185 21 321 126 113 106 
297 588 230 110 135 166 
146 389 194 147 148 157 
158 636 355 161 117 106 
263 671 129 68 87 104 
160 164 399 154 75 3 
194 713 242 102 118 136 
193 342 192 96 37 58 
283 588 345 133 140 154 
186 785 337 198 145 117 
209 935 380 166 121 101 
160 367 205 133 130 134 
283 345 297 94 106 120 
187 22 320 122 108 101 
296 808 370 171 121 88 
151 466 273 74 104 141 
166 485 188 207 173 133 
271 633 394 86 105 124 
158 627 358 45 51 66 
173 458 371 105 128 152 
180 273 148 152 115 86 
179 490 300 85 100 134 
273 371 253 155 155 162 
143 308 254 70 100 126 
149 672 309 68 71 79 
183 506 185 127 136 159 
196 321 326 81 86 94 
214 265 336 79 86 96 
191 16 322 116 104 97 
298 723 373 193 41 64 
190 18 321 126 113 106 
274 31 308 131 107 81 
191 18 321 124 112 105 
225 644 224 108 78 74 
211 318 330 58 69 81 
162 453 354 100 119 154 
163 314 272 124 97 62 
284 910 294 86 69 51 
246 178 264 127 75 4 
322 185 331 115 95 70 
182 273 163 118 73 38 
151 268 256 126 125 130 
203 459 382 51 78 125 
286 600 277 167 163 167 
206 340 396 183 148 109 
239 996 365 91 71 56 
262 632 445 66 93 116 
275 384 258 117 130 146 
295 389 329 138 144 157 
215 625 212 150 108 87 
295 755 310 54 54 89 
222 754 451 85 97 108 
278 507 379 119 134 150 
209 629 217 170 119 102 
256 240 284 47 32 34 
187 24 320 127 114 106 
162 431 180 114 132 153 
255 535 186 141 154 173 
273 216 359 118 105 98 
224 730 491 139 168 198 
259 413 197 153 103 117 
215 687 388 100 137 170 
263 626 311 142 152 168 
219 735 195 111 128 148 
278 662 298 46 63 79 
273 621 293 134 142 159 
191 66 282 105 86 65 
165 589 285 72 113 144 
289 520 240 116 128 166 
288 648 206 91 117 150 
213 483 396 120 130 151 
199 194 305 81 43 58 
239 642 455 75 93 111 
291 673 186 128 132 141 
219 896 383 101 63 56 
166 373 215 143 141 146 
299 736 144 135 150 187 
189 66 284 106 87 68 
292 533 241 77 97 123 
201 421 173 144 142 147 
280 602 303 139 150 166 
168 385 364 162 65 0 
247 882 368 148 107 77 
246 631 170 81 99 121 
284 897 332 98 85 74 
190 64 284 103 84 64 
169 564 378 43 80 145 
184 384 397 193 162 131 
237 868 305 155 117 87 
158 626 338 152 110 113 
294 762 177 179 177 183 
284 864 308 186 140 110 
243 994 277 120 92 60 
153 287 173 112 65 83 
187 173 361 91 44 34 
234 831 355 180 127 108 
162 609 282 180 170 170 
284 480 225 134 135 140 
171 617 376 38 56 76 
317 240 339 119 42 64 
179 777 334 124 110 100 
180 137 371 119 71 34 
181 146 366 129 63 0 
287 592 287 180 173 174 
247 858 285 199 149 119 
259 158 310 105 90 75 
235 503 407 148 152 162 
311 924 344 152 123 99 
220 777 218 58 67 95 
276 338 265 61 56 59 
274 733 126 121 135 208 
249 281 255 128 125 128 
141 253 263 63 101 128 
257 865 345 163 114 87 
244 1002 350 131 103 73 
257 234 212 104 79 87 
265 941 276 76 61 46 
286 594 289 175 170 172 
255 635 446 117 125 137 
267 519 189 180 176 180 
195 422 381 128 66 25 
291 521 357 106 125 156 
294 519 343 150 151 161 
314 224 345 37 61 91 
158 348 289 92 114 134 
233 484 403 84 107 144 
185 321 154 134 70 56 
231 389 171 106 118 133 
220 536 181 168 170 194 
177 369 306 108 111 119 
180 334 376 117 115 118 
213 245 339 95 86 82 
143 394 248 90 108 128 
301 727 309 158 176 196 
245 224 277 93 48 41 
281 594 324 108 119 155 
251 164 273 111 96 84 
165 755 351 206 164 113 
267 857 274 229 162 119 
153 665 311 90 94 104 
162 394 354 107 95 87 
210 499 397 106 118 144 
172 506 332 54 73 98 
297 752 172 136 159 185 
146 667 317 67 58 55 
239 873 346 139 100 74 
230 147 332 84 61 42 
243 651 203 80 56 56 
283 142 336 90 74 58 
199 140 363 109 83 65 
272 779 444 141 122 107 
303 703 218 113 131 152 
230 259 411 80 124 158 
213 139 343 101 70 42 
296 961 340 112 90 72 
281 207 359 139 83 81 
197 166 421 123 108 103 
190 772 250 99 114 131 
285 272 299 100 27 22 
179 241 287 68 94 116 
195 754 399 168 155 149 
254 671 136 91 105 119 
206 694 464 131 155 184 
263 185 358 115 77 56 
245 663 146 86 102 118 
255 436 185 84 111 147 
203 531 181 97 128 172 
188 64 291 107 87 65 
273 930 274 66 55 45 
301 716 370 164 178 199 
244 371 367 90 106 124 
176 476 183 178 154 130 
274 406 244 131 134 141 
158 584 359 61 102 132 
197 582 398 138 144 161 
271 116 318 69 56 41 
154 427 243 54 75 95 
303 260 353 140 97 90 
226 590 397 123 139 159 
198 656 423 57 78 105 
256 573 390 134 143 158 
163 703 362 123 76 49 
219 715 203 82 92 145 
153 321 202 115 77 71 
204 354 326 58 65 75 
188 429 383 105 46 22 
220 900 385 169 133 107 
270 841 239 182 153 126 
267 585 380 131 139 154 
294 420 349 80 114 158 
288 495 342 147 148 155 
195 658 473 136 102 78 
172 498 377 136 151 171 
245 651 476 61 100 131 
161 531 295 116 125 143 
140 372 249 140 141 148 
188 66 295 109 88 64 
252 319 370 120 139 160 
255 728 507 170 193 222 
225 365 374 147 113 83 
298 740 298 140 132 142 
261 242 211 122 61 75 
267 684 121 70 101 127 
166 487 189 209 174 134 
189 68 290 107 87 66 
251 566 395 125 139 158 
184 667 405 95 106 121 
186 377 331 74 75 83 
284 435 267 77 102 133 
143 357 252 74 116 148 
254 748 150 116 146 177 
230 836 232 130 110 89 
212 922 298 126 71 39 
189 70 291 108 87 64 
294 783 310 145 124 104 
296 685 256 121 124 132 
266 160 347 67 53 40 
182 751 243 65 74 113 
165 317 255 87 108 132 
299 676 311 108 114 124 
225 686 222 66 89 133 
202 185 307 110 37 58 
146 685 307 88 114 143 
161 749 302 151 111 97 
197 156 258 99 80 59 
312 94 321 135 109 81 
298 511 227 97 120 147 
203 553 404 115 130 147 
223 346 184 77 100 123 
221 821 243 142 114 87 
254 609 375 112 131 160 
164 521 367 118 132 150 
220 874 375 139 104 82 
155 652 328 81 80 82 
163 307 247 98 105 118 
255 286 269 126 123 124 
223 777 436 178 157 140 
167 601 271 106 126 151 
245 222 278 101 43 43 
177 485 185 165 140 120 
210 936 381 174 132 109 
294 597 196 110 130 152 
218 752 439 125 127 133 
268 274 205 73 110 140 
285 572 351 149 162 181 
156 391 191 85 122 157 
272 848 356 201 146 116 
192 650 436 139 95 76 
267 952 284 74 57 37 
184 184 366 74 44 58 
221 730 427 116 66 90 
296 602 211 154 163 179 
279 826 229 159 138 130 
234 655 215 51 65 83 
221 257 318 90 59 53 
281 657 260 63 110 153 
167 159 282 117 45 41 
242 631 173 82 99 115 
263 380 211 118 141 165 
237 144 313 76 59 44 
258 830 404 198 132 108 
267 840 235 181 161 146 
141 262 204 101 69 75 
264 629 398 73 95 116 
273 202 305 118 42 41 
270 672 129 86 99 113 
311 87 301 133 102 73 
288 527 216 175 181 195 
189 70 296 113 90 68 
145 434 264 66 81 99 
198 402 379 133 106 74 
295 726 381 84 46 55 
172 164 285 86 37 38 
268 994 345 108 91 75 
161 727 321 175 91 23 
244 867 298 150 111 85 
251 625 366 124 129 141 
264 499 395 175 166 164 
289 619 242 168 168 176 
201 364 373 130 103 72 
209 165 323 34 65 99 
158 565 299 85 100 126 
155 491 220 178 151 124 
226 899 384 159 124 95 
195 668 467 122 125 177 
159 583 362 72 120 157 
212 275 412 91 97 113 
162 519 204 201 84 12 
226 96 301 111 87 63 
208 875 366 135 106 80 
156 509 284 96 111 138 
167 300 214 127 59 68 
272 649 347 65 68 72 
199 787 363 195 141 112 
284 408 285 103 124 147 
278 902 292 93 74 57 
274 729 464 115 132 154 
206 467 386 143 141 146 
200 804 320 199 145 126 
274 92 329 89 74 58 
220 567 407 108 125 156 
295 758 178 182 179 186 
293 72 302 135 109 84 
180 356 222 119 118 123 
282 661 168 188 185 191 
270 662 269 126 128 137 
226 132 324 97 66 4 
271 928 363 111 81 60 
272 34 349 131 103 83 
172 467 357 105 128 152 
173 761 256 201 120 131 
208 641 222 159 96 82 
188 287 160 126 39 43 
256 854 269 224 164 128 
189 73 295 112 89 66 
274 768 443 145 119 99 
207 391 328 54 70 89 
293 941 323 64 51 41 
260 204 224 125 76 71 
311 50 310 123 111 103 
290 481 325 112 129 148 
278 433 237 69 104 135 
274 841 247 152 127 108 
193 651 436 134 88 72 
267 828 400 200 136 107 
148 407 192 154 154 162 
170 497 190 228 191 143 
247 495 175 81 116 151 
227 377 370 170 145 120 
272 548 202 190 191 201 
203 683 494 171 174 184 
225 806 201 60 64 120 
285 670 163 121 135 151 
190 239 295 85 87 97 
189 78 289 114 91 66 
163 557 334 92 106 130 
189 473 379 97 111 132 
201 357 396 196 165 133 
265 23 307 130 114 104 
171 145 285 116 82 39 
272 332 261 77 100 122 
185 230 290 93 66 83 
190 79 289 115 91 66 
245 364 174 150 146 148 
288 853 320 183 135 108 
190 79 290 113 90 66 
286 228 355 98 101 110 
287 450 258 54 83 106 
164 714 257 118 132 148 
230 899 308 120 94 61 
283 333 359 150 149 155 
153 585 252 88 125 162 
153 461 199 116 135 152 
237 326 187 80 105 127 
166 364 181 131 87 91 
298 751 253 112 52 67 
136 534 240 153 163 179 
190 153 257 108 84 72 
212 262 409 70 109 140 
297 743 310 135 12 40 
168 536 376 135 150 171 
236 585 205 122 138 163 
150 205 261 79 57 40 
237 729 168 131 130 134 
165 480 285 56 81 125 
190 671 253 143 133 130 
157 628 304 170 160 159 
293 956 312 88 73 59 
166 508 367 123 135 153 
209 305 388 127 66 97 
210 595 210 74 114 174 
218 144 380 107 89 71 
275 842 252 123 88 61 
169 359 302 130 47 78 
175 215 362 73 39 60 
232 253 402 74 85 112 
269 164 358 70 60 54 
190 137 361 106 80 62 
269 966 366 120 94 83 
304 710 229 165 165 173 
152 278 180 52 81 103 
302 723 311 168 131 144 
235 938 277 61 51 43 
266 330 360 80 122 156 
297 803 367 161 118 81 
191 75 298 115 92 69 
172 174 365 92 35 42 
209 695 245 68 93 123 
190 77 296 115 92 70 
192 246 300 133 128 129 
298 714 391 165 174 190 
191 77 297 117 92 71 
288 593 283 184 174 173 
157 603 335 62 87 132 
141 523 236 131 138 169 
288 223 298 87 40 36 
287 791 205 113 129 154 
218 192 339 84 51 26 
280 739 131 231 222 224 
231 665 497 110 90 70 
189 787 346 200 144 118 
161 165 375 134 59 17 
192 361 379 162 123 69 
175 289 294 78 100 123 
180 189 408 120 108 108 
193 651 466 133 102 74 
204 420 173 143 142 148 
270 316 288 79 93 111 
157 461 188 104 134 162 
246 822 416 199 137 113 
275 340 362 74 112 144 
238 719 168 84 96 128 
248 490 176 102 123 148 
272 725 473 148 168 192 
204 778 233 151 102 70 
167 332 341 78 96 115 
217 700 396 81 126 161 
298 739 283 179 40 55 
272 68 336 112 91 72 
203 361 330 90 87 89 
291 577 297 87 112 155 
259 506 182 82 110 142 
243 679 148 101 109 149 
235 353 370 65 94 121 
176 671 405 75 100 144 
163 678 353 160 92 63 
280 912 351 114 75 50 
282 953 365 102 85 71 
271 643 299 79 112 143 
238 654 163 110 107 159 
263 427 202 108 115 124 
295 634 171 138 148 163 
165 514 366 60 91 133 
203 896 371 124 93 76 
210 409 376 156 61 7 
213 207 329 100 72 50 
256 514 398 120 122 149 
231 785 179 112 137 173 
269 920 260 93 75 60 
169 281 346 111 107 106 
214 213 337 63 57 56 
220 921 278 117 94 67 
159 607 362 124 142 173 
192 641 422 128 82 70 
272 689 492 131 155 184 
232 1004 312 138 111 84 
207 144 411 116 105 96 
160 751 269 182 94 47 
224 784 203 127 143 162 
281 656 142 85 110 133 
254 434 388 51 90 135 
247 775 168 91 127 170 
274 660 275 125 131 143 
231 146 363 119 90 71 
307 685 350 111 130 159 
289 849 311 174 132 100 
274 798 419 120 134 150 
209 116 306 97 77 57 
238 612 209 71 89 105 
266 931 369 124 94 76 
204 700 493 136 156 180 
261 309 223 125 135 150 
157 676 321 162 141 118 
283 827 248 179 151 125 
219 932 279 107 82 65 
178 175 362 76 35 42 
250 314 372 163 160 165 
180 467 181 163 162 170 
269 762 466 101 97 99 
288 684 451 124 148 177 
313 123 314 122 98 70 
260 338 210 81 108 133 
275 640 381 84 101 120 
209 680 504 145 156 171 
247 262 264 51 55 69 
178 405 387 179 80 10 
187 246 292 79 38 53 
297 524 333 137 145 161 
163 361 234 87 95 107 
261 388 202 188 141 80 
163 706 351 137 80 74 
205 262 400 69 107 138 
247 631 404 50 70 89 
260 319 218 150 149 155 
285 58 305 110 92 73 
288 671 218 95 130 177 
208 128 274 95 83 71 
279 875 332 141 104 75 
269 652 318 38 55 71 
213 922 279 132 108 87 
293 619 220 124 146 170 
190 463 327 66 74 94 
287 530 370 34 71 143 
292 777 379 106 85 68 
224 822 349 182 128 109 
212 680 507 104 126 149 
182 201 406 110 89 111 
185 144 392 122 99 85 
183 287 341 91 95 103 
165 229 273 91 31 46 
192 606 392 103 122 144 
260 834 214 71 89 105 
182 781 330 134 133 141 
242 444 170 153 100 106 
275 713 116 84 94 144 
230 375 369 168 141 113 
185 368 332 77 76 78 
276 630 418 68 84 101 
271 664 285 53 44 42 
160 740 307 143 82 54 
202 785 369 192 140 111 
257 211 216 115 95 78 
173 422 331 57 79 112 
156 379 203 135 133 138 
195 949 326 78 63 51 
166 234 382 40 59 87 
255 755 483 209 172 124 
283 976 346 86 70 62 
257 268 235 144 54 88 
161 496 285 91 112 143 
225 805 202 68 62 116 
214 818 261 178 162 153 
292 442 318 110 126 150 
232 999 331 123 99 78 
228 827 207 171 139 120 
291 584 198 90 111 131 
236 562 404 69 81 116 
155 402 267 53 82 110 
160 713 334 100 77 76 
306 532 292 142 148 162 
197 13 274 131 121 115 
276 944 283 74 60 45 
240 820 386 176 126 95 
186 180 412 138 105 110 
286 472 332 89 112 148 
172 631 239 172 131 123 
298 752 236 171 25 41 
160 374 192 120 101 97 
286 386 362 159 128 94 
159 438 333 39 71 127 
129 499 247 145 152 166 
180 369 158 149 118 107 
194 776 383 116 138 161 
168 573 228 77 96 143 
265 48 333 102 80 56 
240 546 184 125 139 190 
139 505 270 76 103 135 
238 160 400 131 79 39 
292 782 257 116 115 118 
208 160 333 37 70 99 
160 593 301 139 118 112 
222 708 414 115 126 144 
271 850 264 140 118 97 
274 234 359 74 97 118 
156 374 279 129 130 137 
294 335 314 134 67 74 
255 368 369 137 133 135 
171 473 376 81 111 155 
266 679 514 157 166 180 
183 269 231 112 77 57 
184 138 369 112 72 39 
294 794 375 99 96 97 
157 672 357 189 120 52 
163 495 348 120 131 148 
243 639 410 58 73 90 
184 237 398 139 67 79 
286 560 215 133 136 144 
274 973 289 93 75 57 
197 558 193 109 131 180 
211 900 383 165 112 104 
285 589 309 113 131 159 
211 988 329 115 95 80 
218 988 366 102 86 74 
176 687 255 129 147 168 
165 334 255 137 94 19 
198 540 393 92 104 140 
251 241 275 37 34 38 
202 417 173 126 132 142 
205 692 459 138 141 188 
223 709 467 102 139 173 
286 856 305 166 126 96 
147 237 256 45 46 51 
154 271 255 126 124 129 
296 121 306 117 94 66 
187 267 199 142 33 26 
160 305 172 137 70 68 
291 553 224 84 103 122 
259 865 283 167 125 89 
243 153 322 73 60 51 
275 254 362 122 101 110 
205 193 308 95 43 57 
279 351 260 156 155 161 
162 749 313 76 77 97 
166 291 243 68 57 68 
191 307 312 118 123 133 
198 174 360 83 61 59 
176 287 343 103 112 125 
239 148 390 125 83 39 
253 959 380 150 116 94 
269 517 190 84 112 155 
208 140 354 108 87 72 
154 468 341 107 129 161 
197 10 282 119 107 99 
222 876 350 122 84 45 
252 224 373 143 49 81 
301 285 307 141 36 82 
281 640 389 92 109 128 
188 143 335 132 72 0 
158 326 281 106 113 123 
295 689 232 83 103 124 
265 10 343 113 102 96 
189 300 202 81 47 68 
232 997 293 117 87 63 
203 350 395 194 159 120 
240 573 400 126 137 154 
291 614 233 170 170 178 
273 203 305 118 39 29 
161 439 332 53 87 127 
272 591 187 106 122 140 
140 278 257 116 123 135 
184 558 200 107 115 163 
221 732 220 115 127 141 
190 773 250 97 106 119 
253 660 491 50 89 118 
159 583 302 106 127 151 
153 286 189 50 54 68 
295 605 220 107 126 165 
295 748 349 75 112 144 
201 11 277 125 112 100 
162 664 285 67 101 130 
262 901 365 164 122 94 
130 497 244 134 143 157 
301 576 239 133 151 172 
226 645 417 69 83 99 
191 470 379 130 133 142 
293 792 271 148 139 136 
317 250 323 123 58 60 
290 741 392 170 57 63 
284 471 348 78 108 158 
150 452 233 136 76 33 
289 896 334 97 79 65 
299 734 140 119 122 161 
169 505 358 117 132 152 
270 483 389 124 135 153 
166 486 188 210 176 135 
174 767 263 239 237 238 
164 371 186 119 27 77 
287 644 411 121 136 155 
185 379 177 68 93 115 
200 14 275 141 126 114 
257 980 280 104 85 63 
240 882 375 152 112 83 
176 528 315 104 117 139 
165 310 268 98 101 109 
177 270 224 85 79 83 
297 481 247 115 123 134 
282 89 305 111 88 62 
258 259 278 64 53 68 
246 845 236 174 142 108 
303 719 227 85 142 184 
239 399 376 118 110 110 
231 812 396 180 133 103 
203 946 298 98 79 69 
182 379 165 113 73 79 
180 464 295 69 85 129 
205 176 307 114 62 62 
234 767 464 148 148 168 
296 338 334 91 108 127 
289 458 254 63 87 110 
271 751 463 163 36 49 
219 795 384 196 140 114 
273 842 247 200 167 133 
290 943 294 78 62 51 
263 399 215 147 98 25 
211 460 388 77 95 124 
234 754 480 162 36 54 
279 293 296 101 79 66 
294 640 205 76 125 164 
175 138 262 152 91 38 
179 171 363 85 45 34 
287 592 288 162 160 166 
165 668 377 119 128 141 
199 145 270 102 82 58 
223 225 416 106 96 107 
186 211 291 42 63 98 
148 481 268 106 119 139 
224 645 431 75 82 92 
214 152 418 144 65 5 
262 62 320 93 72 53 
293 55 306 113 98 82 
136 444 273 91 119 150 
156 405 265 64 91 116 
276 654 329 122 126 135 
224 710 457 123 156 187 
283 753 421 92 117 142 
140 285 195 156 39 75 
294 632 163 106 117 130 
181 771 258 129 122 129 
167 476 286 87 103 133 
169 398 171 119 125 136 
204 12 276 123 109 96 
165 606 352 84 96 122 
163 641 365 102 85 103 
276 455 218 119 133 152 
262 230 297 66 40 45 
149 657 331 49 62 85 
275 355 248 88 140 179 
247 958 282 81 60 36 
163 555 370 167 169 178 
257 239 289 63 34 36 
181 678 407 67 80 128 
292 495 329 166 162 165 
281 953 289 74 57 44 
196 381 317 57 88 114 
229 145 377 124 91 67 
251 551 193 93 112 168 
193 153 258 104 81 61 
218 321 377 118 112 111 
240 564 194 132 141 172 
197 129 282 100 81 65 
227 662 206 79 79 97 
152 387 202 95 115 136 
298 746 170 117 148 178 
166 178 256 89 53 14 
217 922 385 177 126 109 
261 615 350 167 160 161 
184 683 438 38 74 143 
311 64 328 130 106 81 
293 804 286 176 160 149 
265 470 187 58 93 130 
202 629 415 88 75 63 
215 644 224 182 118 103 
179 197 406 112 115 123 
289 848 319 181 134 106 
193 389 390 189 154 116 
167 439 358 74 98 144 
179 311 149 112 119 131 
224 681 220 94 105 136 
202 804 269 146 106 80 
271 886 297 156 118 83 
175 318 236 104 98 100 
293 769 193 166 173 188 
186 206 291 44 21 48 
276 466 377 146 153 165 
279 544 375 105 118 157 
265 631 303 160 156 163 
295 464 306 128 138 153 
168 172 368 119 33 43 
288 301 356 100 112 126 
142 293 195 154 37 74 
189 320 175 98 45 46 
203 809 316 196 142 121 
289 781 191 169 183 203 
312 271 318 163 26 33 
171 258 280 64 101 130 
167 644 260 57 75 92 
259 231 295 74 43 34 
258 184 360 109 111 117 
232 840 328 170 113 97 
246 612 382 139 136 144 
222 677 407 109 137 165 
187 675 433 34 61 121 
315 261 324 105 56 83 
222 687 519 113 133 153 
297 465 296 131 141 155 
160 273 175 122 73 8 
190 275 388 133 137 146 
161 153 264 95 84 70 
166 400 178 139 138 143 
204 9 285 98 87 79 
204 9 286 94 85 77 
200 927 327 127 94 72 
149 691 297 66 78 90 
204 10 284 102 90 81 
157 174 390 102 64 69 
276 966 361 106 86 75 
294 776 308 161 148 140 
195 963 342 140 111 92 
223 758 198 104 130 159 
205 10 287 91 81 74 
301 228 352 100 64 82 
253 194 291 114 24 34 
280 726 446 156 173 195 
150 345 191 66 56 93 
297 529 332 108 125 158 
181 263 393 115 52 62 
265 456 396 162 163 171 
174 182 406 64 102 131 
218 460 394 142 145 157 
263 590 191 87 116 142 
309 111 319 114 92 68 
192 232 300 98 65 75 
308 698 307 117 133 154 
196 659 477 131 102 73 
160 550 225 155 63 103 
300 926 351 133 110 87 
164 485 188 210 177 141 
220 724 489 144 163 187 
285 463 341 71 107 152 
224 722 432 59 56 109 
159 480 192 205 172 131 
268 542 196 99 124 165 
308 216 348 80 89 109 
240 968 285 110 85 56 
238 228 411 106 85 100 
