ply
format ascii 1.0
comment Created by CloudCompare v2.11.1 (Anoia)
comment Created 2/28/22 9:46 PM
obj_info Generated by CloudCompare!
element vertex 2010
property float x
property float y
property float z
property uchar red
property uchar green
property uchar blue
end_header
183 288 319 72 74 80 
327 170 339 88 79 69 
238 627 218 149 100 80 
305 925 324 61 50 45 
187 268 316 77 74 77 
329 741 181 133 159 187 
282 909 363 171 123 96 
282 336 260 81 96 111 
230 828 319 188 122 105 
180 637 394 151 108 92 
173 296 284 106 114 126 
167 384 250 74 99 139 
192 224 386 143 98 81 
213 802 282 87 101 116 
242 835 280 198 143 120 
252 688 177 69 104 152 
268 308 254 119 115 116 
179 681 423 57 86 136 
299 1002 310 135 100 78 
309 498 216 143 143 149 
189 675 498 105 118 149 
194 633 407 79 71 70 
276 888 349 150 114 82 
211 334 142 125 45 70 
280 649 341 111 115 123 
259 820 414 199 128 105 
281 583 374 178 178 186 
264 199 364 129 99 84 
285 595 343 202 187 180 
194 79 291 113 91 67 
173 373 182 150 149 154 
280 138 329 70 57 43 
194 77 292 115 92 69 
277 821 202 205 36 46 
207 270 122 153 128 108 
290 440 274 67 93 116 
216 563 407 102 122 152 
172 516 344 65 88 132 
260 11 345 113 103 97 
268 815 197 193 35 64 
211 727 458 61 43 56 
160 464 329 80 106 144 
293 467 330 104 118 141 
190 405 298 77 89 108 
194 79 294 116 92 70 
204 367 140 162 107 100 
169 386 381 172 138 98 
223 151 425 154 70 5 
158 278 232 86 104 123 
336 217 321 143 37 15 
180 291 320 71 72 77 
282 484 388 98 119 155 
329 204 309 129 52 21 
208 350 168 95 67 83 
252 749 180 115 125 151 
248 151 340 81 69 62 
275 628 178 63 86 107 
194 74 297 116 93 69 
240 182 401 102 77 85 
330 689 126 120 108 101 
194 74 298 116 93 70 
234 624 422 61 93 118 
284 493 383 160 159 165 
274 633 174 61 93 119 
195 75 299 114 91 67 
185 569 243 89 110 160 
181 652 263 148 145 150 
294 818 215 148 113 73 
321 54 310 121 111 102 
266 201 221 117 85 61 
299 663 341 45 53 62 
260 843 271 206 155 129 
182 173 260 49 47 49 
261 643 452 143 146 155 
172 473 318 81 95 113 
162 228 354 55 71 96 
260 437 393 44 81 116 
196 445 309 86 97 110 
162 606 338 164 169 182 
259 189 364 122 93 98 
208 524 184 65 120 167 
296 970 319 94 71 53 
193 148 273 111 76 62 
238 399 373 129 89 65 
232 151 357 105 86 72 
196 72 301 114 91 68 
294 663 305 78 99 119 
315 518 292 129 144 164 
185 619 250 49 52 76 
246 711 498 138 144 165 
201 943 357 173 138 113 
176 307 173 40 63 95 
168 743 363 182 163 151 
169 751 343 151 119 107 
246 828 260 111 107 128 
307 693 372 73 109 168 
161 569 347 94 114 136 
306 677 314 146 148 155 
197 74 302 118 94 70 
268 638 422 12 57 115 
273 351 180 150 151 158 
208 173 412 146 122 106 
198 74 302 119 94 70 
216 716 518 134 142 194 
292 348 360 72 112 144 
316 743 147 201 198 230 
251 121 304 96 83 71 
164 369 282 82 101 131 
230 282 365 78 122 155 
272 633 325 92 121 152 
177 298 181 90 70 85 
243 759 222 88 89 107 
242 346 184 118 97 84 
210 924 370 142 101 89 
291 669 260 135 138 147 
170 522 345 99 118 138 
216 697 439 117 152 185 
197 77 301 118 93 72 
248 662 504 78 109 140 
244 714 168 133 142 194 
253 925 275 65 53 43 
226 798 426 117 131 148 
172 533 217 97 116 149 
250 785 203 135 149 171 
198 76 303 122 97 75 
217 923 312 128 74 58 
210 716 463 91 111 133 
157 335 325 116 105 101 
295 484 342 91 110 137 
296 528 211 180 191 212 
280 228 293 72 38 29 
310 779 272 142 119 95 
202 297 137 108 79 68 
164 585 339 74 94 128 
284 429 261 55 93 132 
199 79 303 122 97 76 
213 672 248 124 117 115 
163 707 282 80 64 64 
287 386 307 111 128 149 
163 610 331 60 105 154 
277 973 368 92 74 58 
183 272 145 160 59 9 
207 312 169 90 37 42 
173 372 360 176 148 119 
198 65 304 107 86 65 
301 665 370 150 150 156 
174 370 386 188 158 123 
186 356 166 73 45 78 
177 155 364 132 80 0 
192 673 403 57 76 118 
302 557 329 149 156 169 
243 708 230 85 101 119 
299 398 330 152 154 164 
198 68 305 111 91 70 
209 921 368 162 121 104 
188 262 189 67 91 113 
237 697 518 151 151 173 
185 380 156 79 130 167 
223 716 517 182 185 205 
298 846 298 189 140 108 
222 778 446 161 140 124 
328 86 311 129 94 78 
304 928 308 68 55 47 
259 219 245 79 105 128 
284 761 404 177 161 149 
277 597 366 146 156 173 
213 360 178 118 120 126 
208 390 170 102 108 119 
314 749 253 172 23 55 
170 549 271 126 113 123 
182 693 362 163 142 124 
290 244 361 143 75 81 
180 373 175 68 108 139 
205 385 146 177 147 156 
319 619 181 133 140 153 
180 206 257 92 51 68 
195 277 398 140 141 149 
287 585 198 102 126 152 
270 636 375 69 92 113 
171 674 373 126 107 98 
191 619 425 110 96 84 
285 665 273 127 129 137 
309 783 191 184 201 225 
293 443 349 67 103 160 
175 376 229 118 130 147 
167 423 254 101 119 145 
211 676 522 80 87 96 
318 651 153 93 111 129 
324 260 349 111 44 57 
191 628 240 78 49 52 
292 825 373 204 142 112 
270 162 277 148 127 111 
288 437 206 71 90 108 
255 655 220 83 85 91 
291 607 186 90 120 147 
261 326 224 149 145 149 
207 275 159 120 51 10 
201 69 307 112 92 73 
320 130 318 111 90 66 
337 184 340 157 70 5 
292 850 345 158 114 81 
207 351 135 135 91 140 
178 267 245 130 131 136 
288 792 395 182 161 145 
295 771 375 187 137 66 
249 371 176 102 115 131 
262 818 414 198 125 99 
312 781 249 148 122 103 
280 159 349 69 57 44 
311 182 297 162 66 3 
271 11 331 122 109 98 
254 214 259 92 90 92 
301 664 364 94 117 140 
236 584 212 83 110 163 
270 763 436 155 143 136 
276 238 362 105 92 111 
261 306 358 120 134 153 
250 223 369 128 76 74 
240 499 172 78 114 170 
181 346 205 68 86 107 
239 158 311 98 57 45 
320 139 316 112 91 67 
205 65 309 113 93 75 
201 410 361 162 70 5 
324 279 346 142 35 70 
192 145 380 123 108 99 
237 836 318 163 109 93 
287 839 361 205 146 115 
241 394 372 107 100 102 
248 621 385 40 66 86 
162 321 271 106 15 43 
275 353 372 80 100 123 
309 129 305 121 96 66 
219 320 191 126 38 11 
188 359 374 160 130 92 
231 427 170 155 152 156 
167 412 227 90 104 119 
287 886 311 142 108 80 
266 742 452 165 55 67 
165 524 358 114 130 157 
230 688 526 126 140 195 
255 277 240 98 79 85 
230 591 397 98 124 162 
236 878 309 149 113 80 
319 705 300 168 173 186 
301 552 346 164 164 172 
160 388 208 98 124 151 
304 599 250 128 148 171 
302 382 325 168 103 123 
312 199 350 92 73 85 
293 771 380 150 122 91 
214 688 528 84 103 156 
195 482 376 153 150 155 
159 221 341 38 50 77 
207 71 308 119 94 78 
259 63 291 101 87 73 
188 347 147 128 113 115 
200 72 306 120 97 77 
184 671 487 44 34 67 
265 633 180 113 86 104 
278 488 182 86 112 139 
158 625 370 159 107 99 
172 738 290 67 78 109 
298 464 231 92 111 129 
248 696 152 76 109 158 
252 781 192 124 150 178 
157 358 341 154 119 74 
266 613 355 171 160 158 
188 553 272 73 70 87 
211 296 180 74 47 57 
327 732 210 127 153 186 
215 571 199 150 160 191 
160 219 341 44 53 76 
193 346 313 82 92 105 
202 74 307 122 98 80 
187 508 372 135 138 150 
212 740 459 166 130 97 
290 469 192 53 91 128 
275 371 184 133 141 153 
317 310 339 98 123 160 
173 345 228 137 140 149 
227 392 176 79 110 137 
273 621 188 78 103 134 
168 564 341 68 88 125 
316 65 328 141 118 96 
200 79 304 122 98 77 
183 356 161 59 76 105 
299 490 334 104 120 138 
281 412 272 100 118 142 
252 780 454 203 161 111 
272 1007 296 132 101 73 
257 921 269 79 62 47 
199 565 401 80 97 134 
184 736 380 121 106 102 
176 277 220 113 96 102 
311 99 323 117 95 71 
181 765 308 203 170 136 
184 268 219 103 61 69 
232 108 283 98 81 62 
190 290 311 69 52 51 
205 965 349 178 137 112 
268 674 186 58 85 129 
309 766 280 40 38 85 
199 779 364 195 143 113 
258 844 350 160 113 88 
186 428 362 103 89 76 
241 151 417 162 73 5 
263 685 180 85 86 108 
176 327 237 141 143 151 
270 655 185 122 86 69 
231 599 395 141 146 157 
256 670 503 104 130 172 
303 180 296 163 68 0 
262 1015 322 127 98 66 
233 837 315 153 96 81 
296 662 328 125 127 133 
245 152 388 137 114 93 
272 772 175 160 170 198 
310 353 345 144 99 128 
236 927 279 107 85 65 
168 662 366 48 64 86 
162 615 360 75 85 103 
195 290 197 115 82 66 
261 569 393 130 142 159 
213 804 295 194 143 121 
260 660 486 149 156 170 
279 391 287 95 112 142 
247 276 203 41 52 76 
286 858 343 188 137 104 
186 579 265 108 116 129 
168 176 379 59 88 118 
288 99 301 121 95 64 
211 413 364 151 65 10 
266 782 435 146 112 80 
254 879 301 155 119 86 
194 710 382 125 53 56 
206 79 306 118 95 74 
207 428 366 107 93 81 
325 206 347 38 75 116 
234 918 298 94 75 51 
301 783 346 149 137 130 
290 654 287 97 122 150 
195 80 288 115 92 67 
284 296 359 104 131 160 
296 455 269 38 75 101 
163 595 313 154 164 181 
156 355 323 138 135 137 
198 618 231 97 79 77 
185 154 257 100 51 25 
291 453 255 27 73 104 
294 917 351 118 91 73 
287 646 296 97 74 83 
168 424 200 152 129 106 
241 872 373 133 96 67 
195 83 289 112 90 66 
160 494 232 93 110 145 
260 905 276 96 77 59 
306 548 317 118 133 156 
186 773 314 172 168 169 
172 615 416 122 103 85 
165 390 320 83 99 120 
299 823 352 181 132 100 
258 672 496 157 171 197 
307 560 278 107 130 164 
279 24 306 147 129 115 
304 723 346 181 29 49 
262 774 450 161 140 125 
195 80 295 118 92 70 
279 555 380 120 124 151 
244 397 173 122 127 138 
309 331 314 145 123 100 
286 763 399 87 80 75 
270 855 281 222 162 126 
241 698 509 106 123 167 
262 633 371 46 64 80 
195 82 295 117 93 70 
261 294 245 130 64 24 
187 504 188 173 165 164 
170 741 367 57 45 73 
173 294 283 107 116 129 
313 536 240 85 107 146 
261 310 216 149 147 153 
261 890 295 103 80 58 
312 693 346 172 170 177 
165 179 363 84 57 56 
240 213 378 152 50 83 
280 441 193 88 102 118 
210 464 173 176 172 179 
260 695 139 120 159 204 
183 276 160 80 32 53 
262 727 463 185 39 59 
287 968 364 89 66 55 
171 383 222 120 133 150 
262 987 364 129 107 84 
278 283 358 167 162 164 
309 686 235 37 75 104 
196 84 289 111 89 66 
176 749 268 153 105 106 
202 568 213 160 163 178 
281 740 161 110 70 123 
242 217 325 71 55 57 
305 85 330 107 89 69 
183 212 259 107 49 62 
169 358 256 116 90 62 
205 432 366 114 100 88 
288 507 379 80 100 147 
183 260 152 108 52 23 
300 676 236 120 138 161 
250 128 294 113 98 86 
326 277 325 106 60 92 
309 652 216 84 128 164 
309 678 348 62 73 85 
196 86 292 113 91 68 
270 862 349 171 117 85 
300 815 344 165 122 90 
179 662 452 160 168 189 
267 920 258 72 57 43 
319 679 137 113 117 123 
174 556 276 110 112 126 
266 186 227 129 67 5 
280 766 171 108 135 179 
306 942 357 82 66 52 
176 533 281 160 159 164 
312 551 273 127 145 171 
211 397 362 121 128 140 
274 713 156 200 197 207 
286 603 318 144 156 175 
158 263 349 100 113 129 
271 280 358 110 65 80 
248 462 168 142 146 169 
292 587 326 129 134 152 
181 334 320 81 74 69 
241 200 390 153 66 68 
296 650 263 95 123 150 
203 260 404 83 108 131 
295 962 306 114 87 66 
297 1004 311 155 128 98 
211 648 457 54 67 80 
195 741 396 121 103 94 
204 940 334 117 91 71 
288 187 294 124 117 116 
221 298 364 90 44 60 
242 1001 323 123 101 79 
171 333 227 126 134 147 
305 818 262 148 124 101 
285 692 144 79 129 183 
320 302 338 105 134 163 
234 633 221 172 115 101 
312 717 321 109 131 151 
302 781 339 183 152 118 
291 371 298 148 98 21 
305 921 311 74 57 48 
208 501 179 177 151 143 
254 747 172 100 130 164 
222 930 284 128 103 80 
274 994 343 103 85 67 
221 707 523 178 194 216 
298 408 335 108 131 155 
224 928 384 148 115 99 
196 84 296 116 92 68 
252 666 505 168 169 177 
232 212 416 153 45 49 
303 771 326 154 137 124 
310 591 230 114 124 160 
189 708 371 81 29 45 
301 950 307 98 77 61 
245 804 432 204 181 163 
298 845 306 183 138 107 
229 706 240 101 116 133 
290 457 197 68 93 117 
247 262 362 124 52 73 
190 386 150 86 125 154 
282 540 199 176 177 186 
174 534 368 85 105 132 
267 627 338 117 136 159 
177 521 206 187 73 11 
210 170 334 64 51 52 
285 935 370 100 80 64 
168 227 362 29 52 89 
319 722 266 163 181 204 
227 347 187 126 122 122 
170 731 314 123 121 121 
307 330 349 178 171 170 
163 412 251 70 98 133 
295 459 236 121 124 132 
279 13 323 135 118 102 
321 151 325 110 90 68 
302 988 307 147 121 94 
170 400 337 137 120 103 
298 606 274 77 89 122 
290 819 382 205 146 116 
270 668 174 67 57 59 
255 632 210 151 101 84 
183 303 152 74 84 95 
165 163 381 158 81 18 
230 873 332 143 113 84 
206 141 409 127 113 103 
334 730 158 185 186 196 
279 657 297 80 56 59 
274 883 349 154 115 83 
196 88 291 111 91 69 
200 145 412 122 109 98 
257 467 405 92 118 156 
178 149 365 133 77 0 
239 903 309 105 81 52 
267 787 183 177 191 211 
211 488 175 142 126 114 
197 91 289 107 87 66 
267 972 292 60 51 43 
314 555 248 108 130 160 
341 708 147 61 121 164 
252 713 487 92 128 174 
189 362 376 141 3 46 
245 811 215 118 32 37 
303 655 150 132 133 137 
244 912 298 79 63 47 
270 605 358 180 172 172 
219 197 404 130 57 80 
189 760 383 131 84 52 
196 88 294 115 92 67 
180 761 362 106 110 123 
156 655 326 69 56 111 
283 433 201 117 121 128 
261 203 248 124 91 65 
164 560 280 136 132 132 
147 516 242 98 112 129 
240 859 307 162 120 88 
211 293 181 78 46 55 
309 707 358 148 169 194 
307 478 229 68 89 107 
211 938 297 114 96 80 
194 423 297 108 108 113 
149 530 230 112 128 183 
315 287 354 184 156 127 
205 768 405 173 149 127 
238 146 271 105 85 65 
269 757 169 177 186 216 
189 392 316 66 79 96 
183 637 394 144 108 89 
314 601 211 141 152 170 
180 486 187 196 166 136 
249 618 415 62 87 110 
202 191 306 66 44 53 
188 664 489 112 89 63 
283 32 317 98 85 72 
198 247 308 53 68 81 
168 197 369 140 61 59 
276 198 363 131 76 76 
165 636 361 171 119 110 
276 387 182 138 31 55 
278 923 270 58 47 36 
169 554 320 56 84 115 
251 592 216 52 65 91 
263 56 297 98 86 76 
161 482 235 120 131 147 
229 913 310 117 87 46 
239 720 233 118 135 155 
189 363 375 139 6 40 
267 492 176 74 112 165 
320 621 181 123 134 150 
224 798 384 202 148 115 
161 616 360 87 85 85 
197 94 293 115 93 69 
167 172 379 45 76 115 
242 814 422 199 138 112 
285 842 255 228 204 189 
201 308 393 126 102 135 
160 588 336 107 131 166 
215 791 378 198 142 115 
263 320 237 136 137 144 
258 287 223 138 12 69 
185 334 194 101 104 108 
256 275 229 120 104 115 
229 821 286 199 143 122 
286 355 246 96 85 103 
173 526 340 57 83 124 
193 450 364 79 101 129 
172 648 291 90 126 159 
289 909 352 120 89 61 
253 645 231 83 63 68 
337 697 159 74 120 154 
221 915 306 139 70 35 
188 776 343 192 172 157 
198 88 299 114 92 69 
188 643 386 112 83 78 
197 321 381 174 141 105 
166 309 229 67 105 135 
217 462 171 161 159 165 
270 290 206 123 41 69 
270 633 339 155 156 165 
221 210 408 143 67 67 
278 906 274 98 77 64 
161 351 343 165 143 122 
172 460 258 93 110 137 
164 304 352 75 111 141 
289 696 423 131 145 163 
236 493 171 124 133 177 
213 392 362 175 150 127 
265 195 239 116 113 114 
321 503 243 171 179 196 
159 368 219 140 143 152 
294 270 361 60 85 116 
307 106 305 120 95 67 
288 512 382 89 119 155 
210 268 143 121 76 0 
306 358 327 124 96 118 
228 413 374 134 122 116 
292 187 295 113 111 114 
199 92 298 116 93 70 
252 726 169 128 133 156 
305 496 208 82 104 127 
287 908 277 103 87 74 
322 719 258 118 157 192 
252 711 487 75 96 173 
295 482 340 124 135 150 
256 51 298 99 88 78 
321 703 285 84 123 160 
189 307 396 145 24 70 
210 552 404 128 139 156 
300 649 238 166 167 177 
293 482 194 50 88 126 
174 384 195 75 94 113 
223 370 361 131 32 51 
251 649 488 123 133 146 
206 559 202 101 132 163 
215 774 425 151 122 92 
242 981 378 100 77 64 
269 626 183 64 87 110 
194 400 310 80 90 112 
224 223 416 105 80 96 
277 714 155 121 134 181 
169 398 356 150 130 108 
158 472 320 70 97 141 
210 612 227 73 80 90 
302 798 360 136 106 75 
215 720 513 143 162 202 
307 658 233 96 120 144 
227 800 249 166 142 121 
200 86 301 116 94 70 
200 87 301 115 93 70 
194 781 345 201 147 120 
298 461 209 60 99 133 
208 285 123 199 90 3 
249 321 359 86 124 155 
220 873 351 140 93 36 
240 829 273 173 130 103 
277 839 232 202 174 150 
293 978 308 108 81 49 
200 89 300 114 92 70 
227 134 332 113 67 32 
276 26 306 158 140 126 
224 777 232 149 122 98 
201 89 302 112 91 68 
315 240 356 146 63 64 
316 120 305 122 97 67 
209 886 366 152 112 93 
267 305 358 117 135 156 
191 572 261 103 114 130 
260 637 443 70 107 138 
317 509 284 140 149 164 
191 146 405 116 105 97 
225 143 402 127 110 94 
286 1009 312 142 103 80 
304 494 315 155 154 159 
253 788 192 152 171 195 
329 70 298 156 112 77 
259 67 304 86 73 63 
176 386 318 52 65 83 
194 192 330 71 49 51 
315 617 208 118 141 166 
322 695 229 57 96 127 
286 352 249 82 124 157 
216 764 236 176 131 100 
239 585 210 96 123 183 
264 413 170 169 124 81 
219 148 369 111 88 71 
329 76 300 150 112 86 
232 825 346 179 127 109 
192 445 163 160 174 205 
176 331 169 81 67 95 
232 148 371 119 101 89 
295 533 367 122 127 165 
169 458 367 82 112 162 
327 266 319 115 44 31 
179 361 195 85 55 38 
188 426 316 71 85 106 
266 21 352 130 115 106 
194 686 510 107 125 157 
291 575 355 46 78 143 
310 665 144 112 120 131 
243 966 386 194 143 116 
286 218 361 97 84 103 
237 553 405 107 121 141 
248 621 386 45 73 94 
325 645 176 153 155 165 
266 556 196 137 146 165 
250 375 370 149 133 119 
282 598 347 190 179 176 
205 639 227 192 124 119 
210 313 176 103 37 39 
166 401 273 57 82 131 
180 306 321 56 65 76 
177 671 423 33 59 114 
181 676 375 113 44 80 
322 162 336 108 90 72 
192 650 407 52 74 96 
265 756 450 150 149 153 
305 966 337 111 88 64 
202 84 304 116 94 72 
172 405 219 107 40 87 
265 630 181 69 105 133 
215 737 448 136 37 61 
205 294 395 162 95 90 
253 726 158 121 130 173 
296 954 368 96 79 62 
202 87 304 113 92 70 
280 373 212 94 106 119 
216 968 376 205 154 135 
158 276 223 96 116 137 
204 80 306 118 93 73 
309 496 297 101 120 143 
246 337 359 122 137 156 
262 611 365 154 151 158 
256 220 265 111 64 57 
188 699 476 102 129 186 
193 180 337 73 43 43 
304 567 279 89 116 161 
189 644 246 104 94 103 
273 692 458 140 157 179 
279 487 391 82 104 153 
268 167 273 132 105 80 
186 284 316 66 75 85 
298 464 204 54 89 117 
317 67 327 141 112 92 
269 208 289 81 70 84 
179 603 368 100 123 149 
242 986 374 101 84 69 
204 85 305 112 91 69 
184 643 462 116 94 69 
165 310 353 80 110 134 
175 759 352 209 183 163 
300 467 242 115 120 128 
301 914 338 79 64 51 
307 139 303 121 96 67 
268 1007 293 120 91 68 
279 204 296 100 38 56 
284 240 362 126 80 98 
181 533 306 130 128 132 
203 299 375 106 130 155 
206 84 306 112 91 68 
277 410 211 133 51 64 
255 372 372 108 120 137 
191 702 499 137 156 180 
255 165 271 134 114 97 
316 193 300 127 120 116 
207 86 306 108 87 65 
181 331 375 154 105 61 
267 827 397 202 144 113 
233 145 269 104 87 70 
279 346 369 87 117 144 
298 911 302 75 60 49 
320 293 322 172 165 164 
163 531 353 121 129 143 
298 733 354 118 26 41 
282 637 289 70 126 167 
211 614 392 36 54 69 
253 181 369 112 93 103 
233 365 181 120 120 124 
226 351 186 121 116 115 
173 691 267 116 130 147 
184 144 375 124 110 100 
233 575 401 144 148 163 
245 729 191 133 141 159 
181 452 178 123 133 149 
269 426 389 33 66 97 
252 783 190 143 168 196 
206 88 306 106 86 66 
200 205 395 89 94 121 
299 652 256 68 108 139 
271 706 455 168 183 204 
290 430 240 80 118 153 
217 219 398 140 90 75 
310 696 360 153 155 165 
186 261 319 69 66 68 
232 217 411 91 46 60 
249 899 386 161 119 88 
263 891 289 119 85 59 
227 369 361 141 95 73 
281 817 199 217 105 72 
261 345 363 129 130 137 
267 637 423 41 72 112 
203 506 183 124 111 98 
304 653 228 161 163 171 
285 472 356 84 111 149 
161 602 352 125 142 165 
236 807 238 159 137 115 
206 93 306 103 83 63 
189 337 393 207 172 133 
238 478 169 99 124 174 
248 158 379 135 94 52 
206 95 305 103 84 63 
225 449 169 159 157 165 
148 523 256 136 147 162 
279 66 336 119 98 78 
172 336 244 129 109 91 
178 465 362 56 79 111 
320 204 303 148 46 1 
187 582 264 101 122 145 
234 798 438 78 113 147 
284 718 416 158 175 197 
310 350 335 145 74 91 
181 344 391 195 163 130 
275 155 301 98 78 54 
263 655 468 163 161 167 
175 275 176 142 64 80 
210 64 310 119 99 81 
281 602 343 138 142 156 
283 747 407 55 72 103 
205 664 498 110 91 71 
288 23 320 128 110 96 
218 468 391 82 101 133 
208 965 368 205 153 133 
257 630 433 27 52 90 
178 154 393 170 81 4 
186 423 164 80 116 147 
229 623 217 160 110 92 
301 210 355 56 81 106 
192 430 315 82 95 111 
317 751 238 154 170 188 
246 754 218 107 123 141 
161 687 353 127 86 52 
251 155 375 115 103 91 
265 71 315 84 64 45 
260 258 257 94 77 63 
269 677 189 62 82 123 
251 544 401 93 108 137 
192 775 364 182 147 110 
189 700 495 136 153 177 
211 68 310 122 100 79 
290 454 350 155 162 176 
202 289 136 135 52 10 
323 748 157 92 127 197 
267 287 257 102 76 64 
171 179 349 81 61 69 
273 627 180 81 98 114 
251 589 392 130 142 166 
156 544 271 122 157 195 
192 606 386 70 71 76 
266 848 275 214 159 130 
276 601 357 141 158 180 
224 141 330 114 54 18 
284 631 288 78 114 148 
267 612 354 167 160 162 
214 64 310 119 99 79 
220 581 204 169 174 194 
227 142 424 119 106 94 
255 717 478 117 153 186 
295 915 294 79 64 49 
310 773 272 187 167 151 
177 346 191 57 88 113 
297 657 364 153 151 157 
256 624 387 75 100 122 
209 165 339 61 50 50 
184 306 150 94 67 97 
282 593 361 159 163 174 
280 753 418 158 141 130 
190 686 367 84 70 77 
269 512 397 177 171 174 
205 634 226 126 88 69 
278 387 252 112 131 152 
226 351 185 123 117 115 
304 730 332 154 35 47 
260 492 172 84 130 173 
167 371 210 129 132 140 
234 443 390 75 102 133 
336 65 320 158 144 136 
253 351 363 141 139 143 
303 572 279 98 118 144 
206 318 130 129 121 126 
235 815 257 187 163 145 
192 183 283 95 41 45 
297 878 324 116 84 61 
310 683 256 75 101 125 
173 679 418 140 160 188 
228 140 274 102 87 72 
255 291 233 120 127 140 
246 938 392 154 115 96 
168 742 362 123 109 98 
205 700 522 74 112 185 
210 914 379 173 125 108 
284 758 404 138 126 118 
160 476 329 82 110 147 
295 156 348 87 73 57 
294 952 369 89 73 58 
242 536 182 83 114 173 
187 315 157 118 42 66 
268 683 157 101 73 74 
206 504 393 112 124 140 
304 388 346 96 123 156 
163 618 382 139 106 91 
292 429 237 63 114 153 
208 78 307 119 98 77 
221 806 268 179 158 143 
209 78 307 120 99 78 
294 730 372 116 26 43 
263 319 211 140 144 154 
159 352 343 157 139 124 
185 639 416 125 83 67 
174 757 356 168 134 115 
217 505 400 51 83 127 
282 985 354 87 70 58 
183 263 153 112 52 15 
261 900 280 80 65 53 
249 343 360 115 133 154 
233 165 427 100 89 103 
338 181 316 135 118 101 
316 311 321 166 163 169 
165 534 321 82 93 108 
188 686 366 98 83 76 
305 788 307 120 101 82 
331 736 172 159 162 176 
253 256 242 133 102 80 
297 386 323 152 75 110 
190 340 374 171 137 95 
164 450 229 96 121 149 
244 163 387 156 73 4 
285 425 299 87 109 135 
325 508 273 131 143 161 
219 142 411 128 113 101 
268 993 352 112 86 69 
310 683 306 94 119 143 
266 334 235 76 80 88 
166 742 349 145 127 117 
181 511 285 123 135 151 
166 353 343 154 131 106 
303 687 385 143 147 162 
173 613 375 64 65 68 
165 677 292 90 92 99 
296 555 358 223 208 201 
239 252 370 125 94 87 
163 661 324 118 68 87 
273 367 373 144 144 150 
212 78 308 125 103 81 
231 258 375 139 27 77 
277 248 276 48 68 85 
333 240 331 114 54 39 
314 675 210 173 174 184 
263 580 390 190 179 176 
200 783 358 197 142 113 
293 674 269 89 97 107 
310 479 279 64 101 136 
291 522 378 110 128 162 
175 534 252 106 124 163 
236 415 172 121 130 143 
305 559 294 122 142 171 
217 64 310 119 100 80 
302 667 367 95 116 141 
200 346 138 105 82 86 
302 515 343 155 156 163 
204 540 196 146 147 161 
314 611 179 88 113 137 
163 417 214 120 49 62 
218 65 310 118 98 79 
160 528 211 127 151 192 
329 250 340 66 76 104 
179 324 371 139 14 57 
258 935 385 170 131 103 
252 281 199 68 55 77 
173 199 345 86 37 42 
233 617 400 92 105 120 
183 379 365 168 125 75 
223 566 195 149 159 195 
307 323 307 94 113 134 
243 785 222 117 94 93 
274 569 383 141 149 164 
297 708 136 144 159 195 
189 517 192 209 101 17 
237 217 393 100 46 64 
302 579 274 127 144 165 
330 252 325 47 46 51 
198 516 193 141 113 77 
152 506 226 74 109 144 
281 978 288 82 64 40 
186 330 164 119 75 62 
194 138 280 142 80 0 
157 390 212 107 131 156 
157 525 327 106 121 162 
291 519 195 173 176 188 
321 701 278 86 135 174 
171 146 387 124 110 99 
220 64 310 116 97 77 
250 846 342 163 116 92 
174 526 276 115 124 146 
169 735 317 107 79 58 
233 823 275 143 106 83 
166 262 359 143 142 148 
255 899 288 90 76 67 
202 175 299 116 35 61 
167 672 370 104 97 94 
244 236 370 102 79 104 
288 672 421 128 141 164 
280 374 261 148 149 157 
179 729 376 140 142 149 
173 287 256 133 133 138 
213 285 374 158 155 161 
231 796 437 166 125 127 
253 834 235 169 139 105 
192 282 383 144 142 145 
170 726 308 132 52 43 
267 695 143 97 130 211 
299 747 342 93 110 125 
309 525 237 116 128 144 
173 702 264 117 136 156 
203 319 158 93 40 46 
186 735 383 111 94 105 
184 615 261 91 117 145 
183 417 175 138 138 143 
169 630 304 162 156 157 
151 395 322 91 107 131 
267 693 468 167 178 194 
222 68 311 122 100 79 
198 363 141 143 75 65 
202 930 348 163 123 99 
245 749 202 117 126 144 
206 519 395 105 118 139 
230 89 308 120 91 66 
265 697 142 88 130 213 
287 889 335 130 93 64 
289 846 352 203 147 114 
176 335 236 132 138 150 
310 546 231 130 138 150 
293 357 358 79 90 105 
166 408 233 70 101 135 
305 567 279 91 116 161 
278 701 444 124 143 183 
184 239 272 83 104 122 
194 259 309 85 83 85 
182 235 379 138 82 79 
218 73 310 131 108 87 
219 72 310 131 109 87 
317 151 335 106 87 67 
239 746 229 96 112 131 
271 685 143 101 138 181 
200 256 215 96 32 44 
208 732 490 175 75 102 
320 295 325 175 168 170 
260 923 384 183 134 106 
332 210 343 35 65 112 
158 498 328 129 142 159 
272 745 435 99 49 49 
297 854 314 174 132 101 
161 562 282 140 149 169 
270 633 385 94 111 129 
171 448 333 124 142 163 
214 636 424 73 84 97 
161 392 335 117 105 98 
290 212 300 46 34 43 
264 194 283 81 50 61 
182 534 261 145 148 159 
279 662 435 50 85 149 
196 768 389 192 172 157 
258 829 386 184 137 111 
306 773 302 170 156 149 
301 720 361 171 92 106 
237 834 294 193 134 113 
209 172 412 142 112 96 
283 873 340 166 119 88 
302 765 332 96 93 94 
166 671 331 159 89 17 
249 1005 302 140 116 91 
312 685 298 108 86 98 
195 157 291 89 82 86 
203 131 268 152 76 20 
305 675 291 137 138 145 
245 538 183 91 109 178 
297 568 206 102 119 137 
222 798 255 173 152 134 
210 785 259 200 177 161 
321 647 166 152 154 162 
194 213 300 79 59 56 
262 972 376 132 101 85 
308 787 279 141 137 137 
312 782 246 110 3 60 
223 74 310 127 104 84 
223 75 310 126 103 82 
165 398 268 80 103 136 
303 566 295 93 114 161 
264 731 159 89 116 203 
311 513 219 121 141 169 
306 601 243 109 136 163 
297 984 317 98 75 52 
325 705 128 169 163 176 
293 443 232 72 109 157 
209 519 398 161 157 160 
269 238 362 130 103 111 
234 706 240 49 60 82 
302 796 354 137 112 95 
194 300 199 114 64 72 
182 187 383 115 118 126 
301 221 357 84 45 69 
277 103 320 67 56 43 
211 474 388 114 126 147 
299 856 337 166 121 87 
256 174 233 135 107 86 
179 365 202 115 116 119 
290 457 195 67 96 122 
189 454 291 62 78 104 
177 453 363 68 77 103 
261 247 263 61 68 84 
275 56 303 94 78 61 
291 420 319 73 104 141 
185 318 390 147 25 67 
159 544 326 79 99 159 
181 650 265 149 148 155 
166 583 312 150 158 172 
283 737 410 157 115 58 
247 623 431 60 76 101 
252 182 370 99 78 95 
185 313 319 56 67 78 
236 922 281 129 106 85 
210 82 307 120 97 75 
261 194 218 140 62 5 
202 922 353 186 141 117 
272 172 367 125 89 48 
305 956 336 96 77 58 
298 470 217 111 134 159 
311 778 185 175 192 215 
209 593 393 156 152 155 
229 247 386 115 55 90 
323 285 322 141 25 70 
208 86 306 108 87 65 
176 351 241 160 131 97 
228 988 325 126 104 81 
157 513 322 163 166 177 
209 87 307 109 88 67 
296 406 327 60 97 142 
186 533 373 148 150 159 
190 204 287 40 39 58 
269 633 177 102 129 155 
270 531 395 176 174 179 
313 558 237 115 129 155 
318 750 239 153 168 189 
173 195 374 140 91 68 
166 574 322 82 99 120 
274 450 396 134 143 162 
259 252 361 148 109 94 
158 403 334 94 91 106 
288 114 332 95 79 62 
328 85 305 141 106 86 
261 731 464 108 73 66 
301 783 358 170 154 143 
213 80 308 124 102 80 
156 665 311 110 94 85 
174 477 318 75 89 107 
325 86 302 138 97 83 
330 250 319 47 46 49 
314 580 209 91 119 146 
240 175 408 93 58 66 
182 452 282 133 136 146 
278 392 277 89 116 144 
266 189 226 128 72 11 
297 643 249 157 157 164 
247 665 227 94 105 131 
231 616 216 123 95 70 
330 220 344 53 49 71 
172 149 375 126 106 85 
159 621 372 141 102 90 
297 176 356 131 86 36 
213 87 307 113 92 70 
281 894 345 152 118 88 
279 926 370 102 78 61 
266 565 208 140 146 157 
304 738 316 160 20 45 
244 187 385 96 102 118 
303 714 134 199 191 198 
165 568 337 73 99 136 
165 483 242 117 126 140 
260 598 219 41 59 74 
292 848 285 210 157 125 
223 818 322 192 134 116 
257 304 225 90 114 139 
175 337 182 111 52 77 
220 474 394 102 121 144 
302 268 361 53 78 113 
293 42 345 137 109 91 
206 408 166 97 129 175 
230 556 408 180 172 172 
299 821 322 166 125 90 
251 168 373 153 72 3 
169 540 363 148 155 168 
181 764 359 142 105 93 
198 509 387 156 153 158 
175 412 285 44 64 125 
268 495 177 130 146 170 
273 306 261 100 113 129 
271 87 316 86 67 50 
290 17 328 113 96 78 
339 191 319 166 71 9 
247 395 379 136 119 103 
192 284 375 140 141 148 
203 698 388 103 132 162 
177 345 353 160 132 96 
187 408 316 62 76 95 
267 219 281 88 46 33 
216 796 263 205 162 110 
170 671 283 109 117 129 
315 745 253 146 151 157 
164 432 237 111 125 146 
207 799 318 200 149 123 
264 915 266 87 71 55 
211 93 308 105 86 64 
177 334 170 102 58 83 
316 172 299 134 120 109 
196 418 309 90 98 112 
284 569 210 87 110 141 
279 484 391 92 113 152 
290 562 366 119 141 169 
169 631 302 158 153 154 
166 570 338 64 89 133 
228 989 336 117 90 75 
298 812 373 191 137 104 
212 90 308 112 91 70 
172 663 288 50 83 114 
182 673 480 105 123 168 
283 1012 330 108 74 46 
203 273 125 123 109 97 
199 269 402 156 153 157 
213 515 400 64 89 135 
186 628 258 49 51 55 
174 748 274 98 93 93 
146 515 224 46 89 127 
281 980 361 93 77 67 
318 690 256 135 138 147 
166 508 333 84 108 137 
313 317 317 163 162 168 
193 591 390 89 120 152 
191 190 334 73 45 48 
183 334 155 118 65 91 
179 410 369 163 39 4 
199 744 400 138 93 59 
300 898 336 81 63 43 
250 872 307 143 108 77 
194 710 381 127 30 37 
262 893 286 108 78 54 
163 187 360 72 66 75 
174 390 225 106 117 132 
288 551 215 155 159 171 
170 647 301 71 117 153 
184 614 261 87 111 136 
303 151 301 94 80 65 
280 759 168 128 131 173 
167 712 291 106 101 103 
186 300 213 91 63 65 
300 515 203 116 137 177 
316 708 317 107 144 184 
183 169 263 86 38 25 
270 467 173 110 132 173 
290 450 253 93 112 132 
278 656 303 56 65 81 
304 319 301 88 116 143 
167 558 344 52 80 120 
296 750 156 152 163 199 
271 345 197 124 138 156 
301 488 204 69 100 142 
181 398 368 170 128 65 
269 845 263 144 151 164 
239 165 311 91 56 40 
328 263 340 108 38 50 
185 372 173 111 105 106 
277 907 271 91 73 57 
204 702 470 132 159 189 
191 256 298 98 106 118 
312 524 243 47 70 104 
295 666 295 86 93 101 
246 770 215 117 130 147 
236 145 270 104 87 69 
280 84 331 101 81 59 
316 604 202 122 146 171 
305 746 309 137 91 80 
266 719 456 168 175 190 
180 186 256 44 54 67 
185 412 317 58 73 95 
327 746 182 148 165 188 
329 707 207 101 127 150 
215 756 440 144 116 98 
240 161 424 118 108 107 
219 86 309 118 97 74 
292 976 298 107 84 59 
180 634 413 137 92 75 
252 833 239 133 101 72 
277 762 171 143 146 187 
207 797 301 202 151 127 
193 694 510 52 90 169 
266 577 388 184 174 172 
255 149 311 111 72 47 
232 858 322 160 119 95 
290 456 350 123 142 167 
283 577 205 85 106 128 
301 707 133 151 159 180 
236 815 252 157 103 78 
261 732 465 65 60 66 
293 582 337 127 135 156 
223 82 309 129 106 83 
293 850 343 165 121 89 
256 16 306 132 117 105 
216 273 125 164 129 92 
160 569 348 95 113 135 
196 160 293 91 78 81 
296 125 333 101 84 65 
298 390 327 136 143 156 
271 840 234 178 150 123 
245 492 407 73 89 138 
304 936 308 84 61 42 
218 810 339 189 134 114 
271 594 209 91 99 108 
268 332 203 154 154 160 
213 550 405 96 117 151 
189 423 316 71 85 104 
263 241 266 64 69 77 
222 817 305 192 134 113 
261 496 174 66 104 179 
233 330 191 98 64 75 
214 266 397 158 156 161 
285 786 176 143 180 216 
254 131 321 95 82 68 
216 91 308 112 91 67 
322 698 125 133 133 141 
162 538 355 106 122 155 
283 472 385 101 117 140 
260 196 248 117 69 64 
175 489 198 183 154 126 
272 417 384 73 90 111 
209 946 315 79 62 51 
313 256 358 100 84 99 
265 242 209 63 44 55 
263 274 196 83 71 86 
333 67 305 135 88 60 
219 91 309 117 94 71 
177 422 374 133 83 38 
289 467 339 129 137 150 
173 168 361 121 41 45 
176 495 199 192 168 146 
224 451 389 86 107 137 
267 784 433 72 85 103 
233 651 485 113 131 152 
306 234 357 141 39 68 
240 259 366 121 29 69 
244 737 199 120 138 159 
218 92 308 115 93 69 
183 641 459 118 95 71 
213 314 185 118 36 28 
299 349 307 146 110 67 
292 774 168 102 125 218 
279 400 181 137 53 64 
178 305 355 107 117 131 
176 327 169 48 75 116 
279 149 323 78 60 38 
188 518 193 209 83 15 
221 559 192 166 169 193 
180 758 271 106 99 111 
276 787 182 158 180 206 
316 537 263 167 169 178 
276 552 384 121 125 160 
175 482 265 66 91 134 
179 297 321 64 68 75 
150 496 222 110 129 157 
172 405 361 153 130 108 
296 463 311 91 112 135 
229 566 195 75 99 180 
222 89 309 117 94 69 
260 37 309 118 84 50 
180 185 257 41 48 61 
184 363 172 115 62 75 
183 660 409 29 48 108 
278 425 197 86 115 139 
213 775 418 169 144 122 
223 91 308 115 92 65 
176 353 384 146 34 64 
315 753 154 237 230 236 
150 351 327 144 142 147 
176 677 410 79 95 141 
224 684 529 181 183 198 
172 630 428 152 113 92 
280 96 306 86 71 53 
215 502 398 70 99 133 
213 941 291 104 83 71 
238 196 318 79 54 57 
220 725 235 99 119 140 
305 961 365 115 91 75 
203 711 514 141 143 193 
219 150 347 100 63 45 
294 859 339 162 117 87 
322 695 218 72 108 137 
293 193 357 58 67 85 
222 159 423 159 72 15 
237 271 206 91 40 37 
188 538 265 118 120 131 
259 721 151 117 132 209 
185 606 267 84 107 131 
199 294 147 112 101 95 
287 361 269 160 157 163 
297 417 358 96 126 164 
227 93 308 113 90 64 
165 569 287 113 118 129 
276 55 338 110 89 68 
205 671 507 105 87 68 
316 537 255 145 160 180 
304 54 335 114 92 67 
189 424 293 109 108 113 
309 306 356 151 133 116 
296 519 368 164 166 176 
289 357 273 150 151 159 
246 672 202 89 101 117 
285 357 365 62 103 137 
285 601 330 106 119 163 
242 502 407 155 157 167 
150 374 326 120 108 102 
316 509 250 185 184 191 
307 676 335 147 147 153 
281 149 341 68 56 42 
262 687 183 76 85 115 
189 401 361 142 116 87 
293 750 379 144 120 95 
305 744 306 134 9 34 
286 880 308 169 128 95 
160 500 320 89 110 146 
331 679 139 104 109 118 
208 266 175 84 49 62 
247 777 459 163 137 114 
265 637 429 71 108 138 
224 801 254 169 143 121 
183 767 297 200 157 104 
259 261 256 95 79 66 
217 810 336 190 136 117 
323 509 261 97 110 126 
300 661 258 134 153 181 
274 368 189 117 136 157 
278 150 314 91 69 41 
193 720 240 104 121 139 
255 147 303 123 72 35 
292 443 277 52 84 110 
293 844 279 209 157 127 
203 331 154 93 14 50 
312 263 305 155 42 13 
226 402 174 74 105 133 
305 809 231 63 58 84 
160 576 348 58 68 86 
215 717 236 115 125 139 
206 141 299 89 99 111 
270 200 230 109 111 122 
255 136 306 113 70 42 
192 455 167 151 159 189 
186 163 266 107 44 42 
208 520 397 104 115 139 
318 493 235 121 129 141 
320 760 212 133 156 182 
291 909 292 91 75 60 
210 328 131 186 84 81 
216 272 194 112 43 39 
284 763 402 165 142 124 
202 102 283 103 86 68 
290 46 345 135 112 95 
253 775 185 105 125 178 
328 734 200 149 161 180 
306 345 314 129 126 128 
176 730 372 98 64 40 
220 150 424 152 75 16 
301 784 352 109 104 104 
230 806 378 201 148 116 
248 620 422 18 51 81 
250 373 175 101 112 127 
268 334 361 73 112 144 
166 169 370 82 59 56 
256 631 203 141 99 82 
260 855 349 154 109 84 
208 788 265 154 122 103 
165 593 306 110 125 145 
268 466 171 97 118 165 
154 343 341 145 146 154 
323 171 346 115 102 91 
166 272 222 137 132 131 
295 150 298 89 75 61 
196 332 367 161 128 86 
204 97 281 109 90 70 
189 536 378 96 109 139 
308 600 235 174 176 186 
285 418 304 74 104 131 
325 707 255 119 150 180 
204 96 282 109 90 71 
175 542 236 167 171 183 
271 572 386 123 134 153 
256 276 244 92 77 87 
328 738 189 110 123 163 
173 425 351 81 100 146 
223 657 238 178 114 101 
244 170 389 118 122 133 
289 728 395 70 39 121 
187 304 361 112 126 144 
311 340 326 147 41 71 
337 196 340 116 120 127 
272 301 192 119 47 71 
206 99 280 107 89 70 
194 215 302 69 53 76 
306 44 315 110 98 90 
277 635 308 90 125 154 
175 498 369 94 120 155 
213 373 362 178 156 131 
312 630 230 160 163 174 
318 634 165 102 118 134 
297 531 362 135 142 167 
302 366 359 167 125 67 
163 402 216 127 113 106 
212 606 220 134 141 174 
248 561 400 116 132 154 
300 285 360 124 136 153 
190 310 209 83 53 73 
224 607 394 126 131 142 
260 155 342 69 60 53 
298 105 332 111 88 62 
263 568 391 128 141 159 
296 177 294 154 75 0 
168 407 319 65 83 112 
237 278 204 33 43 77 
174 284 275 132 130 134 
265 564 201 100 115 144 
246 996 362 107 84 68 
222 398 174 85 116 142 
259 285 222 118 84 101 
318 763 170 107 138 215 
217 231 412 85 54 68 
181 286 184 105 65 33 
275 588 204 91 110 131 
203 107 283 103 85 68 
189 710 247 128 138 152 
198 181 294 121 26 57 
174 618 282 134 139 150 
218 134 340 101 77 64 
203 170 299 123 73 60 
214 733 448 142 37 58 
294 708 404 148 169 193 
272 717 444 172 183 200 
177 355 388 156 0 63 
266 892 283 116 83 52 
300 668 318 97 97 101 
303 948 315 90 71 57 
171 407 192 103 114 132 
155 486 325 84 104 149 
174 677 431 54 116 157 
171 349 256 137 109 79 
202 104 284 101 85 68 
280 798 184 185 69 101 
242 890 311 128 99 67 
176 488 193 136 135 138 
243 725 194 143 149 161 
327 736 200 144 166 192 
229 790 231 81 120 150 
165 574 338 81 103 140 
294 922 357 135 81 60 
202 111 283 101 86 70 
290 943 369 85 68 58 
188 145 377 124 110 99 
211 920 327 128 95 70 
186 332 318 91 78 65 
266 68 288 115 102 91 
188 477 294 120 119 123 
253 988 284 126 93 66 
288 410 248 112 123 141 
310 530 311 179 176 181 
175 440 340 145 150 162 
292 780 173 96 120 204 
325 507 264 113 127 152 
174 506 345 109 119 133 
311 589 230 117 131 157 
301 276 361 121 81 100 
217 627 397 47 67 84 
256 588 391 183 174 172 
209 546 404 152 156 167 
166 235 359 67 44 68 
168 706 301 185 84 3 
279 821 203 212 58 54 
284 175 362 129 83 33 
192 586 231 66 103 183 
176 443 370 113 100 87 
294 621 276 73 133 175 
328 678 137 114 117 123 
300 921 351 82 68 56 
245 308 193 122 37 27 
316 718 296 164 184 210 
276 253 360 138 118 113 
182 550 217 98 80 139 
241 535 181 92 117 172 
174 309 232 120 105 108 
311 83 302 137 109 81 
203 301 387 118 111 140 
172 307 290 94 110 128 
168 346 214 84 114 142 
187 406 295 65 78 104 
243 888 384 168 131 100 
163 591 309 136 152 177 
192 723 387 117 90 74 
267 974 289 98 80 61 
268 346 366 78 78 93 
196 481 175 230 185 122 
205 109 281 104 88 72 
314 521 294 142 146 158 
283 373 238 156 157 165 
314 700 341 178 178 187 
171 171 359 88 44 27 
173 174 382 44 80 112 
303 666 243 98 117 157 
160 479 231 142 145 154 
225 414 374 120 108 99 
242 149 374 118 104 93 
213 725 450 126 61 86 
269 711 456 116 136 186 
229 650 483 64 98 135 
183 598 377 71 90 123 
217 501 175 172 166 178 
274 826 206 172 99 70 
203 367 140 157 103 90 
168 442 318 63 87 120 
258 865 298 157 117 90 
161 207 355 115 41 62 
178 660 464 131 137 151 
282 146 338 65 54 42 
250 408 384 142 113 115 
285 701 429 81 82 91 
292 426 365 68 93 153 
295 308 288 88 108 129 
220 689 529 117 129 176 
168 160 373 114 58 4 
273 692 147 141 158 208 
199 126 278 139 104 79 
301 366 309 161 122 72 
309 752 281 196 162 113 
201 697 468 147 166 190 
285 87 303 107 86 63 
303 378 323 165 89 119 
299 583 282 168 161 163 
171 407 358 144 118 103 
303 936 333 70 58 52 
307 796 300 183 163 147 
263 596 214 77 84 91 
310 570 209 37 78 109 
291 435 292 81 101 122 
213 386 174 144 141 144 
267 697 467 99 137 187 
302 768 336 153 134 117 
251 225 368 122 79 79 
207 367 147 107 73 66 
337 718 165 126 43 55 
187 444 289 99 108 127 
209 884 360 152 118 90 
318 713 129 129 129 182 
266 701 145 131 142 215 
268 504 398 126 136 156 
219 925 303 157 97 75 
293 426 362 100 120 157 
190 634 244 143 140 154 
186 222 265 90 52 58 
297 945 300 66 54 43 
212 512 180 138 151 176 
204 301 168 38 46 71 
242 714 197 161 159 164 
203 225 314 76 47 47 
210 648 457 59 69 81 
168 181 358 80 68 70 
231 936 391 122 99 76 
217 804 357 201 145 120 
198 127 282 129 84 14 
277 371 208 89 98 108 
325 738 210 175 177 188 
165 319 220 100 105 113 
240 779 225 129 22 42 
255 652 226 73 79 95 
161 280 329 106 107 113 
263 38 308 123 92 59 
271 783 425 102 94 94 
184 323 148 125 86 86 
242 500 173 75 119 160 
213 723 235 104 119 136 
310 757 273 150 89 38 
198 125 285 119 96 70 
212 259 149 116 79 3 
262 705 146 147 163 218 
186 488 295 122 120 124 
291 335 297 110 121 136 
202 140 411 125 112 102 
163 333 267 123 46 82 
321 155 320 106 88 68 
255 149 304 121 72 37 
271 295 192 122 36 52 
306 548 318 138 146 165 
313 635 226 163 167 178 
277 32 309 122 102 82 
240 995 338 134 109 89 
260 822 411 199 132 105 
177 756 297 158 135 115 
289 272 360 122 29 67 
323 491 255 83 100 119 
304 762 315 142 118 95 
170 233 333 96 63 59 
283 332 269 79 101 122 
243 757 479 207 126 130 
270 305 358 113 132 153 
311 685 288 76 113 144 
208 332 170 91 39 48 
194 274 214 74 69 70 
336 689 157 171 164 173 
182 289 147 121 96 85 
243 867 344 104 75 51 
272 619 332 124 146 171 
264 560 391 105 121 151 
211 136 266 98 83 67 
197 251 374 72 104 131 
280 511 187 142 148 163 
228 965 300 104 87 71 
190 256 144 120 88 39 
255 546 398 127 136 153 
181 346 319 71 72 77 
308 791 278 172 155 142 
260 12 311 129 114 102 
273 907 367 164 122 91 
255 1006 340 126 88 59 
270 1009 335 81 52 41 
220 798 373 202 146 119 
215 652 471 52 65 78 
184 697 477 120 152 198 
298 526 210 118 140 180 
283 652 407 146 153 165 
179 758 273 113 114 115 
210 880 359 153 118 91 
247 877 308 135 104 73 
238 822 360 184 133 111 
191 746 241 148 85 83 
302 633 247 68 122 167 
167 262 238 129 125 127 
171 635 293 137 49 71 
293 325 293 135 135 141 
312 785 241 135 110 79 
150 348 328 140 140 147 
186 514 192 207 101 16 
178 673 267 130 143 160 
151 376 335 137 122 107 
302 554 341 158 159 170 
163 362 321 119 117 121 
246 981 378 111 90 75 
263 1011 339 149 113 81 
308 528 236 75 100 131 
310 50 310 109 97 89 
319 736 243 155 172 194 
286 427 307 115 128 145 
313 759 160 202 198 234 
168 578 225 107 137 175 
245 232 369 103 73 97 
250 939 391 178 137 110 
251 524 179 125 148 195 
283 868 340 173 126 93 
259 635 438 48 94 132 
281 443 388 75 101 154 
304 955 366 117 101 88 
167 534 362 100 127 156 
242 531 403 119 133 154 
257 814 421 190 120 94 
207 592 222 138 153 175 
219 599 214 178 183 206 
268 156 350 69 60 53 
217 751 473 173 60 73 
272 651 166 107 116 134 
231 904 312 124 95 65 
299 801 197 159 182 205 
299 97 303 135 108 77 
196 276 211 74 75 77 
183 347 155 114 91 88 
265 887 368 155 117 84 
232 932 388 87 66 57 
196 559 209 132 148 186 
230 486 402 90 107 138 
281 835 227 184 156 129 
248 874 364 126 86 55 
320 91 302 145 115 87 
328 737 151 177 191 211 
183 688 475 72 114 163 
276 56 300 96 80 64 
193 439 363 131 100 91 
207 115 280 98 84 70 
241 818 241 159 139 121 
198 275 148 131 106 79 
215 895 328 124 97 67 
231 561 406 99 117 147 
293 581 335 151 153 162 
184 282 151 118 78 71 
168 550 215 113 137 207 
204 323 164 93 34 47 
242 903 307 97 75 47 
167 696 282 93 110 128 
289 708 415 171 179 194 
288 941 290 68 55 43 
250 671 236 74 97 119 
264 644 194 134 94 75 
313 80 301 133 107 82 
203 663 245 166 123 113 
206 116 281 98 84 70 
206 117 280 99 84 69 
254 422 168 140 90 16 
293 493 357 137 140 149 
210 584 398 137 137 145 
268 909 375 159 114 83 
329 61 325 139 125 115 
278 877 298 155 116 83 
217 228 408 75 76 91 
322 695 223 84 112 137 
308 662 243 107 126 170 
177 260 180 124 92 86 
264 501 176 151 161 185 
173 730 370 114 88 69 
248 65 288 121 92 53 
166 634 336 97 99 108 
163 343 286 129 49 77 
262 1003 289 128 97 76 
297 585 297 175 167 167 
249 741 486 173 35 51 
256 382 377 92 113 134 
186 631 256 58 60 66 
203 126 274 100 72 38 
191 523 380 162 159 162 
202 790 294 140 132 131 
185 581 377 109 131 156 
170 454 201 154 128 101 
288 650 383 142 145 153 
221 648 468 93 105 120 
295 353 299 131 95 52 
186 382 317 42 65 85 
264 601 380 99 111 148 
263 1015 327 92 65 32 
285 817 389 203 144 111 
200 127 277 143 110 86 
274 657 440 113 135 158 
183 642 424 136 90 75 
199 654 239 108 55 63 
233 711 239 88 100 114 
267 191 232 141 67 7 
302 778 339 159 138 120 
241 761 226 70 85 103 
325 715 254 99 138 187 
215 134 336 116 69 33 
306 543 329 184 178 180 
167 166 371 99 78 64 
232 689 244 102 113 131 
247 564 200 89 113 162 
313 616 174 66 105 136 
174 560 305 79 114 146 
168 495 245 110 124 141 
310 287 304 80 124 159 
272 898 363 155 117 87 
289 131 301 97 79 59 
145 524 235 134 155 182 
292 297 283 120 125 134 
258 970 379 149 114 95 
318 928 349 134 109 89 
268 334 239 91 85 83 
205 122 278 101 85 68 
207 120 277 100 86 71 
335 683 149 74 122 162 
250 284 199 67 52 70 
193 140 264 130 72 20 
262 290 246 119 49 6 
164 586 339 79 99 132 
207 121 278 101 87 73 
160 351 322 134 130 132 
280 1012 330 124 98 73 
179 524 206 176 88 14 
248 627 442 44 82 111 
286 653 293 96 116 137 
183 667 437 135 150 169 
307 678 305 140 142 151 
216 874 355 120 91 59 
204 125 275 94 75 51 
189 778 336 182 164 148 
222 757 475 154 123 107 
164 596 360 103 125 162 
247 977 296 130 102 70 
157 369 340 120 97 95 
299 752 350 153 125 96 
173 455 318 69 88 113 
330 239 316 32 71 116 
266 200 240 125 57 72 
266 941 283 71 54 40 
309 779 280 144 112 78 
225 419 171 82 104 125 
236 238 377 66 94 122 
181 679 256 138 142 152 
174 301 323 59 65 75 
286 61 339 141 113 91 
318 753 156 199 199 227 
265 210 218 65 72 87 
176 697 262 119 133 150 
184 655 399 45 54 100 
273 597 374 166 172 186 
315 322 329 126 145 167 
245 700 166 72 102 129 
281 429 202 126 126 130 
332 198 311 123 128 135 
184 688 251 118 137 159 
314 489 276 115 128 145 
309 293 304 82 67 84 
302 467 302 117 131 149 
205 694 387 85 125 158 
291 838 253 225 182 133 
267 923 267 64 53 40 
162 712 356 159 94 26 
234 801 235 132 115 109 
268 303 206 99 83 104 
309 88 328 120 98 75 
162 595 325 93 103 125 
157 342 223 63 105 137 
211 236 403 39 66 91 
183 341 157 92 94 106 
198 332 144 92 98 122 
165 588 345 30 58 78 
181 463 180 158 11 53 
176 294 246 105 123 143 
236 313 194 43 55 67 
322 701 278 86 136 175 
289 739 391 132 108 82 
241 302 358 153 152 158 
202 121 280 99 83 67 
264 1015 321 103 79 53 
272 300 358 106 119 138 
184 200 386 104 93 108 
313 649 212 118 151 182 
212 433 373 124 87 80 
287 409 251 114 123 140 
211 723 431 77 70 104 
236 119 288 98 83 68 
160 316 326 77 106 130 
187 565 219 149 160 203 
314 54 305 134 127 120 
284 105 330 81 67 52 
297 496 345 157 155 159 
197 703 379 157 74 83 
216 766 439 149 134 127 
180 613 244 152 167 187 
251 544 190 137 150 185 
189 190 275 98 56 47 
216 929 306 156 111 89 
251 828 397 182 131 103 
302 743 323 136 92 93 
301 359 314 148 72 76 
237 830 342 166 111 96 
167 726 284 157 39 77 
180 653 265 137 139 149 
165 399 320 68 89 118 
208 97 279 102 87 72 
161 240 350 90 70 89 
228 153 315 100 60 48 
207 280 122 189 75 14 
283 653 292 167 165 171 
209 98 279 100 86 71 
181 766 314 185 169 160 
168 527 320 74 88 103 
170 709 270 87 130 164 
187 353 318 80 82 87 
297 730 361 166 138 118 
317 605 199 166 168 179 
256 156 303 117 76 48 
301 939 367 97 79 64 
254 620 415 69 100 126 
256 528 401 102 121 154 
237 271 365 117 80 91 
199 762 247 102 112 123 
289 435 314 110 123 140 
301 964 325 122 100 77 
175 582 285 59 108 141 
174 458 348 70 102 140 
303 301 298 144 143 148 
307 509 210 73 103 155 
167 675 338 158 120 81 
237 491 171 128 137 178 
316 661 196 164 160 164 
210 723 462 54 67 110 
311 518 243 157 161 174 
310 661 214 108 131 155 
244 816 219 104 104 108 
300 485 319 108 121 142 
318 768 216 160 173 191 
211 103 279 95 82 69 
249 624 434 111 120 132 
196 277 401 157 156 163 
287 244 286 50 64 83 
259 725 469 127 144 165 
198 543 202 161 104 133 
239 990 314 106 80 56 
264 480 171 79 132 176 
174 417 378 142 65 13 
287 752 397 147 123 102 
302 804 346 159 114 79 
228 902 386 185 134 117 
164 413 253 70 97 137 
299 805 203 96 114 144 
247 404 383 132 74 88 
163 715 283 131 40 58 
245 84 312 137 103 86 
255 261 205 101 36 31 
193 699 502 137 157 187 
273 266 268 78 52 55 
177 502 368 66 87 114 
257 745 470 166 39 50 
229 977 307 99 80 65 
182 406 360 142 84 38 
