ply
format ascii 1.0
comment Created by CloudCompare v2.11.1 (Anoia)
comment Created 2/28/22 9:46 PM
obj_info Generated by CloudCompare!
element vertex 2005
property float x
property float y
property float z
property uchar red
property uchar green
property uchar blue
end_header
205 532 259 121 124 134 
226 556 408 198 186 182 
199 641 380 97 81 86 
164 195 324 92 49 44 
240 112 297 79 65 50 
240 894 318 140 110 80 
227 886 335 123 98 69 
230 504 189 148 124 98 
367 721 191 188 184 189 
198 656 483 104 87 71 
311 558 347 148 158 176 
164 13 292 113 94 85 
308 879 334 97 66 41 
283 138 318 83 61 35 
201 771 372 102 102 108 
190 214 295 66 48 53 
311 559 349 193 188 191 
306 861 316 190 147 117 
310 740 177 147 151 194 
238 313 352 142 146 156 
215 345 346 151 108 80 
162 205 335 124 49 67 
320 596 281 172 166 169 
289 324 367 161 157 158 
230 343 162 28 47 86 
327 626 262 83 127 165 
169 185 320 95 56 57 
200 542 210 135 143 208 
166 12 294 115 100 95 
189 755 322 186 165 148 
254 154 318 63 51 39 
325 332 345 150 26 66 
168 365 325 113 124 140 
175 269 341 126 127 134 
243 353 140 90 109 128 
373 721 163 200 194 199 
205 590 390 123 137 156 
292 333 370 133 122 121 
313 133 305 102 86 70 
161 11 302 108 100 97 
176 282 263 125 124 128 
244 864 328 141 107 80 
235 658 504 91 117 147 
298 720 395 163 37 53 
292 308 364 105 116 138 
231 485 180 118 116 126 
311 974 334 113 85 66 
183 512 240 80 100 120 
198 498 262 117 121 138 
160 323 319 83 120 149 
263 1010 297 208 177 151 
311 955 317 100 73 57 
188 534 268 101 126 155 
346 743 160 27 39 129 
184 573 294 128 147 170 
254 994 349 125 83 66 
174 282 306 100 108 119 
211 573 249 110 132 161 
280 643 433 82 100 117 
224 914 327 141 108 77 
280 429 181 156 116 73 
293 639 208 142 97 79 
195 747 265 141 128 147 
160 14 298 103 89 83 
309 714 160 148 167 216 
244 890 389 160 126 98 
214 376 148 76 118 150 
242 683 496 176 184 200 
314 715 169 165 166 192 
305 745 374 100 111 122 
196 313 353 159 131 100 
182 286 340 73 104 130 
289 159 261 172 148 129 
313 789 349 150 145 145 
202 280 203 118 122 130 
282 337 368 71 108 139 
188 249 304 66 68 70 
161 12 300 106 98 94 
266 66 323 90 69 50 
326 178 302 158 74 4 
344 664 236 112 133 155 
209 626 251 85 86 92 
219 260 194 96 65 54 
209 144 380 147 64 1 
161 12 303 106 99 96 
304 396 376 127 149 174 
240 874 334 107 83 56 
205 605 235 124 137 175 
307 490 346 121 130 145 
247 276 359 88 130 166 
294 358 264 156 154 160 
329 497 254 96 118 171 
250 539 189 115 143 194 
309 268 291 126 124 127 
161 14 303 95 91 92 
214 778 410 179 162 151 
212 277 356 145 148 157 
229 273 145 87 51 52 
190 710 264 78 104 126 
290 537 391 117 124 167 
348 620 208 167 168 178 
268 214 208 75 54 58 
218 165 408 88 66 96 
179 696 464 66 111 192 
328 460 232 92 114 136 
213 783 303 199 175 155 
321 349 330 153 92 123 
364 738 170 206 212 230 
175 408 273 69 91 140 
187 350 334 154 122 86 
203 405 178 115 135 157 
164 11 300 112 104 100 
262 573 207 116 132 175 
166 170 348 61 96 124 
353 659 164 132 138 149 
286 131 336 69 57 43 
317 575 293 180 170 168 
202 742 244 171 41 48 
310 662 376 90 120 153 
312 905 316 62 49 46 
223 514 402 78 100 142 
268 346 204 130 131 138 
223 800 323 195 141 118 
169 360 364 151 29 68 
205 756 388 155 137 123 
294 110 306 93 76 57 
332 173 307 118 102 85 
236 984 329 90 68 51 
212 763 253 97 103 133 
239 113 309 99 73 54 
254 693 480 91 113 166 
177 422 248 104 123 158 
262 696 241 32 50 110 
282 771 211 131 146 169 
313 657 309 47 52 59 
237 814 415 198 139 114 
298 420 268 56 98 129 
199 451 198 154 127 96 
209 575 397 168 165 170 
285 979 368 101 84 69 
257 987 374 98 80 64 
234 342 118 173 102 96 
173 336 349 129 125 124 
217 480 387 82 106 132 
192 409 206 119 102 85 
328 494 232 81 113 159 
178 410 352 166 66 4 
314 661 366 153 157 167 
169 13 289 138 103 88 
296 840 363 204 147 115 
285 432 394 113 124 154 
294 458 317 63 97 130 
299 472 383 112 139 176 
307 393 244 122 135 152 
191 725 370 51 67 105 
195 712 508 144 161 204 
265 10 320 117 104 93 
192 524 248 48 86 141 
215 788 316 192 142 116 
298 607 325 168 162 164 
250 919 391 166 129 109 
269 317 178 107 81 98 
333 614 246 158 161 173 
168 12 292 126 103 92 
321 827 287 159 135 118 
214 595 248 42 41 54 
223 872 369 168 125 107 
219 888 372 125 93 76 
286 906 272 100 81 67 
175 639 446 124 98 70 
276 683 225 78 96 128 
323 536 304 198 186 182 
195 750 274 140 99 88 
196 506 364 141 145 156 
230 339 165 33 38 94 
246 833 316 154 92 77 
237 611 393 95 109 134 
286 980 291 100 77 51 
308 444 275 42 82 123 
339 717 279 165 180 201 
305 653 186 110 82 57 
172 11 293 139 114 103 
329 261 310 107 63 72 
189 728 272 180 124 93 
360 688 195 69 121 159 
329 519 288 130 134 162 
249 928 294 87 68 52 
184 319 364 173 145 117 
189 636 383 116 77 70 
223 967 333 101 83 69 
241 342 147 38 46 72 
161 174 334 89 85 86 
229 140 411 115 103 93 
233 673 513 82 102 130 
230 108 288 115 95 73 
249 136 338 117 64 10 
238 143 375 104 92 82 
288 737 196 101 110 150 
303 838 355 193 135 106 
292 29 346 77 60 44 
175 328 303 80 66 53 
263 970 384 123 90 75 
174 12 289 154 118 101 
196 135 361 110 98 91 
270 828 258 190 166 145 
312 719 357 170 32 44 
342 680 276 152 154 163 
286 640 232 49 60 100 
195 765 357 146 150 160 
255 156 325 61 50 41 
334 475 250 98 121 147 
238 792 257 169 112 112 
317 896 326 74 57 49 
292 199 359 99 63 58 
346 604 196 104 123 144 
184 298 242 85 102 120 
171 11 297 124 112 108 
176 669 372 124 138 188 
202 667 498 98 84 69 
321 923 322 85 68 54 
191 513 248 51 91 120 
297 479 384 61 93 159 
242 357 143 98 58 64 
282 657 222 127 120 120 
214 554 403 93 119 148 
317 497 311 159 161 169 
237 136 357 111 70 32 
289 708 425 163 173 190 
213 951 355 171 130 103 
199 198 386 116 45 48 
198 580 381 92 119 148 
171 11 300 125 115 111 
262 714 463 164 173 190 
315 950 372 119 100 84 
359 681 148 123 126 133 
212 146 383 148 68 2 
171 11 303 126 115 110 
200 580 388 109 124 163 
172 11 297 127 114 109 
185 281 349 128 129 135 
171 695 339 126 105 78 
172 10 299 127 116 111 
182 702 316 126 83 78 
254 668 248 90 97 111 
309 812 357 168 123 90 
296 765 396 146 125 107 
170 342 351 145 10 53 
267 156 290 87 67 42 
186 223 293 104 14 55 
307 699 386 128 140 170 
240 224 377 129 52 80 
278 700 448 89 113 173 
213 671 388 112 133 156 
301 532 383 150 151 169 
204 503 380 158 155 159 
294 625 194 88 141 182 
301 828 370 201 140 112 
325 498 296 87 116 150 
328 667 303 137 138 144 
265 315 207 86 105 128 
179 246 307 108 99 102 
186 655 396 39 35 44 
317 150 307 107 90 74 
175 675 456 144 149 161 
190 708 508 153 179 210 
334 632 186 93 97 111 
348 658 158 96 113 130 
298 503 198 136 146 163 
216 364 132 161 88 87 
214 748 433 96 110 127 
294 398 386 84 112 149 
229 506 405 71 96 133 
191 749 300 156 135 117 
165 381 308 124 94 120 
283 717 432 155 12 42 
273 1001 351 127 99 76 
203 335 198 84 111 136 
175 10 303 127 115 109 
162 11 304 108 100 97 
342 681 279 164 164 172 
211 756 400 143 125 108 
322 111 310 124 99 71 
161 14 304 101 97 97 
321 659 325 85 78 88 
212 662 474 91 103 118 
245 869 379 144 108 83 
167 486 348 97 127 163 
268 164 254 160 137 116 
355 666 199 70 123 160 
218 912 386 185 132 115 
325 664 307 123 129 140 
264 258 187 109 53 34 
329 727 159 135 159 189 
180 654 419 130 143 165 
289 255 263 105 61 68 
217 399 349 151 130 109 
247 341 354 146 148 155 
272 193 248 125 66 69 
172 308 287 62 92 122 
182 583 302 122 141 163 
314 908 315 66 53 49 
181 705 320 164 148 141 
335 504 273 123 136 164 
163 229 318 65 68 99 
233 448 172 161 162 177 
253 651 235 158 92 90 
178 697 470 101 126 193 
179 510 344 45 71 91 
259 601 395 160 166 179 
317 109 307 109 87 61 
208 593 389 123 122 132 
215 778 275 165 134 109 
239 367 134 146 95 89 
259 744 459 158 122 64 
165 13 307 115 108 106 
204 770 295 127 127 131 
329 525 259 109 130 167 
298 375 256 97 122 147 
181 595 352 98 122 150 
172 406 264 58 87 142 
309 412 362 77 105 157 
290 398 302 83 101 133 
235 806 281 159 112 80 
256 571 401 145 156 173 
296 652 403 118 129 150 
166 15 307 68 48 40 
297 620 197 38 77 105 
238 160 411 161 69 3 
273 348 176 156 152 153 
307 240 288 59 91 126 
209 692 244 115 136 159 
195 240 344 105 38 65 
197 441 202 128 109 91 
243 727 233 81 103 124 
276 472 177 167 175 195 
232 128 353 99 80 61 
250 940 278 70 55 42 
188 231 346 107 34 66 
168 11 304 122 113 108 
309 892 342 88 73 59 
304 393 221 105 74 75 
205 559 241 116 142 173 
216 376 135 139 78 108 
189 530 267 139 154 172 
224 661 246 57 77 100 
330 693 323 182 180 188 
334 172 319 111 101 95 
318 296 365 178 65 2 
178 666 296 105 93 146 
170 361 305 106 111 121 
261 626 220 145 102 86 
314 520 350 96 112 143 
181 436 239 110 123 159 
177 635 356 134 86 81 
289 763 188 117 129 155 
310 100 332 117 94 69 
231 582 217 102 123 181 
203 774 313 105 140 170 
271 405 386 63 91 127 
178 643 456 116 95 71 
190 252 376 137 141 151 
202 549 212 113 141 212 
303 399 321 74 94 124 
282 538 397 182 181 188 
187 742 368 144 121 101 
292 552 215 103 117 137 
212 478 176 213 183 151 
200 645 394 57 77 104 
168 14 309 110 104 102 
215 353 140 55 92 121 
194 685 435 119 142 170 
270 915 386 171 126 98 
367 678 152 91 85 82 
259 208 204 104 90 81 
180 482 328 123 129 143 
257 775 228 106 53 28 
197 569 277 50 91 119 
227 547 406 136 141 152 
367 714 148 75 85 132 
226 318 348 150 145 148 
193 457 302 91 101 114 
320 135 331 107 87 64 
201 649 260 140 133 134 
170 14 311 130 117 108 
316 656 349 67 72 80 
215 763 435 88 74 84 
204 735 240 162 21 39 
185 679 415 65 93 140 
172 11 304 126 115 110 
184 705 306 145 116 83 
189 728 288 175 85 29 
201 148 274 132 54 44 
204 557 397 118 133 153 
290 641 366 72 84 99 
278 741 435 150 131 112 
271 261 242 90 89 92 
317 692 361 168 168 176 
201 731 488 153 174 198 
261 1000 297 163 135 108 
307 918 354 84 68 55 
188 221 274 81 48 62 
230 476 174 211 181 147 
207 294 165 89 86 96 
238 813 396 194 141 111 
204 432 177 150 32 74 
328 924 331 63 50 44 
191 402 295 73 86 115 
169 133 346 121 108 97 
254 622 411 78 104 128 
193 513 362 86 105 147 
213 783 356 196 142 112 
258 431 394 100 122 144 
174 11 308 123 111 104 
310 578 325 118 142 169 
313 642 288 157 156 162 
226 466 167 234 199 149 
277 334 232 75 94 114 
182 667 490 93 79 64 
265 216 241 96 98 105 
280 656 440 74 101 150 
239 506 181 178 153 128 
323 446 236 112 129 148 
203 130 340 92 79 69 
180 345 362 181 150 116 
292 758 407 50 41 52 
188 556 283 101 123 152 
309 156 296 147 126 107 
368 730 167 99 152 193 
325 73 324 142 110 90 
300 648 326 48 62 76 
239 606 396 180 179 188 
205 412 173 136 139 150 
263 339 358 154 152 156 
252 777 454 165 140 119 
275 686 235 86 105 132 
178 517 309 87 97 126 
265 60 325 94 73 53 
239 143 362 97 81 68 
188 223 269 96 46 49 
316 595 292 121 81 85 
263 471 407 130 143 167 
225 703 509 117 123 160 
240 119 302 80 69 57 
298 225 278 129 45 71 
175 13 314 127 113 104 
174 14 313 138 124 116 
373 704 149 190 185 193 
218 289 121 122 73 86 
251 425 390 63 92 126 
170 399 249 83 108 149 
221 628 228 120 87 74 
268 199 227 117 72 70 
179 311 335 126 126 131 
161 17 290 115 88 64 
196 515 300 104 113 126 
265 748 451 117 102 99 
188 722 281 156 51 38 
271 196 353 124 98 87 
284 976 371 98 79 64 
306 131 338 104 86 66 
240 956 300 78 60 50 
190 257 354 62 94 121 
365 722 198 188 183 188 
311 754 357 137 120 110 
183 351 299 90 93 101 
211 705 242 106 123 140 
162 17 288 132 96 69 
162 17 289 122 90 65 
217 689 388 103 140 173 
306 581 336 183 178 182 
166 296 332 83 117 146 
352 758 210 191 186 191 
198 579 221 123 146 201 
281 755 215 135 146 161 
268 330 358 75 117 150 
295 145 288 95 78 59 
341 656 157 71 104 138 
161 16 293 107 83 61 
200 165 273 84 64 68 
306 255 289 101 39 59 
160 16 295 99 75 55 
182 622 308 161 156 157 
196 586 273 74 121 156 
205 619 261 148 143 147 
347 608 192 90 110 130 
205 292 176 94 81 97 
290 248 269 92 77 66 
334 481 241 103 126 151 
275 577 394 196 184 180 
224 513 404 109 127 150 
184 458 341 29 62 94 
180 695 493 123 149 189 
297 445 289 67 99 132 
249 890 313 129 96 61 
176 403 280 41 74 134 
198 513 253 69 98 123 
314 813 206 187 101 107 
328 667 324 140 144 155 
288 737 198 110 124 160 
160 20 291 123 93 61 
282 157 336 61 51 39 
359 649 189 146 148 157 
314 119 306 104 86 67 
213 787 349 200 147 120 
265 477 175 86 117 166 
256 620 398 66 93 116 
271 813 415 197 129 99 
296 468 332 123 130 142 
261 33 314 108 88 73 
287 637 390 93 108 126 
185 241 280 84 84 105 
174 537 334 79 96 122 
312 590 306 183 171 167 
195 508 237 64 93 124 
308 645 178 96 112 130 
163 22 288 156 106 78 
163 23 289 158 113 80 
276 362 177 115 129 148 
248 265 130 167 72 5 
265 323 210 137 136 142 
290 423 287 86 111 144 
237 282 149 119 23 52 
368 684 184 197 191 196 
202 278 213 88 110 132 
186 644 466 106 88 69 
321 503 302 73 102 147 
302 691 154 89 117 152 
301 961 365 120 103 88 
187 288 346 115 120 129 
260 613 381 99 123 154 
178 303 369 151 34 78 
164 23 290 155 109 84 
161 361 312 106 127 149 
305 810 379 194 140 107 
223 262 363 82 121 155 
200 395 348 154 128 100 
197 449 202 139 118 97 
237 207 384 156 50 84 
209 261 363 154 155 163 
196 553 232 75 104 165 
319 830 267 107 73 60 
167 23 290 150 104 79 
236 708 496 130 134 169 
290 395 301 113 126 143 
252 629 417 97 110 125 
245 616 219 100 84 67 
182 383 353 182 144 98 
248 405 379 106 92 79 
297 824 380 206 148 115 
202 647 260 146 125 128 
237 117 320 80 67 55 
231 512 191 182 154 145 
226 394 139 192 186 195 
233 287 158 48 42 39 
278 151 318 83 62 35 
215 894 364 160 121 96 
322 59 328 128 113 103 
177 560 313 53 80 139 
362 730 199 191 187 194 
198 486 229 140 148 162 
180 662 307 138 79 83 
297 483 197 113 126 144 
161 18 299 120 93 64 
173 588 323 120 140 170 
356 660 185 83 124 156 
235 958 304 76 63 55 
215 672 501 68 85 105 
263 243 221 135 44 69 
209 182 403 48 42 50 
318 811 320 94 128 157 
169 342 366 186 156 125 
284 900 367 134 97 68 
210 455 369 112 128 149 
284 499 191 84 112 164 
189 149 368 144 68 1 
194 561 215 150 168 201 
191 332 354 177 145 111 
328 922 356 120 102 86 
212 780 297 138 132 134 
252 830 350 156 103 84 
172 382 361 184 150 112 
292 824 386 207 151 117 
202 207 363 100 89 93 
162 18 303 111 84 60 
349 689 257 98 135 168 
222 578 227 139 153 191 
316 602 289 73 120 157 
179 649 334 87 80 99 
210 778 297 148 137 136 
328 479 287 113 128 148 
171 564 322 130 144 173 
269 964 294 90 64 49 
174 607 337 80 85 99 
166 368 262 95 108 133 
259 618 218 144 102 84 
331 258 358 93 37 35 
289 362 281 155 153 159 
215 565 404 176 172 176 
259 820 264 146 147 157 
355 687 206 147 151 159 
325 449 239 87 108 130 
339 652 229 57 105 141 
276 331 189 75 120 157 
185 634 451 103 87 71 
262 960 389 168 125 98 
163 23 299 174 130 110 
246 752 473 213 176 136 
181 434 240 165 168 177 
268 586 394 123 137 156 
162 21 300 142 105 80 
162 21 301 146 104 84 
175 298 366 139 16 67 
230 924 314 114 80 60 
283 911 267 93 75 60 
251 327 353 111 129 151 
170 669 331 170 113 62 
313 600 298 172 169 172 
220 946 383 190 145 123 
301 293 271 114 109 131 
318 434 216 100 109 121 
311 463 290 79 103 129 
199 771 327 126 133 145 
296 648 220 69 73 95 
228 623 220 213 146 142 
164 21 302 158 113 97 
228 947 300 132 107 92 
228 976 367 114 90 79 
239 142 264 106 88 70 
304 622 193 75 91 113 
331 638 249 76 139 184 
183 693 288 159 119 109 
250 152 269 128 105 87 
162 307 310 95 107 128 
323 127 315 112 90 65 
274 342 364 81 116 143 
288 838 236 172 150 132 
200 768 304 154 135 123 
164 236 341 108 69 62 
284 777 413 83 74 70 
184 535 229 150 165 184 
242 105 298 83 67 48 
202 640 381 93 93 114 
283 269 252 95 50 50 
276 694 233 72 100 130 
186 684 511 37 86 140 
199 491 368 117 128 150 
221 799 341 200 144 121 
188 289 367 132 39 88 
353 697 244 150 149 156 
236 750 232 118 21 54 
309 902 307 81 63 47 
203 639 434 61 66 73 
204 576 268 61 75 90 
298 816 387 200 140 111 
187 431 304 79 90 108 
316 442 265 47 78 108 
272 307 226 140 138 143 
264 266 213 95 76 96 
193 689 518 86 112 171 
285 670 195 110 118 131 
311 743 356 76 77 112 
163 25 293 168 119 99 
230 318 350 151 153 162 
292 654 210 113 107 107 
265 258 213 143 62 65 
201 322 350 176 144 107 
163 25 295 172 135 111 
273 882 369 146 110 78 
293 707 416 173 182 198 
305 427 372 97 120 150 
206 216 388 71 78 95 
275 859 296 172 129 98 
273 185 235 157 62 7 
165 24 293 139 99 78 
313 371 325 163 84 113 
311 833 329 177 134 101 
171 411 234 69 106 151 
197 520 262 81 105 131 
229 751 482 199 158 99 
325 542 249 92 114 154 
232 421 375 123 108 92 
180 657 476 114 91 65 
234 496 184 149 123 109 
252 848 323 144 100 80 
186 711 300 169 104 21 
211 269 198 72 61 55 
160 24 297 168 123 95 
289 997 294 124 91 65 
268 815 415 198 129 100 
291 364 289 92 119 148 
259 976 382 92 70 58 
200 545 238 157 166 181 
191 197 293 37 54 73 
164 397 320 105 112 143 
329 675 256 102 111 123 
229 879 380 126 96 75 
267 33 342 125 96 77 
213 757 464 143 130 132 
173 592 332 57 85 124 
172 365 289 103 112 132 
238 811 288 196 140 118 
184 743 318 132 117 109 
289 377 215 100 102 108 
322 190 360 141 81 47 
184 378 233 118 123 137 
325 817 276 200 162 121 
295 502 197 147 153 166 
182 635 310 143 115 113 
303 459 378 93 118 162 
318 699 358 138 142 156 
303 194 283 82 77 74 
291 352 233 126 127 131 
280 739 218 106 133 160 
191 213 259 57 49 61 
165 24 300 171 132 111 
180 428 319 48 72 128 
301 776 386 114 107 103 
296 693 414 179 180 188 
230 298 158 50 50 81 
322 805 306 175 163 158 
289 380 282 75 105 142 
171 559 321 81 111 160 
182 587 304 159 164 176 
200 699 363 60 57 113 
259 58 292 117 108 101 
288 783 406 163 155 154 
337 583 205 106 118 134 
184 290 247 83 97 112 
268 207 220 124 92 83 
175 459 318 75 100 141 
366 682 148 102 95 92 
254 725 471 118 132 161 
195 576 221 195 205 220 
252 205 373 123 114 119 
301 262 279 84 54 56 
209 278 162 128 74 81 
175 420 254 62 93 141 
301 742 385 69 51 88 
248 869 378 141 105 76 
286 739 418 145 128 114 
201 686 523 122 136 167 
336 775 185 209 213 229 
293 543 206 162 162 171 
239 926 301 122 72 45 
168 23 302 169 129 105 
229 327 116 126 90 98 
244 148 264 110 89 71 
250 139 337 110 66 25 
286 627 337 124 140 160 
372 689 144 157 146 151 
171 24 291 146 100 83 
178 638 321 139 100 86 
180 441 333 97 109 128 
167 451 348 151 161 176 
288 844 269 148 132 120 
291 505 395 88 106 154 
176 681 478 178 178 185 
235 359 158 100 52 70 
169 24 295 145 104 82 
255 870 373 133 94 64 
302 779 187 150 166 187 
217 785 412 135 107 87 
223 315 147 116 37 52 
301 476 334 105 120 138 
270 51 308 90 75 60 
285 408 388 63 93 120 
321 164 299 127 113 103 
243 467 403 52 85 127 
173 24 288 139 105 81 
308 434 267 45 88 122 
352 759 209 197 189 192 
213 759 438 114 95 91 
275 664 246 22 40 70 
185 345 329 150 119 82 
320 562 213 127 135 147 
286 476 186 86 131 169 
229 649 234 116 63 47 
323 112 320 115 93 68 
204 760 264 172 128 73 
242 598 217 137 153 192 
296 686 413 136 142 170 
288 603 353 160 159 167 
209 708 242 114 132 152 
352 622 193 107 131 155 
180 253 371 81 108 131 
172 24 292 124 85 71 
205 740 480 187 113 102 
172 25 293 107 58 49 
256 633 223 157 106 92 
265 560 200 72 108 158 
320 352 335 141 37 101 
172 24 294 95 57 46 
293 405 388 41 95 141 
188 758 346 116 117 132 
308 778 368 155 147 144 
337 786 237 146 18 52 
242 409 377 135 120 107 
259 48 305 110 97 87 
175 25 292 184 149 143 
212 674 399 103 132 160 
303 466 301 66 97 128 
302 537 223 117 125 141 
289 724 416 82 44 54 
208 343 165 69 111 140 
267 224 217 46 78 106 
180 694 321 151 97 73 
207 513 200 198 72 11 
294 652 210 90 87 90 
250 422 389 99 118 139 
321 583 278 106 132 159 
192 420 204 114 100 87 
321 350 349 121 148 170 
257 66 310 103 86 76 
263 277 182 53 36 49 
284 903 275 98 77 59 
244 786 449 109 80 61 
186 714 294 183 65 23 
171 25 296 146 115 93 
277 167 353 104 94 86 
324 745 315 161 27 54 
170 24 299 165 129 105 
264 880 379 153 111 82 
340 588 203 141 139 142 
195 337 350 163 131 93 
283 944 383 85 68 56 
282 953 294 101 74 47 
274 591 220 95 119 154 
309 714 162 138 150 189 
162 269 317 125 112 102 
175 385 287 71 110 141 
217 786 363 197 142 114 
318 932 313 72 59 50 
264 697 466 95 119 176 
283 691 196 118 128 144 
285 635 227 125 76 74 
278 722 222 103 115 144 
236 398 367 113 121 131 
269 883 304 144 111 80 
296 67 302 115 95 75 
203 736 474 139 136 151 
302 755 382 98 88 84 
317 161 302 130 115 104 
300 735 386 146 121 93 
204 382 348 169 145 122 
176 629 329 132 94 94 
297 419 204 90 106 121 
233 319 113 133 109 100 
242 305 133 101 67 90 
173 584 324 161 168 181 
297 974 361 88 70 61 
342 682 280 152 154 162 
180 292 293 83 92 103 
218 361 158 130 122 115 
186 704 270 81 94 106 
303 287 273 136 135 137 
292 989 347 97 76 58 
344 741 160 157 154 216 
314 482 206 95 119 146 
249 375 365 149 130 111 
173 659 308 105 84 111 
200 510 251 77 96 122 
316 436 212 59 86 111 
288 880 350 152 115 80 
359 724 215 114 151 185 
329 632 185 63 96 121 
295 177 277 106 118 131 
206 138 261 134 69 9 
219 420 363 140 126 116 
197 662 266 66 86 104 
204 377 174 126 141 163 
193 763 352 188 167 151 
197 554 376 173 169 172 
351 691 248 47 95 147 
261 12 349 110 101 96 
256 254 187 95 51 60 
188 263 373 165 166 175 
310 382 325 156 63 100 
280 661 219 126 126 132 
175 665 293 93 80 139 
293 238 275 53 79 100 
191 166 365 126 56 64 
287 908 271 98 79 65 
179 699 471 138 159 215 
275 714 447 178 187 204 
247 626 219 166 105 93 
252 787 233 109 107 110 
340 677 268 74 103 128 
162 191 327 121 54 45 
260 727 462 172 36 60 
319 446 214 76 97 121 
253 931 289 74 59 47 
282 168 356 93 85 81 
274 597 386 120 131 162 
168 423 361 123 108 96 
297 971 363 91 73 59 
231 319 115 123 109 101 
216 332 126 81 96 122 
180 286 353 135 134 138 
331 467 239 119 129 142 
327 657 158 98 109 122 
315 945 356 88 72 61 
266 840 290 200 148 127 
178 495 346 46 74 101 
313 558 342 117 139 170 
181 501 331 106 116 130 
288 757 197 99 101 126 
287 899 285 124 88 74 
167 19 307 126 97 75 
167 16 308 86 55 45 
294 393 309 140 137 140 
189 402 293 91 103 118 
311 419 216 131 130 134 
165 284 308 113 122 136 
210 594 388 144 141 144 
205 685 524 165 177 195 
166 21 305 152 112 91 
167 20 305 144 109 86 
212 747 441 78 94 110 
316 76 301 147 121 97 
218 916 372 167 120 102 
288 839 241 210 172 130 
275 926 384 174 133 106 
308 911 302 94 77 59 
206 725 503 178 190 212 
313 841 293 198 144 115 
173 464 341 33 68 118 
226 491 176 233 195 142 
230 807 310 202 145 125 
257 753 460 89 90 95 
317 903 321 72 61 55 
275 366 189 117 131 149 
190 172 363 136 101 70 
296 634 321 105 74 85 
323 802 199 160 69 111 
260 1010 321 172 148 127 
235 642 227 162 109 96 
349 683 142 104 129 154 
247 316 123 161 99 75 
287 656 428 61 95 151 
304 183 361 145 63 3 
189 611 283 143 149 164 
289 280 363 169 166 164 
266 836 280 204 146 120 
268 540 402 124 138 161 
212 781 385 172 119 92 
268 654 465 61 103 158 
237 457 395 65 94 124 
168 21 305 146 113 92 
169 21 305 145 117 98 
306 80 331 101 82 61 
306 199 286 84 64 69 
340 615 224 127 142 162 
314 213 301 47 48 58 
258 192 366 146 87 88 
163 294 310 117 130 147 
220 643 467 87 108 136 
221 315 139 134 41 70 
223 792 366 202 145 118 
294 1009 315 158 126 91 
216 141 390 144 77 3 
340 747 259 118 33 95 
271 762 438 47 40 47 
237 375 166 106 72 54 
291 909 369 164 100 83 
261 158 327 62 51 43 
171 570 344 69 122 160 
213 755 243 181 143 135 
254 717 472 171 179 195 
308 198 295 88 37 41 
257 184 370 136 116 113 
171 23 304 170 144 135 
167 383 244 77 104 147 
220 708 237 102 111 123 
333 639 174 80 104 127 
171 401 258 84 106 143 
315 525 353 97 117 146 
201 462 196 134 21 54 
173 17 311 161 145 138 
249 150 271 120 98 79 
240 390 154 87 117 144 
264 26 308 113 99 88 
287 19 322 123 107 92 
176 667 401 60 90 136 
181 627 437 109 91 74 
207 386 171 130 127 129 
188 672 389 100 121 157 
174 408 226 116 133 154 
175 19 311 159 146 139 
241 269 361 131 69 83 
256 578 207 194 190 199 
271 431 398 30 64 93 
294 233 361 143 47 80 
196 612 399 110 93 77 
241 874 383 167 127 107 
172 22 306 175 154 148 
254 426 392 97 114 136 
251 280 100 167 131 99 
324 664 336 138 141 150 
325 156 316 93 79 65 
304 312 366 136 116 95 
324 331 325 163 141 120 
183 641 305 59 86 109 
265 292 210 110 82 97 
201 199 352 94 76 95 
171 312 362 135 15 53 
193 472 220 92 111 159 
296 823 209 212 157 112 
168 327 251 138 109 74 
177 716 351 149 55 18 
267 59 330 101 81 58 
173 674 400 96 125 184 
304 442 279 51 89 127 
278 37 310 107 92 79 
185 272 370 161 163 172 
306 673 388 156 157 165 
177 678 487 163 165 174 
297 159 270 174 149 127 
252 471 410 93 110 134 
200 174 304 83 45 49 
238 469 401 71 97 134 
191 262 241 129 112 110 
272 293 359 159 156 161 
254 562 199 110 129 184 
352 738 158 194 191 223 
316 606 288 70 123 162 
161 148 344 149 73 0 
198 279 231 107 116 129 
175 649 303 66 66 69 
203 310 218 83 103 121 
270 583 215 38 81 160 
340 226 325 74 54 78 
334 470 265 113 122 134 
304 598 320 175 168 169 
313 706 367 164 174 191 
302 387 252 106 120 141 
254 603 395 107 133 171 
273 337 194 73 118 154 
317 80 303 134 106 78 
169 456 319 86 113 150 
247 772 229 152 129 108 
322 128 326 107 87 65 
196 761 298 182 154 128 
187 738 302 128 120 129 
338 246 349 48 68 99 
176 11 291 154 121 106 
274 81 313 96 77 55 
281 536 398 194 186 187 
335 476 248 75 111 142 
335 237 317 92 49 39 
182 408 321 58 81 122 
219 382 347 156 137 120 
167 382 252 106 124 147 
345 775 208 170 186 209 
212 685 431 110 140 170 
252 493 409 149 154 167 
202 705 367 123 52 74 
324 576 268 114 139 165 
206 166 257 126 46 38 
187 681 352 71 98 121 
308 654 374 162 162 169 
253 714 474 166 177 194 
188 443 304 86 95 109 
171 543 320 105 133 163 
248 381 368 157 135 111 
178 11 293 151 122 108 
289 442 391 108 127 154 
218 640 457 78 94 111 
335 577 217 96 124 150 
331 801 235 148 116 73 
240 242 371 124 83 83 
281 39 349 135 104 90 
215 904 343 144 105 80 
162 194 342 128 35 63 
185 412 330 106 101 111 
288 987 355 83 63 50 
234 784 450 220 173 115 
261 266 222 77 92 111 
239 909 315 111 80 35 
310 514 367 153 154 163 
280 352 374 75 89 104 
180 11 291 155 125 109 
267 584 395 124 129 143 
330 775 283 133 122 116 
234 772 243 55 71 111 
209 140 257 126 73 25 
183 11 288 160 130 116 
317 639 276 97 130 161 
294 382 264 99 121 147 
196 480 234 154 156 165 
295 341 259 80 123 156 
241 631 446 78 97 115 
333 608 242 111 137 163 
308 740 177 149 158 201 
177 325 348 131 27 56 
267 36 337 112 84 62 
207 278 172 108 75 74 
167 179 348 77 94 111 
207 765 393 150 138 130 
181 10 295 141 118 106 
295 634 197 127 93 67 
196 396 346 160 135 109 
216 314 347 118 130 147 
296 155 281 174 146 123 
269 264 205 94 64 91 
247 315 125 162 97 77 
182 11 294 143 119 106 
353 654 165 77 98 117 
266 724 455 117 130 158 
240 338 352 119 133 152 
250 464 405 46 76 111 
271 611 215 137 104 104 
327 555 226 100 122 152 
244 378 172 150 145 151 
177 11 296 140 118 109 
177 11 297 136 117 109 
215 769 437 167 154 149 
182 671 313 118 65 47 
284 352 228 109 115 124 
208 566 247 155 160 172 
226 283 147 85 59 65 
194 764 325 158 151 157 
178 10 297 135 117 108 
284 172 260 150 72 5 
305 441 346 68 98 156 
179 10 296 139 118 107 
324 446 230 110 126 145 
273 903 381 158 113 83 
189 527 208 130 145 172 
321 438 224 59 100 131 
314 515 343 145 151 164 
198 377 194 137 137 142 
263 901 299 74 62 51 
285 736 204 124 140 161 
170 400 306 87 106 141 
177 10 301 128 115 108 
177 356 304 81 79 83 
311 590 310 191 178 173 
279 924 381 134 98 75 
252 179 380 128 115 117 
270 359 371 128 127 131 
302 961 304 164 140 119 
302 591 339 144 152 166 
315 113 327 108 89 68 
315 983 315 131 105 76 
317 538 346 181 174 175 
332 650 245 166 167 175 
203 274 219 105 119 136 
249 820 365 187 133 110 
199 714 510 138 146 203 
292 333 274 75 116 149 
331 720 299 149 164 183 
313 574 310 136 151 170 
244 494 178 173 46 85 
312 380 328 167 105 123 
162 211 333 53 38 62 
307 420 242 59 106 142 
321 164 297 125 111 102 
293 731 405 154 103 92 
183 10 297 131 113 102 
213 750 406 123 101 93 
277 387 176 137 145 158 
224 634 395 19 48 66 
182 10 299 126 110 101 
264 219 227 94 79 100 
179 667 407 33 54 109 
246 790 445 209 190 179 
255 682 244 82 94 112 
292 290 251 144 84 22 
279 601 367 146 142 153 
192 735 259 195 152 99 
175 288 337 74 111 141 
218 384 347 111 114 122 
179 647 424 133 91 73 
308 773 366 139 108 91 
213 674 402 114 143 172 
310 364 316 159 132 101 
299 423 379 80 108 151 
294 212 360 63 90 115 
256 492 177 138 146 176 
314 608 292 76 127 164 
177 475 344 65 86 106 
184 11 288 159 131 117 
178 523 351 53 75 97 
247 820 412 196 136 112 
258 717 468 157 178 203 
245 325 117 196 126 98 
168 389 306 96 113 143 
340 681 248 28 67 96 
348 728 151 148 149 202 
265 179 357 142 64 7 
271 321 357 89 122 151 
253 655 241 126 58 54 
187 11 289 151 128 116 
308 236 287 48 59 102 
288 573 222 84 105 137 
220 930 375 91 71 56 
351 748 166 212 214 234 
183 671 369 105 65 98 
210 732 396 94 106 122 
326 500 296 89 117 154 
242 420 382 91 104 122 
288 361 226 87 104 121 
254 827 361 183 125 104 
195 437 296 76 92 111 
240 373 143 114 75 93 
186 11 292 144 121 108 
364 729 194 158 157 165 
247 178 390 61 84 112 
298 477 354 60 83 113 
314 424 216 81 96 112 
271 180 225 106 66 10 
317 345 314 166 122 65 
261 668 475 104 132 176 
299 334 295 114 126 142 
267 427 173 159 157 163 
265 322 178 85 110 133 
242 895 315 135 106 76 
281 154 272 143 119 98 
232 586 220 189 185 190 
189 11 290 145 124 113 
326 193 357 118 123 128 
214 748 422 85 81 88 
190 11 289 143 124 113 
226 969 374 197 147 126 
303 268 280 120 120 122 
249 418 386 82 105 127 
196 654 481 107 89 71 
225 767 247 78 108 130 
170 320 364 182 155 129 
280 34 352 146 107 97 
318 589 286 178 170 169 
189 11 292 136 117 106 
321 703 160 33 66 127 
320 532 322 125 143 164 
202 758 383 130 105 78 
186 731 304 114 101 96 
187 565 297 100 130 159 
290 639 393 89 109 130 
171 590 340 117 137 169 
267 235 214 81 51 71 
228 900 326 124 96 65 
175 612 364 62 61 62 
180 646 422 132 89 73 
199 643 461 95 83 72 
265 483 407 104 122 157 
182 682 422 62 88 134 
184 585 295 135 157 184 
311 351 312 154 113 70 
249 369 174 149 144 147 
260 1011 322 162 138 116 
235 262 124 125 93 57 
185 11 296 131 112 101 
214 279 354 155 154 160 
253 157 393 125 110 99 
190 456 233 145 157 174 
214 574 400 79 94 134 
318 742 335 117 83 73 
218 571 403 138 142 155 
284 800 410 183 126 100 
254 511 181 121 145 186 
271 361 197 130 130 136 
325 154 336 111 91 68 
260 963 389 169 125 101 
186 10 298 123 107 97 
233 984 367 93 80 71 
189 466 269 103 117 150 
195 735 252 166 70 80 
171 194 316 117 55 32 
331 285 319 81 124 158 
340 230 341 107 48 59 
256 914 391 202 155 131 
289 747 413 130 125 123 
327 580 256 116 131 158 
177 644 456 120 97 72 
319 669 270 80 90 103 
172 377 346 166 134 94 
311 803 351 164 116 83 
266 170 236 159 138 123 
187 10 301 116 102 93 
186 10 302 117 103 94 
263 266 215 94 87 94 
327 664 320 150 150 158 
289 373 278 139 145 157 
174 389 343 157 69 5 
188 10 297 121 105 95 
243 710 487 68 99 169 
305 742 375 92 109 127 
174 658 438 115 132 173 
337 585 219 100 127 155 
281 111 326 62 52 40 
201 539 209 139 141 197 
177 326 238 103 100 101 
168 308 263 110 54 61 
223 138 401 110 98 88 
174 668 399 115 134 156 
203 588 268 160 158 162 
191 10 296 115 100 90 
308 475 305 84 110 139 
193 595 370 98 110 129 
279 682 203 111 120 141 
312 834 248 194 166 142 
308 413 215 101 108 119 
274 390 173 120 132 151 
287 862 290 186 132 88 
261 40 326 102 79 57 
235 643 486 71 103 140 
263 639 229 161 102 89 
294 378 263 120 136 156 
314 545 224 129 138 152 
179 484 323 134 143 158 
235 282 357 72 121 158 
299 354 251 156 155 161 
197 487 238 76 95 133 
314 464 206 114 129 148 
329 516 255 147 154 170 
242 621 401 72 92 112 
360 742 170 212 215 237 
267 224 242 98 80 71 
250 802 250 117 91 47 
219 224 385 53 63 104 
290 392 276 108 129 156 
189 758 329 150 145 148 
305 570 359 119 136 168 
274 353 370 127 127 130 
253 817 268 144 125 109 
330 211 309 116 49 29 
183 605 303 99 123 150 
378 696 156 91 132 164 
282 377 208 91 28 30 
219 627 235 130 103 98 
216 668 498 99 121 145 
276 646 443 54 100 150 
174 675 417 40 53 126 
243 386 367 155 127 93 
251 145 301 89 67 50 
290 410 301 66 107 140 
262 230 230 108 50 67 
174 673 415 41 51 124 
301 593 338 151 155 169 
252 574 204 98 127 186 
213 544 212 180 47 102 
322 751 171 22 65 150 
218 560 214 178 184 204 
335 675 264 49 86 113 
320 642 170 103 121 139 
338 192 318 106 116 125 
235 119 339 86 78 72 
267 989 285 132 105 84 
287 641 411 106 127 150 
259 360 175 116 127 143 
167 438 347 78 97 122 
313 811 204 159 109 156 
335 480 269 137 154 183 
168 396 241 70 112 147 
182 370 303 50 70 93 
258 612 219 113 92 70 
291 670 421 134 144 164 
191 251 355 69 100 125 
174 469 307 87 107 139 
295 994 295 120 83 55 
224 642 410 53 66 82 
201 710 246 97 118 138 
272 329 228 84 106 128 
205 438 175 153 40 62 
346 612 209 166 166 174 
214 599 249 38 40 52 
253 989 374 112 94 79 
346 766 222 165 177 196 
289 427 295 40 75 117 
219 949 324 90 72 60 
186 641 461 105 88 71 
183 10 307 116 103 95 
270 829 386 185 138 111 
257 741 463 175 131 74 
318 708 346 169 178 195 
194 511 362 125 137 156 
252 153 344 71 61 51 
248 518 409 105 120 147 
175 686 457 61 100 163 
168 166 348 44 71 97 
254 235 367 101 108 121 
306 766 372 139 121 105 
191 381 344 169 139 107 
183 515 251 81 106 130 
177 349 296 130 93 33 
196 292 360 87 111 138 
294 725 178 109 121 138 
308 285 282 94 112 132 
198 714 467 188 202 222 
240 796 258 156 123 81 
350 686 223 82 100 119 
186 557 275 128 153 190 
326 921 328 71 57 48 
227 529 194 185 157 153 
177 11 312 119 107 98 
297 762 394 150 135 125 
178 11 312 118 106 97 
240 804 270 148 108 92 
255 164 386 157 81 6 
228 871 377 170 125 112 
274 366 175 99 121 144 
290 433 299 93 115 144 
278 251 252 119 96 68 
176 12 314 120 107 98 
236 747 484 168 38 56 
216 650 244 90 42 71 
253 286 113 172 88 6 
293 902 355 156 115 91 
300 435 329 98 110 140 
177 668 408 38 60 120 
266 616 219 130 93 69 
301 478 338 99 115 134 
244 633 466 132 135 142 
334 181 309 142 68 4 
292 717 186 42 60 120 
310 783 363 161 152 149 
317 607 199 81 108 134 
200 513 205 54 58 116 
266 554 197 63 97 154 
232 758 237 142 17 66 
310 152 299 107 87 73 
217 940 330 84 68 56 
203 645 254 152 150 155 
179 12 316 122 109 100 
251 790 238 138 104 85 
309 660 379 144 150 162 
254 433 394 86 105 132 
220 930 323 85 66 53 
169 685 339 135 107 75 
296 730 171 89 119 157 
181 691 286 164 137 109 
175 632 433 126 100 73 
269 198 237 134 96 84 
181 263 261 78 103 126 
191 548 363 155 157 166 
195 392 200 92 114 138 
181 11 314 113 101 93 
234 971 378 154 117 104 
165 338 284 139 62 90 
275 277 361 131 61 84 
166 325 283 138 63 92 
215 763 251 98 102 114 
222 558 209 114 132 175 
298 928 372 103 77 58 
344 767 232 58 62 131 
207 187 366 109 45 63 
180 12 315 117 104 95 
319 511 320 179 176 181 
300 864 308 187 143 111 
283 571 389 134 141 155 
201 298 202 113 115 122 
340 197 327 96 67 58 
307 779 184 131 146 192 
307 194 362 87 57 79 
285 604 356 133 148 166 
334 484 271 97 112 148 
306 478 312 111 125 143 
247 515 182 114 133 173 
317 938 351 81 66 51 
194 491 257 132 131 136 
181 14 318 110 102 98 
193 739 264 150 101 65 
182 12 316 111 100 92 
179 394 290 56 70 128 
271 155 298 87 66 37 
181 260 265 71 100 125 
198 548 235 97 120 160 
206 459 363 140 141 148 
210 778 357 197 144 113 
262 559 401 155 160 171 
280 618 350 76 90 152 
295 57 303 104 90 77 
183 15 318 107 96 89 
196 599 377 78 94 114 
200 732 243 89 104 135 
267 490 406 143 152 173 
207 651 463 71 73 78 
250 144 309 88 64 45 
188 145 368 151 70 2 
263 156 298 78 62 42 
274 912 273 67 55 42 
335 771 266 107 51 84 
186 10 305 114 101 92 
179 487 344 51 75 98 
191 706 262 65 108 141 
258 560 198 197 197 204 
176 171 314 80 42 46 
254 644 477 114 130 151 
260 955 290 75 58 42 
252 291 112 135 106 99 
184 11 308 114 102 93 
318 727 168 59 60 149 
267 13 308 127 112 101 
203 326 203 97 116 137 
252 190 376 69 91 116 
294 642 211 128 85 70 
297 967 366 89 72 58 
201 712 375 127 55 61 
185 11 311 110 98 90 
309 791 365 135 132 135 
301 420 264 50 94 127 
340 178 341 131 117 103 
317 253 365 92 64 88 
187 10 309 109 97 89 
321 529 231 91 110 136 
244 442 394 84 105 130 
181 680 350 110 96 98 
253 373 368 160 138 116 
165 360 245 149 79 59 
283 643 242 42 48 86 
329 671 279 71 96 118 
284 24 316 97 87 86 
334 290 338 161 155 157 
334 206 312 59 60 80 
226 139 387 113 96 84 
283 328 241 79 100 120 
283 803 410 190 131 99 
175 662 357 110 122 140 
209 255 364 156 154 159 
206 561 244 86 125 172 
223 880 375 141 108 84 
224 270 359 87 126 161 
190 10 307 108 96 87 
168 332 364 184 155 124 
213 724 430 152 69 87 
303 976 322 101 77 55 
193 536 237 92 114 151 
249 156 257 125 103 87 
221 595 393 165 160 164 
184 751 359 203 159 103 
198 446 202 136 116 97 
275 188 353 107 114 123 
341 680 286 119 61 87 
173 459 352 113 128 149 
189 11 311 107 95 86 
208 618 387 82 72 65 
318 932 314 80 64 55 
215 272 153 143 94 67 
334 477 245 155 159 169 
232 369 354 131 92 57 
254 631 221 149 101 83 
171 623 401 142 98 81 
300 563 223 74 98 121 
274 629 427 51 81 134 
293 492 393 175 172 176 
191 674 399 115 134 165 
218 690 402 123 153 183 
258 51 299 131 121 113 
200 739 382 117 94 73 
309 793 369 171 147 126 
288 627 208 157 105 84 
197 544 290 97 111 133 
179 680 412 78 103 142 
265 302 356 158 160 169 
324 105 314 130 106 80 
277 628 353 137 137 143 
187 655 382 68 91 127 
171 519 313 122 129 162 
226 315 163 79 49 73 
187 11 314 105 94 86 
298 959 372 104 87 73 
337 753 167 223 217 233 
171 427 319 67 92 138 
289 796 196 181 8 39 
184 12 316 104 93 86 
242 654 236 186 116 113 
190 424 210 116 103 92 
305 44 314 123 113 105 
319 515 229 74 110 154 
182 655 413 87 110 159 
184 13 318 94 84 77 
338 738 272 89 89 128 
262 920 288 61 50 42 
198 488 286 143 140 142 
165 159 328 141 46 51 
190 736 274 114 113 121 
317 281 366 163 129 95 
186 12 316 101 90 83 
203 337 212 70 100 127 
256 318 178 119 23 53 
175 294 357 115 121 131 
185 607 380 89 83 81 
186 143 367 152 71 0 
226 950 387 191 148 126 
170 483 341 117 127 143 
201 585 387 118 134 155 
326 618 194 102 113 127 
202 709 375 141 75 75 
280 652 235 58 67 95 
241 822 312 192 129 111 
197 755 278 132 108 87 
167 455 356 58 99 161 
331 796 260 137 119 104 
173 616 410 124 103 83 
232 233 378 43 55 104 
198 293 358 122 66 91 
181 451 223 159 162 171 
225 943 307 86 67 57 
211 287 190 111 85 45 
195 619 274 168 160 161 
298 737 175 135 139 191 
341 771 185 208 211 229 
294 415 387 62 101 157 
190 11 314 105 93 85 
279 55 341 123 102 82 
334 252 354 94 61 74 
204 438 176 147 19 59 
197 744 255 133 27 57 
340 227 326 81 61 83 
171 540 324 106 130 159 
221 210 394 117 39 61 
172 182 317 47 63 90 
221 489 393 108 122 140 
325 668 252 64 95 146 
299 363 233 96 105 117 
253 578 207 111 134 184 
268 827 259 197 124 153 
334 794 221 105 56 123 
168 427 361 124 109 94 
201 297 202 111 112 116 
305 661 183 52 50 49 
179 659 290 75 64 77 
205 775 380 95 129 159 
297 458 334 109 123 144 
217 958 335 100 79 67 
308 639 179 102 116 134 
190 12 317 100 88 79 
203 289 210 138 135 138 
243 705 488 128 151 184 
310 573 213 137 141 150 
212 585 395 124 137 156 
278 342 228 109 110 115 
326 322 324 107 125 145 
359 749 191 148 171 198 
229 385 136 95 154 189 
314 933 371 122 99 80 
170 700 343 114 84 76 
325 633 261 68 127 166 
306 577 345 157 159 169 
326 518 295 132 139 161 
161 187 341 140 92 62 
186 468 214 144 156 175 
228 654 237 177 134 108 
266 648 464 85 113 161 
275 832 379 188 138 109 
270 252 204 127 66 63 
189 580 362 142 155 174 
296 779 396 140 118 98 
184 416 217 92 109 132 
328 803 268 39 25 46 
178 26 289 192 163 159 
305 136 304 104 87 68 
265 206 234 132 92 76 
206 173 365 86 69 85 
292 818 391 205 147 113 
299 917 292 61 48 41 
279 836 235 165 136 107 
310 723 172 88 111 170 
254 282 180 51 51 50 
309 727 365 146 53 82 
288 768 411 146 124 101 
273 35 308 96 81 64 
290 910 275 97 79 61 
306 447 360 36 73 153 
185 238 376 78 99 116 
329 319 342 118 137 159 
302 453 341 179 172 172 
244 718 234 99 118 137 
177 27 294 186 163 157 
187 558 283 97 120 151 
178 26 292 188 161 157 
218 902 382 119 78 61 
307 759 369 167 148 132 
299 106 306 109 89 67 
305 475 310 93 109 129 
169 398 245 55 88 135 
255 971 386 141 111 92 
206 645 402 45 58 80 
288 622 333 142 145 157 
319 594 208 81 98 115 
296 973 363 83 67 59 
180 27 288 191 167 161 
188 531 261 90 116 154 
231 425 153 88 153 205 
315 991 315 143 113 79 
202 737 242 160 107 112 
172 287 275 97 109 123 
289 390 293 149 150 158 
192 545 232 108 128 164 
266 368 373 139 137 142 
180 27 293 152 133 127 
295 362 372 106 93 88 
201 484 369 127 135 151 
229 552 408 154 154 160 
243 788 247 30 37 53 
251 152 347 72 61 52 
197 615 399 102 86 72 
183 28 289 139 101 108 
214 396 147 135 81 71 
167 677 341 164 123 65 
324 256 363 107 65 78 
214 701 242 121 133 148 
195 623 413 94 82 72 
183 29 291 169 128 132 
270 59 299 85 72 58 
265 836 358 174 122 98 
323 711 331 116 133 150 
275 245 249 109 101 97 
185 512 233 85 106 128 
219 547 204 99 114 170 
247 981 380 100 83 69 
265 215 240 91 92 97 
174 639 439 131 102 71 
326 664 319 146 147 154 
172 622 384 169 121 108 
289 405 279 83 106 145 
262 58 315 90 83 78 
219 382 135 167 59 101 
284 634 391 81 105 128 
180 267 267 118 113 114 
229 760 473 94 117 139 
284 159 349 67 56 46 
172 352 328 153 128 101 
182 392 303 76 87 105 
239 639 417 28 47 69 
190 738 284 126 126 137 
242 120 348 100 92 85 
219 684 407 129 160 191 
222 938 316 79 63 55 
279 74 308 90 75 58 
194 550 290 102 131 158 
289 950 296 110 83 53 
280 811 408 202 137 105 
340 761 173 214 210 233 
203 645 398 48 65 93 
239 952 298 102 81 62 
312 484 308 99 114 133 
291 515 395 183 173 172 
313 319 299 113 108 110 
299 268 272 120 117 118 
236 805 373 201 146 115 
284 587 384 155 154 160 
189 476 254 154 150 152 
201 500 204 94 106 142 
204 583 268 144 145 151 
180 525 308 84 95 128 
364 693 191 69 104 134 
321 923 331 68 55 45 
300 257 366 66 108 140 
178 629 393 164 115 98 
285 1006 343 103 78 54 
267 224 216 50 81 107 
274 781 215 145 96 96 
257 979 381 102 83 65 
297 903 293 91 70 57 
326 742 307 177 134 72 
179 27 303 134 115 111 
314 347 313 152 106 57 
177 443 318 87 111 140 
280 822 213 167 142 122 
182 653 415 116 133 157 
311 346 309 107 95 92 
265 671 470 155 169 188 
332 930 345 127 113 101 
272 456 403 179 173 175 
189 598 286 72 114 147 
160 328 313 95 85 106 
273 757 437 130 115 111 
181 28 297 139 101 104 
180 322 367 182 153 122 
315 596 296 153 149 152 
180 28 298 133 108 117 
361 696 140 76 78 86 
235 179 404 112 60 60 
188 681 352 71 91 109 
201 621 395 78 67 58 
282 385 381 152 148 151 
246 983 315 100 77 61 
296 1004 304 139 104 73 
273 634 356 119 118 124 
239 291 174 55 43 61 
305 721 170 174 178 189 
180 365 304 65 69 89 
185 659 482 112 91 70 
214 909 343 152 112 85 
188 228 262 111 28 52 
180 28 300 120 97 105 
258 509 181 117 129 171 
187 218 287 75 54 68 
168 663 339 52 45 77 
279 765 425 159 140 123 
272 866 353 136 96 67 
324 263 305 146 56 90 
310 206 292 79 60 67 
288 965 301 99 74 51 
181 306 335 118 121 129 
210 295 159 93 60 69 
237 345 352 104 123 145 
171 392 273 65 85 139 
310 531 366 131 138 156 
192 763 345 170 161 159 
320 463 212 45 89 126 
291 171 358 107 97 88 
319 609 280 61 108 147 
304 993 338 121 93 68 
276 232 254 74 95 114 
253 626 219 154 100 89 
307 121 306 99 83 66 
313 228 286 62 41 65 
215 959 364 200 152 131 
259 409 387 112 123 139 
291 821 389 207 149 115 
173 376 227 137 137 143 
319 548 319 142 151 167 
281 719 433 151 33 39 
173 622 386 168 121 108 
309 175 361 133 107 76 
264 945 392 166 127 100 
213 942 373 187 143 121 
184 482 304 119 124 135 
283 155 339 61 50 39 
174 199 313 118 40 43 
174 334 330 129 130 137 
195 581 226 177 186 203 
299 722 393 181 40 58 
215 308 130 97 74 102 
183 751 339 180 148 123 
316 812 325 129 110 95 
177 427 240 123 137 165 
254 868 366 122 85 55 
178 381 338 153 65 7 
201 160 306 79 67 66 
257 376 371 149 139 134 
260 998 299 170 138 108 
324 486 295 67 98 144 
240 821 317 193 133 115 
215 297 126 65 67 83 
308 169 287 171 74 1 
184 30 293 184 151 146 
253 940 395 185 142 117 
329 733 301 93 80 124 
307 604 210 76 100 122 
218 649 244 83 91 121 
190 502 352 117 128 146 
328 619 190 97 107 119 
179 442 346 119 106 94 
174 546 354 79 91 111 
174 663 354 109 118 134 
284 916 289 63 52 43 
332 797 241 181 141 135 
174 522 311 82 93 120 
310 410 341 66 113 147 
236 305 352 143 143 150 
289 371 282 115 131 150 
220 885 370 145 81 81 
273 158 337 63 53 43 
289 402 295 103 117 135 
171 629 412 179 129 109 
350 730 237 110 145 178 
293 399 209 100 103 109 
299 683 408 168 170 179 
314 322 362 166 161 165 
249 301 120 57 91 119 
214 715 406 129 68 107 
192 708 510 121 143 202 
324 662 270 104 126 151 
241 820 342 183 130 110 
204 645 405 50 61 82 
215 456 376 97 115 135 
211 691 521 69 90 142 
235 232 377 53 82 120 
217 506 184 206 92 30 
183 683 424 64 89 134 
211 755 445 80 102 123 
263 909 389 175 128 101 
289 18 346 135 123 117 
321 56 327 102 91 82 
307 498 338 155 154 160 
165 208 346 105 50 68 
323 727 322 156 31 50 
184 31 300 182 157 150 
238 126 290 106 89 71 
191 609 399 101 91 84 
191 510 240 64 96 123 
292 340 281 99 63 76 
205 309 189 112 30 56 
194 377 344 151 123 92 
224 573 404 133 141 164 
314 967 337 120 96 74 
225 717 233 108 122 139 
176 23 309 125 113 113 
228 635 459 106 118 134 
263 14 309 132 117 105 
180 608 374 65 64 66 
203 277 215 98 118 139 
302 746 381 157 139 126 
216 614 388 42 56 69 
219 137 399 110 96 84 
216 780 414 167 151 138 
183 244 268 77 103 128 
169 482 318 87 106 146 
250 818 275 160 128 101 
166 365 352 169 138 102 
176 17 314 156 142 136 
302 367 245 128 141 159 
317 172 293 178 78 4 
263 749 453 91 114 133 
212 928 356 140 109 86 
262 722 461 161 177 197 
289 679 428 66 97 155 
225 941 307 96 79 69 
298 672 408 111 130 161 
243 320 135 139 55 61 
196 142 373 147 65 0 
301 77 333 119 96 72 
232 138 364 101 72 47 
282 926 287 63 51 41 
191 209 290 38 49 73 
290 346 274 85 101 124 
176 669 480 118 120 149 
249 717 236 106 115 128 
308 975 330 97 75 53 
231 339 117 135 91 107 
163 409 312 62 95 145 
232 921 306 178 122 92 
292 839 239 221 188 157 
341 214 337 145 34 16 
192 709 257 71 117 157 
185 712 305 86 70 74 
261 646 472 122 139 163 
271 712 452 169 182 201 
214 298 155 78 45 67 
337 647 235 74 128 168 
270 349 210 112 116 125 
228 632 398 55 68 81 
177 22 312 102 91 89 
249 557 405 101 117 154 
183 428 304 71 86 113 
375 713 157 214 202 201 
262 242 227 136 72 75 
320 696 353 181 178 184 
294 290 255 139 77 27 
272 194 353 118 69 72 
227 275 120 149 86 23 
308 744 365 170 150 133 
227 951 310 83 68 58 
300 619 310 128 80 93 
196 484 282 151 150 155 
356 689 215 130 136 147 
301 965 364 104 81 68 
296 359 259 156 155 160 
186 204 309 97 37 37 
301 618 199 75 100 125 
279 821 400 204 143 111 
230 662 507 107 129 159 
273 1013 326 105 77 45 
269 882 377 151 111 81 
180 18 317 107 96 88 
196 481 232 155 157 167 
279 641 240 99 70 69 
198 496 295 80 96 115 
252 652 236 170 94 96 
300 210 274 137 48 58 
187 598 358 76 108 153 
272 155 290 89 67 36 
261 634 224 152 99 82 
178 689 492 66 105 180 
222 800 333 197 143 121 
282 152 295 90 68 39 
230 810 326 191 136 116 
325 247 303 42 62 109 
325 303 317 138 138 143 
298 283 262 118 71 48 
278 539 398 181 183 191 
176 370 229 123 126 132 
219 318 347 112 125 142 
230 702 237 110 122 137 
214 706 241 110 121 133 
250 221 373 133 84 87 
199 476 201 165 139 116 
182 22 315 143 130 124 
214 715 422 57 47 53 
173 639 431 146 107 82 
293 93 304 96 81 65 
263 621 372 118 127 142 
338 191 322 130 69 22 
276 704 230 63 91 125 
251 829 295 189 126 108 
284 983 365 90 74 62 
172 465 353 52 84 134 
233 284 159 44 40 36 
185 676 502 58 92 151 
233 431 157 87 140 182 
197 506 235 120 133 149 
312 395 353 80 103 147 
268 971 381 117 84 72 
295 878 307 167 129 93 
213 139 257 116 94 79 
175 407 276 51 82 139 
226 340 119 78 99 125 
177 25 305 132 115 122 
205 315 188 117 42 73 
257 323 179 120 50 78 
298 1008 326 130 94 73 
166 358 282 123 130 142 
