ply
format ascii 1.0
comment Created by CloudCompare v2.11.1 (Anoia)
comment Created 2/28/22 9:46 PM
obj_info Generated by CloudCompare!
element vertex 2014
property float x
property float y
property float z
property uchar red
property uchar green
property uchar blue
end_header
163 234 322 97 69 78 
339 710 300 164 180 202 
318 381 341 143 62 106 
320 952 330 85 68 55 
239 193 393 137 97 102 
293 711 418 168 181 198 
234 373 356 159 138 118 
173 368 355 177 140 105 
320 933 320 77 58 51 
324 719 337 170 22 41 
316 389 339 129 138 152 
321 106 308 110 88 63 
301 465 318 109 124 145 
333 665 313 146 146 153 
248 75 302 97 73 44 
328 500 253 114 122 134 
240 462 176 131 143 166 
355 748 226 133 157 183 
319 427 243 81 111 137 
164 149 311 126 100 72 
181 660 477 116 93 67 
359 703 144 77 85 117 
183 461 333 116 127 142 
214 753 437 114 100 93 
221 704 511 140 146 178 
169 389 236 82 115 151 
164 340 315 151 149 153 
327 333 326 173 147 121 
323 297 313 135 135 142 
222 530 406 145 149 160 
243 64 307 94 80 68 
208 134 346 99 88 79 
348 678 224 168 168 177 
272 10 344 105 94 86 
314 760 357 187 172 162 
204 633 384 107 83 74 
265 500 409 170 169 176 
279 404 178 123 132 145 
273 279 234 84 59 61 
294 592 223 43 62 79 
293 127 308 94 77 58 
259 492 410 165 166 174 
219 300 162 71 87 103 
202 617 269 173 165 167 
331 523 287 141 148 165 
158 142 318 158 81 0 
266 309 357 118 137 159 
225 312 117 117 87 103 
274 386 174 162 159 162 
293 636 338 107 121 139 
258 831 354 158 107 87 
218 363 347 130 96 113 
235 981 336 118 96 83 
210 756 254 111 127 146 
259 939 395 180 137 112 
284 165 249 153 97 33 
300 285 367 140 148 161 
256 726 468 104 95 98 
327 538 227 102 115 130 
187 263 338 111 114 122 
296 858 350 189 137 104 
182 146 353 135 64 1 
328 493 259 53 76 98 
185 674 393 55 73 116 
247 67 306 134 123 113 
171 523 338 87 118 156 
193 755 320 151 141 139 
339 272 333 52 44 42 
354 738 237 106 143 181 
299 726 181 109 114 124 
287 983 365 81 65 54 
301 420 210 93 110 127 
304 569 225 116 127 143 
198 541 301 49 70 109 
235 387 362 157 134 111 
296 451 320 78 105 138 
215 501 193 199 162 106 
244 319 166 81 29 68 
241 393 141 196 191 198 
303 74 302 123 101 79 
363 655 194 99 66 77 
270 501 181 121 134 179 
246 66 308 106 96 86 
201 381 200 89 109 131 
189 736 309 62 66 101 
265 849 345 158 111 85 
211 642 434 66 81 95 
322 720 346 64 64 123 
291 836 226 182 136 94 
190 199 274 45 41 52 
183 249 267 72 103 130 
302 470 384 75 106 156 
260 897 390 159 116 87 
192 454 344 60 88 130 
180 659 346 88 100 113 
239 636 471 89 102 116 
338 478 277 100 125 155 
316 586 212 119 135 156 
369 708 208 170 170 180 
217 486 387 101 116 135 
304 348 249 156 155 161 
183 708 489 94 131 181 
246 68 311 74 58 38 
247 68 310 77 62 44 
238 874 340 121 87 34 
213 323 345 143 32 71 
218 673 515 109 125 145 
347 625 233 150 154 166 
166 375 246 138 146 160 
295 868 300 166 122 86 
281 417 189 146 113 73 
222 789 295 153 113 87 
262 998 301 162 128 99 
318 137 309 109 91 72 
255 760 461 142 130 124 
277 160 254 175 149 126 
275 1012 312 151 113 83 
164 314 271 108 17 37 
213 475 181 204 176 148 
337 704 311 108 107 129 
308 393 250 138 141 151 
324 668 164 72 91 111 
197 203 381 103 78 102 
197 695 457 128 154 182 
255 826 362 186 129 108 
297 840 248 244 195 138 
220 693 402 98 135 168 
313 789 361 166 162 164 
333 505 290 83 113 149 
196 466 289 97 104 116 
178 407 318 46 59 106 
316 779 353 139 130 126 
175 657 436 113 128 177 
284 464 398 98 120 155 
267 258 215 140 63 63 
184 223 290 100 29 52 
191 269 344 120 120 124 
281 597 380 114 133 159 
332 495 248 70 107 159 
350 728 156 215 201 216 
273 341 195 121 96 99 
189 686 436 98 128 162 
317 899 323 79 61 51 
282 943 292 76 56 35 
326 154 320 103 85 66 
321 783 331 176 149 122 
191 718 274 122 22 37 
299 858 290 192 143 98 
205 673 514 64 68 75 
184 637 370 162 106 98 
184 596 350 64 90 126 
301 747 391 134 121 115 
365 750 189 83 87 128 
214 715 396 146 91 107 
215 491 387 84 109 136 
281 157 334 61 51 41 
296 743 196 88 101 129 
320 555 322 128 143 166 
244 66 313 77 62 46 
207 530 249 127 138 159 
289 482 397 81 110 153 
229 327 151 95 83 80 
218 314 163 41 75 104 
333 804 258 163 127 107 
184 708 485 65 103 192 
217 364 165 78 119 152 
181 643 340 146 94 88 
245 67 315 83 65 45 
265 625 433 23 53 87 
201 660 265 72 99 121 
228 789 276 206 186 171 
314 395 335 110 124 147 
288 74 338 127 102 77 
247 867 337 129 102 75 
197 662 270 97 108 121 
245 733 483 153 55 59 
273 760 435 193 179 171 
268 397 386 145 133 127 
202 729 245 117 81 89 
188 724 313 37 52 78 
245 509 187 175 137 112 
245 64 317 73 64 55 
296 371 267 120 130 145 
244 67 317 82 64 43 
201 637 270 84 127 162 
172 621 347 184 135 124 
193 604 282 91 117 143 
220 916 369 164 124 106 
329 711 331 148 166 188 
193 146 361 131 60 3 
247 65 316 71 61 51 
308 831 358 191 139 105 
171 371 286 78 93 131 
347 646 231 96 143 181 
245 813 288 196 139 118 
292 530 394 98 114 169 
306 653 389 118 131 148 
305 439 210 96 115 138 
190 518 304 100 113 130 
284 835 230 96 75 78 
345 721 272 168 181 200 
200 681 426 110 137 169 
322 665 165 88 101 116 
173 631 419 161 116 91 
272 807 419 190 127 93 
217 588 248 61 82 116 
236 610 234 54 73 95 
225 597 393 145 143 149 
238 142 365 99 84 71 
182 459 318 117 130 150 
267 821 259 129 91 71 
292 822 390 206 148 114 
293 327 246 80 103 126 
243 338 116 186 82 92 
336 259 358 103 45 49 
229 112 321 75 63 51 
244 68 319 83 64 41 
277 318 231 91 111 132 
307 508 380 118 131 156 
233 260 362 127 75 92 
300 462 204 78 113 143 
327 643 272 110 136 162 
220 643 423 62 80 97 
256 906 392 188 143 117 
240 639 481 105 116 131 
301 878 313 175 134 101 
326 298 316 140 139 144 
316 744 355 59 77 103 
236 124 353 98 88 78 
276 320 227 107 122 140 
342 655 248 122 138 157 
245 382 139 187 182 184 
216 947 338 104 84 69 
256 678 488 96 114 178 
320 949 365 102 83 66 
313 542 366 101 123 155 
171 467 310 79 105 159 
267 300 218 78 101 122 
188 360 221 126 128 135 
264 291 176 102 43 22 
171 537 336 100 126 165 
198 211 378 99 65 101 
247 72 316 88 64 29 
298 307 282 142 137 140 
312 138 340 109 89 66 
330 812 251 157 133 116 
333 612 264 168 166 172 
247 72 319 89 66 32 
289 988 292 121 91 54 
353 648 223 134 156 182 
292 619 204 96 89 104 
323 657 335 135 139 147 
189 266 346 72 51 65 
255 65 320 136 124 116 
235 489 404 89 106 133 
193 743 300 142 111 89 
257 32 314 128 119 112 
178 504 333 104 111 125 
261 291 174 98 40 19 
186 442 276 101 116 142 
285 712 431 157 171 189 
288 840 260 213 187 172 
350 705 270 144 167 193 
356 760 215 168 177 193 
256 11 345 115 107 102 
177 529 345 57 78 98 
194 489 351 92 114 146 
209 317 203 98 114 133 
211 736 237 163 27 23 
327 259 304 129 113 126 
331 267 363 155 38 42 
197 375 209 129 127 130 
218 271 353 146 145 150 
252 326 170 84 45 56 
218 270 175 60 86 107 
251 66 311 88 73 63 
336 630 188 60 89 112 
269 462 175 141 143 166 
302 52 307 103 98 95 
174 402 304 74 96 137 
199 706 461 124 145 169 
285 1008 307 116 86 63 
240 230 376 76 84 117 
309 983 343 108 88 65 
325 341 328 138 122 113 
325 137 322 110 90 69 
209 720 507 151 167 210 
197 519 301 105 113 126 
218 368 347 114 123 137 
249 70 307 96 81 66 
203 183 357 108 64 78 
305 699 181 95 97 132 
190 663 277 123 134 148 
171 162 349 80 84 98 
193 404 212 128 108 83 
276 600 378 117 127 160 
280 632 355 146 143 148 
296 397 213 93 103 114 
285 583 387 140 143 154 
172 166 349 55 81 102 
215 658 471 49 72 92 
225 405 358 156 79 3 
315 628 291 102 136 164 
231 777 455 189 170 156 
328 768 308 146 109 72 
181 361 301 70 75 85 
249 71 311 79 58 34 
221 628 244 119 126 155 
232 959 311 95 69 58 
283 424 192 140 113 86 
244 582 212 186 189 202 
316 349 316 157 116 70 
267 605 382 85 114 159 
314 662 377 107 132 161 
223 137 399 105 94 88 
207 644 388 38 46 63 
176 329 231 112 118 127 
329 246 307 35 55 90 
341 784 199 197 202 216 
328 727 325 156 18 41 
259 704 474 73 118 174 
207 330 200 87 105 123 
278 645 440 35 70 114 
186 505 339 51 80 111 
309 756 183 165 172 197 
298 641 222 111 68 67 
179 353 356 184 155 120 
350 606 213 135 145 161 
301 251 277 90 76 71 
190 437 339 98 88 80 
222 683 243 108 124 142 
223 289 119 129 90 77 
204 755 380 119 98 82 
177 678 486 163 164 174 
287 666 437 33 70 119 
341 643 241 78 135 179 
181 470 333 74 94 123 
255 528 189 50 90 167 
178 673 383 138 161 192 
249 380 156 105 119 137 
335 667 156 119 125 136 
172 286 272 102 112 124 
243 520 191 139 125 123 
235 796 272 111 83 97 
276 351 217 96 105 116 
178 378 337 151 63 31 
229 450 385 78 101 126 
281 430 187 138 99 55 
369 737 171 220 218 229 
322 936 364 85 68 60 
332 805 219 211 172 111 
184 312 233 111 120 132 
335 577 246 119 133 152 
295 427 389 61 96 151 
177 582 322 157 164 178 
276 630 226 168 112 89 
313 778 365 168 154 146 
288 540 394 115 125 170 
246 811 276 137 98 67 
189 348 332 149 116 75 
282 431 187 141 104 56 
315 206 291 72 51 54 
284 949 294 87 62 38 
338 677 311 102 79 91 
178 570 318 71 87 128 
291 639 401 133 141 153 
202 501 243 113 118 128 
170 371 320 140 114 81 
187 644 358 138 88 81 
210 647 248 101 101 107 
182 383 295 51 81 116 
172 340 360 187 158 130 
323 227 295 88 46 43 
292 519 397 149 155 169 
300 722 398 95 43 49 
220 780 426 177 154 135 
263 244 193 97 40 50 
319 831 252 196 173 155 
308 648 317 94 118 142 
193 522 356 129 142 161 
201 767 319 143 136 134 
252 66 313 78 63 51 
214 474 179 206 176 145 
225 766 462 141 100 89 
279 195 253 135 109 88 
364 636 184 89 120 148 
349 680 264 98 118 140 
315 357 317 165 126 80 
230 322 347 113 121 134 
243 96 300 87 72 56 
213 664 481 63 69 78 
333 577 255 99 123 155 
285 611 209 140 150 166 
329 281 363 140 79 102 
279 829 238 165 139 117 
307 945 303 84 63 44 
252 654 490 57 63 89 
255 67 313 80 69 60 
253 335 129 138 59 81 
254 67 315 75 65 54 
196 590 369 161 159 164 
172 136 342 108 99 90 
217 737 409 63 65 78 
227 570 217 163 176 210 
267 333 210 122 123 127 
326 595 209 64 91 114 
184 311 340 123 113 105 
186 166 356 128 81 73 
252 893 313 130 100 67 
253 66 317 78 67 57 
241 315 151 83 0 22 
207 611 262 100 123 149 
284 852 289 197 147 118 
167 406 343 113 89 64 
190 246 350 71 50 58 
166 292 305 112 125 141 
299 327 256 84 119 148 
346 592 218 106 131 158 
242 348 158 69 48 77 
182 439 262 94 113 151 
229 966 321 86 70 60 
189 628 298 125 27 49 
204 540 237 144 156 176 
174 654 461 131 102 74 
260 722 462 148 153 160 
282 708 230 94 114 149 
299 628 200 113 91 70 
294 645 404 77 111 146 
230 949 309 79 63 58 
202 748 259 100 31 74 
271 633 442 84 127 162 
329 57 314 124 113 104 
184 230 287 73 82 104 
380 682 153 80 104 128 
173 315 293 142 108 68 
310 518 213 192 184 186 
274 630 433 33 66 113 
250 355 148 114 87 82 
300 828 376 205 143 114 
184 707 484 106 128 194 
170 368 284 80 93 132 
191 187 289 62 42 42 
193 202 299 44 58 72 
293 726 203 80 108 154 
291 1010 340 130 102 75 
350 650 167 72 86 101 
253 831 302 183 121 100 
227 390 355 164 142 121 
179 611 406 104 91 80 
313 511 365 173 165 165 
200 313 348 166 140 112 
251 74 307 88 67 39 
294 557 385 191 182 181 
251 75 307 89 68 40 
176 669 393 104 126 162 
307 692 173 102 116 132 
343 706 150 136 152 190 
326 87 306 134 99 81 
168 467 348 93 119 163 
247 275 112 115 95 77 
315 663 170 55 54 65 
305 223 365 69 45 64 
190 133 342 97 88 82 
284 156 255 182 155 131 
179 672 380 137 148 190 
223 639 465 82 101 119 
211 666 246 79 86 100 
272 349 213 116 118 125 
281 626 353 149 146 150 
259 386 377 92 113 133 
209 473 194 175 148 120 
251 75 310 87 65 33 
258 342 171 144 138 139 
214 422 166 104 124 145 
306 620 309 95 73 82 
225 342 150 49 102 136 
252 150 380 106 96 88 
296 844 267 149 156 167 
291 628 336 99 128 159 
186 273 338 118 120 128 
169 318 323 115 77 76 
246 356 152 82 74 90 
252 648 232 153 86 74 
191 395 214 139 127 122 
259 274 112 164 75 5 
204 435 352 125 58 79 
267 190 214 115 55 7 
181 265 337 124 125 132 
190 421 288 94 105 126 
325 485 220 43 92 161 
258 821 385 172 122 95 
236 326 159 35 40 63 
294 190 358 109 120 134 
308 262 282 95 53 57 
320 163 294 161 141 126 
310 393 325 116 124 137 
223 331 126 123 103 114 
233 293 145 102 37 38 
326 654 165 73 95 114 
280 977 289 112 93 72 
175 392 339 142 87 37 
375 726 165 35 90 129 
290 825 212 108 120 138 
269 772 436 160 133 110 
244 887 316 151 118 91 
256 248 185 78 42 44 
348 762 240 168 14 42 
225 785 388 200 144 110 
301 296 367 132 88 24 
222 759 471 168 157 165 
335 240 356 60 44 61 
252 78 309 92 69 38 
292 805 402 191 132 98 
323 469 214 41 82 132 
337 470 244 130 144 161 
274 1012 333 129 96 69 
297 611 208 59 54 62 
263 834 355 165 114 92 
213 549 402 106 110 132 
323 683 362 146 162 184 
194 679 419 87 114 159 
310 152 344 110 90 68 
293 54 305 104 93 82 
300 884 311 150 113 82 
239 808 292 199 141 119 
202 261 360 148 147 154 
175 362 340 133 114 97 
262 209 201 113 91 75 
277 558 210 81 103 152 
294 390 383 93 105 119 
339 683 308 96 97 119 
233 621 389 26 41 55 
311 766 186 122 135 166 
250 75 313 87 63 28 
306 479 319 139 144 154 
183 663 420 39 90 143 
298 405 212 101 113 127 
206 735 487 142 171 201 
325 729 169 59 55 127 
333 800 267 140 116 102 
291 914 281 79 66 53 
327 626 186 79 105 133 
346 605 225 122 143 166 
298 929 291 64 50 39 
315 497 211 142 144 156 
329 792 296 161 140 123 
271 910 387 167 121 93 
362 650 205 169 165 168 
209 710 445 120 149 178 
175 324 234 94 100 110 
272 298 189 138 37 40 
314 338 364 71 111 142 
333 221 355 94 45 77 
183 371 334 135 111 90 
210 544 254 101 121 144 
170 324 245 136 103 64 
274 341 221 81 99 118 
287 366 221 102 106 114 
265 658 243 174 112 100 
290 877 351 152 113 79 
308 848 284 211 151 120 
301 116 304 100 84 68 
308 525 214 174 169 172 
174 252 337 127 126 129 
274 954 293 100 77 55 
309 386 228 126 104 77 
223 883 371 158 98 94 
208 661 249 84 84 90 
308 442 282 35 78 121 
217 152 397 138 71 36 
311 698 388 149 164 187 
184 662 389 84 98 116 
283 643 355 85 88 94 
275 631 386 65 85 103 
332 732 165 142 156 181 
281 346 226 84 100 117 
166 365 356 180 150 116 
186 513 305 99 120 147 
320 565 306 106 123 157 
249 660 246 78 76 113 
293 768 405 187 153 116 
177 272 362 151 153 161 
324 174 300 164 73 5 
267 200 210 105 99 93 
194 207 380 101 66 98 
220 695 396 114 148 181 
270 202 217 83 59 80 
275 846 293 181 137 112 
262 876 311 145 109 77 
251 79 316 103 73 30 
302 425 277 94 113 138 
302 149 294 136 111 88 
250 79 319 108 76 33 
283 921 288 60 48 40 
327 599 210 128 138 154 
176 663 442 130 132 170 
187 497 304 121 130 148 
252 700 238 101 111 124 
179 606 330 85 84 93 
216 957 347 143 113 91 
168 314 281 96 106 119 
340 639 176 79 105 127 
242 372 165 122 77 38 
189 603 355 136 139 148 
280 90 330 98 81 62 
295 197 358 106 65 65 
193 631 286 122 57 69 
168 387 244 93 112 147 
175 634 433 127 100 72 
194 426 300 67 84 112 
273 492 180 119 136 172 
243 696 238 130 138 150 
243 81 298 89 74 58 
310 956 310 124 93 71 
290 398 385 83 94 108 
243 82 298 88 74 58 
334 485 288 170 172 181 
177 675 432 43 89 152 
213 299 191 125 58 70 
194 479 272 92 111 151 
368 673 162 107 121 141 
241 85 298 87 74 61 
238 806 285 199 146 121 
350 650 225 122 144 169 
318 345 315 152 108 41 
237 868 355 167 99 22 
317 794 347 135 132 137 
352 607 195 91 111 131 
274 488 180 135 146 177 
263 779 228 121 98 74 
241 87 299 88 76 64 
197 631 433 90 79 70 
252 525 409 99 110 152 
205 167 375 56 65 75 
309 779 376 165 154 147 
286 672 210 55 63 108 
243 84 298 88 73 58 
294 901 288 103 81 67 
275 643 445 81 129 166 
176 293 287 126 128 136 
190 672 386 98 116 155 
331 496 294 159 162 171 
201 653 476 92 80 69 
289 210 357 38 64 93 
206 190 388 110 26 55 
222 543 206 170 0 53 
227 143 405 136 110 74 
226 574 225 113 131 187 
178 638 445 120 96 70 
172 424 306 75 103 152 
163 303 312 82 97 119 
323 488 300 96 120 149 
258 846 327 159 115 93 
185 270 365 150 153 162 
225 968 369 185 138 118 
267 322 213 112 100 104 
285 899 368 143 109 78 
196 179 271 90 57 42 
238 239 372 98 77 102 
188 375 346 154 105 69 
219 756 473 180 139 119 
307 493 357 134 136 143 
176 662 444 129 133 172 
316 49 326 106 93 81 
300 468 341 118 133 151 
309 600 323 163 160 164 
335 455 248 99 113 130 
204 165 359 107 73 66 
340 607 192 92 112 132 
221 889 343 152 114 85 
188 358 349 143 37 45 
182 723 333 96 84 72 
361 664 166 152 147 147 
214 482 383 131 134 144 
213 431 167 188 161 132 
304 688 158 68 100 129 
231 669 246 50 76 113 
263 877 310 141 108 76 
209 153 377 78 95 112 
306 654 197 52 49 58 
184 317 361 170 142 113 
212 733 442 172 100 114 
190 343 223 135 134 138 
244 85 301 90 74 56 
208 660 249 94 93 97 
285 910 264 86 69 55 
245 85 301 92 75 57 
255 831 294 191 130 109 
250 268 361 105 93 109 
191 473 341 44 78 125 
298 681 419 179 174 178 
309 309 369 148 127 110 
205 644 262 98 87 93 
289 794 204 41 48 88 
216 292 168 96 85 96 
322 811 207 161 27 86 
303 451 208 93 118 145 
324 542 312 198 188 184 
383 691 168 84 129 164 
270 282 183 87 34 37 
211 456 178 147 41 88 
178 445 343 98 91 104 
228 276 125 30 72 101 
164 398 351 179 79 8 
300 417 275 68 97 130 
240 89 298 91 77 64 
335 507 266 172 172 181 
277 168 351 98 90 82 
277 346 223 80 97 115 
188 423 284 83 95 132 
217 764 413 126 101 80 
237 982 333 116 95 79 
302 628 196 71 70 70 
208 296 347 84 111 137 
328 667 277 89 96 107 
257 627 436 27 51 90 
164 344 250 138 91 101 
193 722 279 139 41 44 
241 90 301 90 77 64 
232 424 376 142 125 109 
323 526 233 75 102 129 
176 425 346 123 110 104 
210 292 213 135 133 138 
282 794 415 157 115 81 
230 215 385 82 37 64 
182 672 494 98 121 163 
230 586 398 115 131 151 
332 806 257 163 122 84 
250 839 316 155 101 86 
296 270 367 135 7 54 
236 243 371 125 78 83 
231 474 397 73 98 130 
176 487 318 104 125 154 
181 296 298 83 89 97 
271 288 193 145 31 43 
329 179 304 160 75 5 
178 603 334 79 95 126 
266 887 310 139 109 76 
186 607 399 94 87 82 
254 805 428 199 138 108 
313 394 244 121 136 155 
349 682 270 112 135 160 
295 620 330 122 140 162 
317 787 349 151 139 132 
242 92 300 92 78 64 
275 519 404 186 177 176 
349 681 273 167 167 174 
360 736 218 112 140 169 
290 911 370 163 124 89 
267 160 340 62 52 44 
179 251 338 106 103 110 
229 874 346 116 88 53 
289 322 367 133 132 136 
243 95 302 90 73 55 
220 411 152 174 174 182 
194 263 365 165 164 171 
268 904 297 85 72 60 
320 662 361 102 142 175 
245 89 302 94 76 55 
178 696 475 130 148 178 
189 269 365 165 164 171 
273 990 364 130 110 93 
223 661 498 78 110 139 
288 600 226 37 48 62 
199 196 355 124 71 73 
246 89 303 95 78 57 
246 90 303 93 75 54 
313 544 230 56 75 120 
269 174 353 134 65 8 
211 752 455 91 109 130 
193 475 245 122 127 140 
263 156 295 82 64 44 
295 630 331 111 134 160 
295 617 203 57 72 93 
178 250 302 103 92 103 
167 170 346 59 93 119 
286 176 260 108 102 96 
312 275 286 129 129 133 
226 269 117 167 74 14 
276 569 213 115 129 174 
206 378 184 93 119 146 
255 639 225 158 86 81 
276 828 388 200 152 122 
294 360 271 153 151 156 
203 583 387 81 104 149 
286 758 215 120 134 153 
195 468 215 113 130 160 
226 975 347 113 92 78 
247 87 318 119 78 66 
326 547 222 137 141 151 
205 727 498 172 187 208 
285 71 338 127 102 74 
212 444 171 183 154 121 
239 129 330 76 52 22 
294 322 272 133 136 146 
247 88 304 100 80 56 
176 363 293 93 97 120 
210 597 241 118 135 158 
215 952 347 144 115 93 
216 643 450 68 87 105 
185 316 230 115 122 133 
244 282 171 90 42 50 
301 249 278 93 73 57 
223 298 124 65 84 101 
340 771 262 163 115 40 
275 879 365 136 99 67 
189 383 324 100 73 55 
278 898 292 88 71 52 
311 413 368 89 119 158 
240 808 289 199 144 120 
171 371 321 139 86 35 
213 490 190 196 164 130 
174 325 361 188 159 129 
171 439 308 78 112 162 
205 469 202 114 61 58 
228 955 386 196 150 129 
246 148 350 76 68 63 
326 903 334 82 64 50 
289 192 354 44 72 101 
193 536 305 55 79 117 
170 321 249 92 106 123 
167 384 245 105 127 156 
219 784 299 148 108 83 
275 168 351 105 95 87 
176 372 291 60 85 124 
316 916 314 63 51 48 
319 910 319 71 57 49 
261 896 389 159 116 87 
208 634 256 144 142 149 
199 764 363 182 152 143 
168 307 262 109 44 54 
184 633 378 156 113 99 
300 644 362 36 66 95 
196 648 375 56 66 87 
245 92 305 89 73 57 
182 237 367 80 116 145 
245 93 305 90 76 63 
328 500 299 83 111 160 
185 734 322 81 79 95 
352 678 219 173 175 184 
235 299 116 132 47 65 
272 920 288 55 46 40 
288 607 215 117 126 138 
223 627 240 94 118 158 
304 404 255 88 107 145 
267 298 177 60 54 73 
201 142 365 133 63 3 
288 988 358 115 95 79 
164 212 327 57 38 69 
273 694 459 146 155 178 
320 740 178 90 100 157 
191 712 502 86 116 180 
280 907 262 97 76 52 
283 681 220 142 147 158 
365 657 181 119 122 129 
245 93 311 96 65 50 
167 475 345 84 119 164 
205 561 393 121 126 142 
325 346 351 144 88 104 
276 698 452 166 173 187 
191 547 355 78 100 141 
304 692 403 143 152 177 
184 519 237 168 174 187 
323 768 179 68 108 183 
293 397 297 97 111 131 
235 223 381 81 50 80 
244 283 171 85 36 48 
279 447 402 55 90 150 
159 143 316 162 72 0 
251 420 173 73 122 159 
172 446 339 105 115 132 
242 100 312 104 67 59 
207 211 378 51 36 63 
270 451 175 111 133 166 
189 739 310 96 82 71 
216 912 365 180 132 113 
295 717 411 157 28 37 
205 760 275 203 185 174 
267 207 208 68 72 77 
188 247 340 52 86 113 
338 466 272 160 168 183 
311 903 345 86 67 51 
175 321 238 115 101 89 
247 642 229 207 121 114 
320 294 305 136 139 148 
326 280 312 78 61 64 
217 115 330 66 59 54 
258 668 248 96 100 109 
281 504 187 82 118 154 
243 95 317 114 74 68 
289 314 249 96 92 96 
257 907 392 191 145 121 
160 340 273 99 118 141 
204 652 472 85 76 69 
260 561 200 103 130 181 
305 429 275 51 87 133 
299 247 365 143 82 64 
247 89 314 105 70 57 
177 436 344 116 105 97 
298 637 207 154 107 86 
288 268 365 110 52 80 
311 183 295 117 99 98 
223 359 146 115 25 63 
295 947 297 87 67 44 
298 846 359 201 144 111 
226 795 299 200 147 122 
228 319 140 141 44 65 
323 755 332 119 83 56 
266 1006 304 179 155 136 
277 221 248 63 90 113 
278 190 352 75 86 95 
175 406 225 70 97 147 
273 505 406 114 123 160 
329 640 262 150 151 160 
382 684 165 82 126 163 
178 258 302 104 87 87 
212 295 197 99 65 57 
244 91 318 121 81 70 
244 91 319 122 82 70 
200 280 355 105 121 141 
305 647 344 116 124 135 
303 448 380 63 93 140 
226 772 456 112 99 99 
295 940 293 77 60 44 
292 86 306 103 88 73 
265 237 227 131 52 72 
296 233 362 137 42 75 
183 629 323 139 134 136 
224 638 232 117 89 78 
313 723 370 133 143 161 
294 631 334 90 124 155 
199 153 362 102 106 113 
190 654 362 86 78 80 
247 88 318 119 78 66 
317 423 218 114 123 135 
224 945 385 189 146 123 
330 908 334 81 65 53 
268 190 216 112 60 0 
315 525 230 125 133 146 
208 530 249 111 129 153 
319 575 306 123 131 145 
174 465 344 57 83 125 
223 117 335 80 74 68 
296 734 201 117 134 165 
249 661 499 106 125 149 
318 695 373 153 152 159 
314 993 332 137 106 83 
209 585 238 66 97 149 
279 391 183 106 119 138 
206 333 205 87 75 80 
211 140 387 132 62 2 
242 620 396 69 83 98 
366 722 152 204 196 226 
210 405 179 151 152 158 
368 706 212 155 166 183 
307 257 285 87 68 72 
304 727 386 155 134 102 
283 134 321 82 61 39 
318 508 231 171 170 179 
202 125 329 73 65 58 
248 570 404 124 138 158 
306 419 214 68 93 120 
315 952 374 99 80 63 
255 830 346 155 102 84 
286 687 439 38 71 149 
309 251 368 101 95 110 
319 828 313 187 141 110 
235 867 380 162 121 105 
189 696 349 112 95 75 
348 696 280 155 71 101 
177 666 388 83 106 145 
249 81 304 106 83 56 
203 164 388 36 72 101 
160 148 331 144 72 0 
175 529 332 86 101 119 
300 735 394 117 18 59 
286 258 255 110 55 62 
302 864 305 187 145 110 
259 895 311 107 82 55 
250 787 447 204 183 170 
252 909 308 99 79 57 
325 816 224 159 111 85 
167 350 348 142 26 50 
259 270 115 148 111 55 
178 452 303 65 90 131 
316 686 160 76 82 111 
272 330 360 81 119 149 
329 730 320 147 155 166 
279 882 363 142 104 74 
198 488 286 144 140 143 
168 381 266 71 100 145 
228 507 184 226 97 48 
296 375 268 138 147 161 
308 892 319 89 66 50 
164 178 312 94 71 90 
199 509 244 66 93 121 
305 891 342 85 66 52 
307 548 228 91 111 135 
290 487 398 124 139 160 
254 198 372 135 112 103 
297 587 369 146 146 159 
179 167 352 124 84 88 
199 492 268 87 104 134 
300 253 272 79 55 58 
302 237 282 56 84 110 
301 606 331 119 135 156 
307 221 365 61 47 66 
186 378 322 138 43 9 
300 81 304 106 89 73 
190 306 335 110 115 125 
330 808 283 140 115 94 
186 736 362 125 124 138 
200 543 234 96 121 162 
302 460 357 99 115 148 
191 188 279 85 40 49 
167 374 239 137 142 153 
342 239 341 44 69 107 
186 263 348 62 96 123 
283 694 219 85 109 143 
237 722 494 153 164 181 
195 347 220 126 124 128 
189 210 376 96 90 100 
250 152 356 64 61 60 
208 455 193 156 26 74 
221 377 147 75 113 144 
288 140 340 68 57 45 
165 234 310 114 37 61 
325 96 311 140 105 84 
320 689 161 70 101 138 
183 705 480 109 141 194 
188 411 327 111 88 97 
247 393 169 114 119 132 
321 907 325 73 58 48 
282 405 387 69 97 126 
249 85 311 94 68 48 
270 208 216 128 104 94 
325 169 299 132 118 110 
314 99 308 101 82 59 
223 796 331 199 146 121 
315 190 364 116 111 114 
181 445 342 78 53 72 
248 86 310 91 69 47 
280 1010 342 85 61 53 
213 522 207 162 141 118 
317 502 217 111 127 166 
200 403 345 146 80 17 
206 575 392 117 133 160 
222 366 145 132 31 79 
377 677 173 82 124 160 
230 790 437 183 173 169 
232 304 114 135 77 67 
217 420 160 150 156 170 
178 511 331 82 93 114 
233 933 292 124 100 77 
185 703 501 121 155 193 
294 602 227 65 74 85 
315 332 309 144 145 151 
196 624 422 99 86 76 
329 644 269 96 128 158 
319 696 161 36 77 143 
263 704 240 45 59 78 
185 731 361 113 94 88 
298 956 376 104 86 74 
251 81 314 102 72 34 
293 701 423 90 125 175 
285 706 433 42 65 114 
320 789 337 127 126 132 
237 127 327 63 49 30 
329 908 334 82 66 55 
287 266 364 88 96 117 
203 549 383 93 113 148 
273 203 242 125 82 77 
209 753 389 145 126 113 
185 524 341 42 72 97 
221 273 165 117 70 64 
304 438 286 76 96 135 
218 209 384 122 42 54 
258 31 337 147 126 125 
343 748 166 125 132 209 
261 448 175 167 164 169 
241 969 383 179 136 116 
218 583 397 138 139 149 
218 898 367 168 124 101 
195 599 281 76 117 150 
283 60 341 125 104 84 
209 277 223 110 124 142 
314 161 348 98 82 66 
250 81 319 112 74 39 
190 130 315 116 88 72 
338 724 158 99 123 179 
281 585 389 137 140 156 
164 364 252 116 125 142 
368 742 176 124 140 192 
251 268 145 140 77 73 
278 812 214 134 106 75 
320 954 336 64 48 41 
273 905 286 90 71 61 
210 266 210 144 142 145 
332 167 314 125 114 105 
227 491 178 233 197 145 
184 636 314 116 79 69 
319 363 363 174 85 114 
268 750 445 93 113 131 
196 622 278 166 159 160 
173 617 391 162 118 103 
271 845 297 190 145 117 
351 770 214 173 184 202 
199 457 205 141 121 110 
348 710 273 170 179 195 
203 519 264 78 102 133 
233 593 397 107 120 144 
313 847 298 197 148 116 
165 252 331 137 137 144 
186 659 409 56 96 136 
175 520 346 60 82 106 
303 487 379 42 78 128 
232 752 236 216 173 121 
322 698 362 178 175 181 
296 420 317 51 77 109 
319 270 304 82 79 94 
237 275 168 94 41 38 
250 85 315 106 69 51 
177 652 463 127 101 73 
210 662 476 83 84 88 
328 554 269 135 146 163 
314 529 364 184 175 175 
185 675 315 165 114 38 
310 790 374 84 112 137 
246 278 357 82 133 172 
310 983 303 153 122 87 
329 290 361 112 132 153 
269 845 298 190 145 117 
223 150 402 159 69 6 
188 223 374 99 51 82 
194 576 367 134 144 160 
321 740 338 144 121 97 
195 437 344 123 113 108 
204 596 270 156 152 154 
311 864 340 143 100 67 
199 667 263 108 116 127 
221 340 160 110 40 78 
335 576 246 125 136 152 
341 585 202 91 115 138 
329 208 309 112 36 31 
252 81 313 100 72 29 
316 450 281 144 146 155 
298 422 287 79 106 139 
302 462 341 171 168 172 
331 730 311 156 36 54 
248 88 309 87 68 52 
290 600 360 112 118 151 
201 487 234 82 99 137 
212 776 393 173 162 155 
298 399 313 83 100 120 
235 896 325 114 88 57 
218 702 408 106 126 148 
248 88 316 111 72 61 
293 391 283 76 101 136 
179 669 444 158 159 168 
184 250 283 125 121 122 
201 677 417 111 139 171 
294 357 270 154 152 156 
181 298 299 78 84 92 
224 99 284 91 79 68 
225 98 284 92 80 68 
244 717 233 112 126 143 
240 482 184 129 108 118 
317 660 366 146 155 170 
245 576 403 136 144 165 
248 370 364 149 129 108 
263 169 247 158 134 116 
268 809 233 158 138 122 
277 779 425 150 137 130 
361 700 143 95 54 80 
175 415 304 68 90 132 
180 266 272 122 122 125 
278 435 402 105 132 161 
198 518 300 90 103 122 
179 661 370 58 83 118 
183 649 334 107 90 99 
206 468 199 136 29 65 
177 282 285 85 108 131 
160 172 323 97 77 88 
230 804 323 195 144 122 
195 620 280 168 161 162 
323 172 297 159 96 28 
176 670 478 53 59 107 
258 734 464 80 23 41 
295 285 250 157 66 29 
183 240 278 76 107 132 
226 101 285 91 78 64 
286 185 260 111 100 103 
312 892 343 90 74 60 
185 243 256 121 119 122 
233 796 432 148 120 103 
226 102 285 90 76 62 
216 320 345 146 13 67 
314 761 359 81 74 69 
173 442 305 83 105 150 
315 697 380 92 94 104 
198 718 254 101 124 150 
188 394 327 106 90 78 
322 903 329 74 59 49 
228 97 287 95 78 60 
310 178 292 126 72 37 
244 951 295 94 73 60 
213 260 207 107 93 87 
219 965 347 143 111 91 
219 270 170 94 85 88 
242 548 410 159 162 173 
209 441 179 154 31 71 
281 157 253 180 153 130 
317 401 230 95 52 68 
329 584 272 132 150 172 
172 340 301 113 76 36 
206 377 185 110 130 152 
250 710 236 103 120 138 
224 104 283 92 78 63 
361 729 155 191 180 212 
161 328 265 102 108 118 
225 344 124 146 91 106 
193 548 272 143 158 181 
301 380 224 105 75 52 
324 911 334 85 68 53 
324 293 366 178 79 5 
248 990 362 112 90 73 
268 929 290 58 47 37 
246 139 304 76 67 59 
190 714 483 174 184 200 
248 824 344 180 129 109 
327 793 304 144 119 91 
216 324 164 95 76 86 
287 309 249 138 137 142 
214 558 251 97 129 170 
226 105 285 93 77 61 
268 1001 295 181 145 118 
341 205 333 132 43 9 
213 756 459 58 56 101 
307 99 309 111 92 73 
298 937 294 58 46 36 
321 60 330 114 84 66 
320 566 309 119 130 158 
375 673 167 80 117 149 
180 471 319 89 109 145 
208 553 272 65 96 121 
168 442 349 46 77 140 
201 158 273 92 44 39 
271 185 354 110 92 84 
271 859 306 167 127 99 
216 787 346 201 150 122 
342 788 224 186 40 57 
341 785 200 201 205 216 
231 268 357 82 127 162 
194 232 349 100 20 56 
351 688 267 119 147 175 
328 163 339 105 90 73 
282 431 400 122 142 167 
256 821 387 174 124 99 
260 660 481 120 135 164 
246 351 356 98 120 143 
226 108 285 99 83 65 
330 561 260 91 120 151 
183 373 350 155 82 60 
243 463 401 70 96 132 
306 840 355 194 139 108 
246 247 368 125 80 84 
226 110 284 99 84 67 
227 459 165 219 191 164 
246 765 466 145 121 113 
340 656 258 81 115 149 
271 154 311 83 63 39 
204 336 214 73 94 114 
256 279 359 74 118 154 
283 835 252 81 55 66 
230 793 395 187 137 105 
196 485 268 81 102 143 
183 264 338 103 108 118 
333 507 256 155 157 167 
195 591 368 159 158 164 
168 460 340 110 135 162 
312 896 312 81 62 49 
342 755 261 141 159 174 
180 545 311 101 116 149 
196 485 277 78 98 136 
204 395 197 135 62 70 
310 828 223 57 83 135 
182 742 348 148 124 116 
229 645 399 63 71 83 
247 694 492 124 150 182 
192 408 294 45 59 108 
239 970 311 80 62 49 
224 127 264 107 90 73 
175 297 331 67 106 138 
187 382 344 169 132 89 
303 391 222 129 71 85 
282 899 374 163 122 92 
196 468 350 118 132 153 
181 739 348 179 163 152 
311 727 372 169 112 111 
346 596 219 117 136 158 
307 979 329 95 72 55 
313 579 333 153 160 174 
193 414 301 112 114 122 
266 895 308 98 75 48 
302 350 304 106 119 136 
285 569 391 137 143 156 
257 253 132 103 92 87 
241 257 172 123 36 9 
270 498 181 61 97 167 
333 677 328 132 152 175 
170 366 233 100 119 141 
276 11 322 120 106 94 
203 450 355 115 126 141 
323 699 357 170 169 177 
314 983 308 135 107 76 
225 127 268 106 89 70 
211 325 345 135 35 62 
325 292 313 137 136 140 
202 147 272 133 52 41 
214 275 203 107 66 32 
203 699 452 139 163 190 
232 541 407 121 136 158 
259 64 321 100 90 81 
243 134 285 97 81 66 
179 392 222 30 83 119 
342 577 210 75 101 125 
225 618 231 194 130 127 
235 436 157 200 194 202 
300 1004 342 137 108 77 
290 169 264 147 73 0 
364 743 203 124 154 185 
195 745 293 170 151 136 
310 764 186 127 123 181 
308 916 355 93 73 59 
175 311 294 113 84 45 
262 891 386 164 120 91 
283 130 324 76 60 44 
217 667 245 57 108 145 
345 764 247 151 111 115 
313 46 328 106 91 75 
250 839 313 168 119 100 
189 365 221 116 120 128 
224 339 346 142 29 72 
167 137 340 113 101 93 
366 725 155 194 198 225 
225 113 284 99 85 72 
288 627 343 107 131 155 
302 474 205 78 107 140 
203 541 380 148 150 158 
225 115 284 99 85 71 
226 112 284 101 86 71 
278 267 244 90 50 58 
256 528 409 102 113 159 
279 267 245 93 35 44 
278 259 362 132 108 121 
213 741 439 122 58 77 
224 116 283 100 86 71 
247 150 348 79 63 53 
275 762 223 124 59 61 
318 55 308 126 118 112 
225 117 283 102 87 73 
295 900 361 113 73 51 
186 387 331 126 103 77 
269 233 239 121 70 66 
312 44 322 103 91 81 
337 178 314 139 70 6 
192 471 277 76 101 145 
196 457 291 68 85 111 
205 626 265 156 149 151 
193 648 288 66 38 29 
164 251 313 136 107 83 
205 733 380 99 95 94 
230 782 450 162 135 109 
226 118 283 105 88 71 
305 659 399 148 157 174 
194 597 364 126 133 145 
259 194 367 141 83 82 
319 432 263 91 117 141 
313 640 300 113 49 67 
175 207 344 98 52 68 
173 405 261 67 98 150 
337 204 347 103 60 53 
322 655 168 74 107 146 
194 547 278 86 112 154 
318 534 351 121 134 154 
228 113 284 102 83 59 
308 146 302 104 85 64 
194 754 312 169 127 105 
201 628 395 62 54 53 
319 714 357 166 26 39 
305 544 225 73 92 113 
228 114 284 104 83 58 
187 670 373 60 76 138 
177 626 393 158 112 94 
292 671 194 102 115 139 
193 318 351 177 148 116 
206 315 219 74 97 118 
303 932 375 103 82 62 
176 615 335 144 113 97 
208 600 264 107 110 119 
272 519 186 112 123 176 
196 641 460 100 86 73 
207 268 224 156 151 153 
255 221 370 71 92 119 
336 470 240 106 120 138 
322 505 314 168 167 172 
278 474 180 93 110 155 
263 621 377 146 143 146 
179 689 443 117 133 183 
296 320 256 86 115 140 
278 971 378 107 78 64 
289 517 399 145 148 168 
283 977 372 91 70 55 
222 369 140 125 46 83 
278 243 250 112 103 99 
300 921 291 59 48 38 
215 745 403 136 109 102 
304 478 337 110 125 142 
352 733 245 148 161 180 
324 302 315 132 133 141 
203 688 442 111 142 173 
229 119 285 123 101 78 
230 357 351 118 75 93 
229 119 286 126 105 84 
323 322 311 125 138 156 
286 944 383 83 66 51 
302 665 408 157 159 169 
281 902 288 80 66 51 
353 718 250 87 144 191 
230 118 287 127 107 87 
299 617 202 56 84 110 
185 410 319 84 93 124 
173 583 338 97 125 165 
284 514 402 154 155 166 
281 827 390 205 150 121 
195 298 356 121 114 128 
182 663 393 112 120 135 
224 123 274 104 88 72 
169 296 277 113 114 118 
176 629 403 156 106 91 
308 968 358 86 67 57 
226 123 275 107 89 70 
223 306 346 157 156 162 
269 717 236 134 148 167 
300 465 204 51 96 133 
298 957 303 131 102 71 
174 356 292 142 137 138 
318 740 349 91 31 65 
194 733 281 119 118 118 
279 620 356 98 112 133 
381 681 164 85 129 163 
275 1013 332 139 105 71 
271 352 207 122 122 127 
224 124 272 101 87 74 
218 677 403 114 140 168 
177 417 270 84 107 149 
293 330 273 87 128 162 
277 380 175 154 153 159 
280 225 252 90 95 107 
274 826 395 199 145 115 
314 842 278 202 178 157 
335 266 318 110 49 41 
303 553 377 118 133 166 
304 256 278 90 39 55 
184 487 331 117 124 135 
189 692 295 133 94 66 
222 120 339 79 72 68 
171 131 331 109 98 89 
235 641 482 43 85 116 
249 487 180 166 137 89 
192 581 362 168 168 175 
264 32 312 97 78 54 
244 927 302 108 78 45 
170 274 332 87 105 124 
239 260 137 101 86 69 
207 502 381 164 158 159 
310 801 196 127 138 184 
272 283 231 86 60 60 
212 383 348 168 146 126 
255 461 405 130 132 138 
165 210 338 112 49 63 
191 676 404 101 123 172 
335 501 262 99 116 136 
265 328 358 89 114 135 
247 148 314 68 56 44 
191 678 271 113 127 145 
331 595 267 120 137 158 
262 156 296 79 63 46 
296 342 238 99 109 121 
292 826 213 107 111 121 
359 715 148 52 95 166 
176 152 309 141 45 13 
297 397 215 100 97 101 
270 601 383 116 130 160 
295 956 302 112 86 58 
328 669 341 174 174 181 
312 506 348 126 132 142 
358 673 222 186 186 195 
270 70 303 133 120 111 
228 487 176 229 190 139 
202 632 269 109 34 37 
265 172 233 160 131 106 
228 794 285 115 104 101 
175 325 234 100 104 111 
195 524 363 149 151 160 
275 538 196 98 115 157 
194 430 295 104 110 121 
290 901 287 160 117 94 
192 490 301 81 98 120 
296 127 339 93 78 62 
297 372 375 153 150 153 
245 468 404 58 86 127 
181 242 366 80 115 144 
176 679 450 86 114 158 
215 559 254 139 158 181 
348 595 213 129 148 170 
191 462 344 54 82 131 
329 529 292 119 136 160 
316 540 230 54 85 116 
199 763 319 192 133 130 
179 722 350 141 63 32 
327 487 255 119 135 171 
185 669 316 127 90 59 
230 124 279 119 98 78 
226 506 401 99 119 145 
231 124 279 117 98 77 
250 867 350 97 72 42 
274 823 230 197 177 167 
230 126 276 117 96 74 
282 699 231 44 86 122 
195 524 302 103 114 129 
312 331 365 142 108 111 
235 178 399 111 55 62 
261 594 220 96 122 164 
308 545 373 186 177 176 
180 263 259 73 102 128 
210 775 383 119 128 141 
184 689 316 161 85 59 
351 637 230 113 140 171 
197 210 344 118 86 93 
281 745 429 64 42 79 
206 433 195 173 145 116 
330 62 305 149 133 121 
276 971 293 84 61 42 
247 756 471 156 135 120 
289 918 374 135 99 75 
240 427 383 66 98 127 
195 632 415 71 64 59 
179 421 345 124 68 50 
271 348 210 124 124 127 
277 413 390 107 121 139 
210 647 444 47 66 83 
337 627 192 81 109 134 
268 435 174 157 155 160 
281 118 326 82 71 61 
193 684 265 114 142 170 
183 623 430 103 88 74 
202 425 201 154 86 50 
310 867 324 162 114 87 
266 156 300 83 64 42 
364 718 220 128 67 78 
187 261 348 62 95 121 
179 610 366 71 70 70 
188 361 332 151 120 83 
280 468 401 106 127 156 
276 64 303 83 72 62 
174 411 231 136 150 169 
332 454 267 115 120 129 
283 653 438 54 71 88 
314 853 340 181 133 104 
169 290 328 82 63 84 
207 345 187 71 107 139 
320 159 342 104 87 70 
273 846 353 147 101 78 
230 891 386 177 132 113 
309 191 364 123 125 129 
205 268 356 147 146 152 
283 843 364 178 130 104 
185 216 370 65 69 78 
284 663 440 49 63 113 
178 307 345 144 122 97 
191 534 353 81 104 146 
287 238 261 93 87 87 
305 253 368 93 88 101 
338 591 199 146 150 160 
194 608 281 129 146 169 
319 280 302 123 121 124 
180 336 339 123 13 39 
246 868 335 130 104 76 
232 297 140 53 38 52 
301 365 308 154 125 95 
256 216 368 118 93 107 
190 146 310 121 75 49 
229 123 284 116 95 72 
220 654 477 88 112 135 
299 422 283 87 103 134 
206 180 256 41 47 53 
170 382 304 123 117 132 
338 467 275 148 158 174 
269 159 343 62 53 45 
174 334 234 137 95 35 
225 454 163 116 144 191 
269 354 368 147 143 146 
231 123 287 116 97 78 
189 238 292 109 104 103 
184 678 407 30 64 111 
202 170 378 38 57 75 
301 840 254 173 146 125 
332 596 264 122 143 167 
320 907 324 69 54 48 
295 318 276 99 99 120 
174 371 303 88 78 90 
297 741 400 71 50 83 
322 421 225 76 99 122 
328 238 305 52 39 49 
213 282 201 105 64 21 
219 401 150 144 145 151 
313 553 361 55 74 158 
281 1002 348 128 98 79 
327 795 305 160 137 114 
324 523 319 181 172 172 
237 918 304 129 75 47 
188 139 313 144 69 4 
194 509 226 46 88 120 
173 397 351 172 133 70 
228 972 335 123 100 84 
316 589 312 185 174 171 
188 424 214 85 107 135 
282 557 394 155 161 176 
330 497 248 103 129 168 
203 133 363 109 96 85 
209 701 443 120 152 183 
196 628 422 88 78 70 
172 357 323 116 101 110 
200 133 359 100 90 82 
199 633 275 96 118 139 
200 670 260 123 129 140 
225 556 407 171 167 170 
317 211 290 107 51 49 
243 275 150 122 12 40 
185 678 278 81 74 70 
255 855 326 142 99 76 
255 331 170 120 37 65 
234 892 387 171 131 107 
313 379 327 157 64 102 
362 650 206 170 167 172 
331 219 311 95 47 38 
353 725 245 181 179 187 
233 127 276 116 96 76 
172 335 236 146 110 70 
167 391 316 131 99 96 
202 330 219 77 98 119 
304 760 183 165 166 188 
248 336 355 149 151 159 
215 922 353 175 134 111 
274 29 307 94 80 65 
189 519 252 135 152 192 
234 127 278 117 96 76 
315 685 159 103 77 87 
287 888 356 147 110 78 
274 67 302 88 78 71 
177 145 350 132 66 0 
326 323 320 156 155 162 
183 560 310 99 120 151 
232 125 280 116 96 76 
235 979 373 97 81 69 
234 437 382 90 110 130 
169 245 336 131 8 65 
226 773 455 144 133 129 
269 971 297 155 116 71 
233 124 282 118 98 77 
282 636 235 143 95 77 
333 797 273 65 60 69 
234 125 281 117 97 76 
313 401 361 86 116 155 
234 124 282 117 97 76 
284 649 246 34 84 120 
219 475 385 94 111 133 
166 337 250 125 74 89 
180 737 347 151 139 130 
220 909 378 172 125 108 
311 708 383 167 177 195 
298 424 288 86 110 139 
194 474 210 140 150 169 
170 363 233 136 122 110 
235 126 281 117 97 75 
275 64 303 81 72 62 
313 199 301 102 30 24 
258 59 319 88 82 78 
365 657 170 157 156 161 
189 231 354 90 57 67 
257 315 356 94 117 141 
233 125 285 116 96 75 
240 939 395 182 140 116 
280 690 237 66 89 135 
305 751 382 144 116 89 
286 906 274 103 82 70 
180 676 495 59 91 138 
175 465 317 75 100 147 
319 171 361 107 95 88 
337 563 222 95 114 142 
256 219 191 113 53 11 
210 456 366 86 106 133 
259 486 178 100 108 151 
304 516 386 106 125 151 
311 489 323 152 153 160 
267 183 216 141 78 37 
235 124 286 115 95 74 
327 526 306 181 178 182 
223 625 238 133 136 159 
190 153 310 91 51 53 
307 976 321 107 82 54 
234 127 287 111 91 72 
214 914 357 185 140 118 
323 744 333 158 145 137 
310 874 322 168 127 98 
314 622 192 80 93 114 
320 658 311 49 67 82 
176 554 350 48 76 128 
299 799 196 140 19 34 
306 408 253 99 115 143 
279 381 204 88 22 43 
311 686 157 102 103 126 
289 736 209 119 126 156 
236 125 283 116 96 75 
237 125 283 116 96 76 
236 126 281 117 96 75 
226 554 208 98 121 176 
318 451 212 81 111 139 
228 584 229 91 109 184 
162 136 312 152 110 67 
283 116 311 88 71 51 
259 807 425 194 128 101 
185 327 337 98 94 97 
205 468 363 103 114 133 
320 128 331 105 86 65 
297 329 372 116 128 144 
317 674 166 66 69 77 
231 796 394 183 135 103 
294 498 201 99 121 166 
312 372 374 159 65 59 
284 138 308 91 67 35 
238 614 223 86 80 78 
189 451 279 75 93 141 
317 580 313 153 157 169 
226 407 361 154 72 9 
237 125 284 115 95 75 
283 913 378 156 113 86 
231 265 147 54 71 86 
313 508 358 149 150 158 
295 123 338 96 80 64 
271 423 393 140 147 160 
193 500 302 112 118 128 
268 288 204 143 42 48 
180 677 495 68 101 145 
263 167 249 158 134 116 
308 579 353 88 105 155 
314 511 346 137 136 141 
339 270 344 154 37 31 
325 231 299 67 41 44 
233 511 187 172 112 44 
206 654 467 77 72 69 
281 1011 319 167 135 100 
319 539 230 123 134 150 
232 710 235 82 102 120 
241 508 193 162 133 124 
194 150 290 66 77 92 
330 163 334 105 89 72 
360 635 201 135 140 150 
267 284 226 90 57 66 
271 822 254 152 126 106 
286 19 349 122 114 112 
308 709 390 153 171 193 
240 126 286 112 92 72 
249 345 122 160 56 89 
373 719 193 189 184 187 
289 425 197 118 73 46 
241 127 287 108 89 71 
290 295 248 139 131 129 
240 954 302 87 71 63 
265 232 221 119 48 69 
323 910 339 81 66 55 
181 335 327 96 97 102 
288 631 343 121 130 144 
230 97 288 123 102 80 
293 351 273 106 36 53 
169 495 344 71 108 163 
218 275 172 106 82 69 
199 369 208 113 114 119 
171 399 234 51 109 149 
312 651 362 70 105 134 
328 328 328 122 115 112 
198 341 344 169 139 104 
231 98 289 120 100 80 
176 683 436 134 153 178 
197 531 236 161 170 187 
177 686 435 136 165 199 
234 355 353 119 69 70 
202 510 248 69 95 124 
326 698 351 127 144 166 
165 394 345 166 79 13 
271 629 383 47 57 68 
255 924 297 66 55 45 
303 81 305 112 94 75 
308 768 187 108 128 185 
245 603 396 159 168 184 
242 642 414 25 38 61 
183 608 366 73 74 77 
256 278 119 164 75 5 
329 563 214 66 95 121 
297 639 216 132 87 72 
227 554 408 126 139 156 
280 509 403 168 172 183 
339 229 321 124 46 51 
195 701 260 95 124 153 
314 930 373 144 118 91 
275 527 404 106 124 166 
334 751 170 159 167 210 
234 476 400 93 113 139 
187 266 247 122 115 117 
191 733 298 124 92 73 
301 466 355 102 120 154 
306 484 345 75 102 129 
236 808 392 191 141 110 
217 312 346 157 147 138 
246 666 246 84 94 111 
229 105 290 122 100 77 
266 28 308 109 99 92 
299 497 202 131 140 156 
200 650 273 82 117 146 
318 987 315 142 115 87 
299 548 223 116 117 124 
305 824 211 191 140 94 
230 104 290 124 103 82 
311 526 371 169 169 178 
237 389 363 157 134 110 
321 936 350 79 66 57 
211 681 365 97 128 158 
299 725 194 149 146 150 
184 514 248 60 96 140 
230 107 290 121 100 79 
316 558 343 131 148 169 
233 795 276 161 106 103 
205 171 262 61 39 37 
221 583 396 142 141 148 
218 453 168 109 143 177 
320 743 179 117 122 163 
331 670 269 68 89 108 
274 965 295 90 63 42 
349 680 259 49 88 119 
224 75 321 112 94 77 
220 137 362 112 87 71 
210 720 507 146 161 208 
269 814 237 99 76 56 
230 109 290 117 95 72 
271 724 233 110 131 153 
184 507 330 110 115 126 
335 504 262 115 127 158 
183 651 337 134 101 82 
274 893 381 163 116 92 
186 641 461 105 87 70 
275 163 248 162 135 116 
296 24 330 93 80 68 
304 392 382 161 166 177 
161 348 273 85 111 138 
208 436 184 169 143 107 
245 315 167 82 35 58 
315 292 368 178 70 3 
322 734 340 177 142 96 
195 470 238 113 125 144 
328 763 311 138 117 103 
320 83 304 132 95 69 
180 512 327 70 91 120 
186 226 269 90 66 69 
164 359 312 96 119 143 
373 673 172 78 118 154 
311 228 366 113 45 60 
180 703 333 104 73 56 
200 290 233 83 106 129 
189 451 221 161 166 177 
300 840 250 171 115 80 
233 99 292 106 86 63 
308 678 165 78 107 133 
337 230 353 97 45 35 
216 770 267 46 30 44 
205 607 381 49 40 35 
290 317 250 81 92 103 
285 782 413 147 124 106 
348 689 280 184 182 186 
186 377 346 178 143 101 
228 900 327 127 99 68 
183 690 446 87 112 156 
198 540 302 49 73 113 
301 420 209 90 105 120 
234 99 293 107 88 67 
222 335 156 30 62 78 
327 768 312 131 116 106 
250 439 174 87 111 131 
225 619 231 183 123 121 
210 643 437 62 78 94 
305 439 378 72 105 149 
208 561 216 195 199 223 
239 312 352 149 150 158 
345 649 233 80 126 161 
171 618 363 144 100 88 
205 773 321 178 146 118 
321 468 291 73 101 131 
328 553 219 120 130 144 
267 276 206 106 53 55 
255 870 310 159 116 82 
198 177 353 85 72 88 
210 643 421 61 70 81 
340 785 245 168 50 66 
311 896 310 90 71 58 
213 299 190 128 64 70 
189 389 219 103 105 115 
297 984 351 91 68 53 
176 276 360 156 157 164 
334 470 234 123 134 152 
168 332 244 149 114 77 
234 103 293 102 84 66 
317 505 330 161 158 161 
234 103 294 100 83 66 
271 732 230 126 141 160 
253 855 310 153 115 86 
323 542 320 144 152 167 
263 665 249 80 84 104 
233 417 374 110 97 85 
198 729 253 137 32 57 
324 147 336 112 91 68 
320 56 306 130 125 121 
212 509 202 182 78 38 
286 606 217 110 122 136 
242 309 150 89 16 30 
213 671 382 102 129 155 
352 696 268 115 146 183 
236 102 294 100 82 63 
183 230 279 77 102 123 
212 128 340 98 89 81 
215 768 264 42 27 34 
236 96 296 93 77 60 
212 614 258 156 156 165 
178 265 337 130 131 137 
237 96 297 92 77 61 
219 777 426 123 100 83 
285 382 209 108 46 59 
243 169 400 122 122 131 
200 508 240 53 83 115 
219 694 409 125 153 182 
193 627 438 101 87 75 
220 185 396 104 84 111 
240 322 164 81 45 59 
199 350 216 75 82 97 
314 555 356 160 157 171 
261 601 395 159 167 182 
192 718 289 184 69 23 
252 684 492 102 117 175 
192 531 231 124 144 166 
294 649 227 68 76 101 
240 987 353 109 94 84 
239 98 299 95 79 59 
192 468 212 106 127 158 
233 737 490 116 69 94 
316 642 300 161 162 168 
332 583 262 107 130 159 
189 567 356 62 103 152 
214 308 345 166 144 120 
160 171 321 97 71 77 
305 481 333 89 112 135 
338 609 193 94 115 136 
259 64 301 96 83 70 
263 170 245 158 134 116 
299 330 256 82 122 154 
242 141 271 108 90 71 
327 75 302 158 116 93 
202 723 500 179 196 221 
171 528 342 104 130 161 
279 285 237 124 119 117 
184 272 300 45 62 77 
311 387 228 130 105 72 
172 549 339 103 124 154 
232 104 292 102 83 61 
294 915 285 69 57 47 
222 368 151 143 139 140 
273 71 333 113 93 74 
273 309 358 124 107 112 
236 966 311 78 57 54 
326 695 350 125 150 177 
292 293 364 104 131 159 
184 290 245 82 95 110 
246 297 145 86 50 76 
222 400 352 139 85 27 
211 742 396 142 114 100 
232 138 400 120 108 98 
274 356 193 143 144 152 
164 274 323 81 114 143 
180 634 443 118 96 74 
317 859 336 191 141 112 
214 715 391 123 52 75 
206 276 352 112 126 143 
295 841 259 214 185 162 
178 538 347 40 64 87 
237 863 375 123 88 66 
315 730 360 154 19 39 
253 243 370 128 97 123 
252 153 350 63 60 58 
235 107 294 92 76 58 
229 311 347 151 150 156 
299 502 387 87 117 147 
314 845 320 176 131 102 
202 492 236 128 135 148 
170 668 332 156 123 118 
166 308 305 79 103 125 
294 337 374 86 109 133 
