ply
format ascii 1.0
comment Created by CloudCompare v2.11.1 (Anoia)
comment Created 2/28/22 9:46 PM
obj_info Generated by CloudCompare!
element vertex 2006
property float x
property float y
property float z
property uchar red
property uchar green
property uchar blue
end_header
293 433 399 70 98 151 
272 622 403 77 102 125 
197 521 290 160 156 160 
339 634 270 166 170 181 
305 641 344 70 76 84 
336 256 363 92 32 35 
343 795 272 121 110 100 
266 676 244 48 75 111 
335 659 311 130 133 141 
297 497 402 182 177 179 
269 911 300 71 58 46 
183 681 467 157 159 188 
247 156 383 148 76 3 
273 662 250 65 67 92 
204 706 263 69 95 118 
194 584 305 155 160 174 
224 497 207 155 151 159 
344 741 304 161 26 46 
186 141 344 128 58 9 
264 552 205 152 160 196 
358 777 213 203 26 51 
172 313 237 99 112 128 
276 216 221 58 84 107 
203 452 347 66 97 149 
333 218 293 89 32 42 
320 182 360 164 72 2 
308 631 326 111 54 68 
269 238 154 168 61 0 
206 710 462 149 159 174 
299 43 340 117 97 78 
220 631 252 135 135 141 
240 139 309 72 61 50 
315 659 197 65 88 138 
310 779 388 158 141 128 
276 168 229 156 118 88 
199 603 362 55 62 70 
267 418 159 108 154 192 
320 922 306 92 68 49 
359 687 276 172 172 179 
215 312 346 129 24 56 
365 594 219 114 139 165 
297 593 230 64 75 86 
360 627 246 151 159 174 
213 711 511 177 185 205 
182 234 345 126 27 73 
319 410 365 101 126 156 
231 554 409 68 96 132 
280 802 226 121 96 83 
273 872 374 148 107 77 
177 125 303 79 70 65 
219 692 409 103 124 156 
231 298 212 90 73 50 
177 126 300 101 88 77 
177 126 301 97 85 75 
270 941 394 178 136 111 
176 126 303 85 76 70 
281 160 352 64 51 38 
301 244 368 138 85 59 
206 615 277 154 148 149 
323 476 325 113 127 146 
178 125 302 86 76 69 
332 237 296 51 71 112 
195 462 335 60 93 136 
264 653 478 82 112 139 
202 489 259 155 149 151 
260 653 486 92 112 139 
320 971 340 121 99 76 
180 126 297 120 101 87 
180 127 296 126 106 89 
181 126 297 124 105 90 
181 127 296 130 108 92 
271 648 451 58 80 117 
180 126 298 112 96 83 
301 638 381 101 114 129 
294 237 367 137 61 69 
316 572 232 97 108 122 
164 182 289 134 60 69 
250 692 238 113 119 129 
322 747 177 113 138 195 
258 51 311 96 87 80 
195 384 334 158 130 100 
202 671 380 105 127 153 
345 652 267 107 136 163 
217 698 426 74 118 153 
313 852 288 210 160 121 
183 678 464 150 161 181 
191 444 284 131 136 148 
181 125 301 98 85 75 
180 125 302 88 77 68 
332 829 298 165 130 98 
283 118 318 94 74 56 
279 199 368 127 86 75 
365 729 251 183 181 189 
341 554 248 64 98 139 
302 703 210 83 109 156 
246 976 318 102 81 63 
201 469 342 72 100 150 
296 698 232 39 93 146 
217 394 354 168 145 124 
340 221 354 103 43 72 
264 704 474 85 122 180 
342 583 216 93 113 135 
276 354 205 129 130 135 
183 126 301 116 101 88 
314 485 352 134 142 155 
174 397 257 85 113 153 
294 565 218 60 98 144 
259 822 353 175 124 104 
192 542 309 108 125 156 
191 115 290 87 79 73 
370 654 217 156 160 172 
300 130 305 96 80 61 
303 279 272 146 82 24 
319 967 337 118 88 67 
227 589 260 90 104 122 
234 969 334 117 94 78 
173 283 248 125 125 131 
177 565 328 62 118 157 
226 184 373 136 78 85 
233 303 202 82 63 71 
324 587 331 147 159 176 
328 88 315 134 93 83 
374 745 209 193 189 194 
307 610 209 59 40 46 
383 721 160 61 139 192 
208 516 243 156 168 205 
251 680 242 111 113 118 
334 214 310 71 38 36 
280 939 290 70 52 40 
277 289 193 148 36 21 
325 701 382 173 176 186 
239 653 451 73 89 105 
227 899 371 166 118 100 
201 604 286 126 140 157 
284 422 192 105 114 126 
210 654 436 47 60 86 
276 256 369 134 92 99 
178 309 231 120 120 123 
187 662 363 137 149 166 
323 902 323 62 50 42 
191 119 290 92 67 60 
241 744 233 163 49 78 
205 648 406 53 66 88 
269 508 412 133 138 166 
285 300 367 118 132 149 
171 296 284 81 103 124 
286 147 330 64 53 41 
301 982 359 79 62 52 
168 136 322 114 103 93 
250 522 412 124 137 163 
187 366 317 122 87 64 
190 424 215 140 156 183 
186 398 219 72 107 136 
194 437 223 169 171 181 
342 240 355 42 55 88 
381 698 208 159 158 164 
164 212 293 61 46 69 
259 232 151 132 71 16 
336 476 252 143 154 174 
345 564 222 129 143 161 
333 575 224 55 91 124 
309 218 364 57 49 67 
190 118 295 61 57 54 
309 325 265 78 120 152 
323 818 213 220 102 84 
262 624 415 90 108 128 
308 539 388 162 162 180 
264 67 320 76 62 48 
375 656 180 157 159 167 
169 291 304 142 138 142 
273 360 147 128 47 84 
330 709 170 180 175 189 
342 558 249 163 170 182 
194 574 307 108 122 143 
275 251 130 143 70 4 
211 736 483 61 63 140 
220 930 367 140 116 93 
191 114 297 75 68 64 
311 1004 327 147 123 100 
225 786 330 204 150 123 
291 697 238 73 94 116 
265 828 353 155 103 84 
316 89 305 115 93 68 
186 360 222 82 105 128 
205 403 205 136 120 98 
232 276 217 136 89 21 
223 763 425 57 60 64 
191 114 300 78 72 68 
289 95 335 114 94 73 
324 636 295 169 168 173 
236 793 298 199 146 123 
233 789 302 195 146 120 
189 700 498 89 113 187 
271 258 141 119 120 123 
245 354 131 172 124 108 
285 472 191 96 110 127 
189 116 299 68 66 65 
322 820 338 175 135 100 
336 533 258 82 106 151 
233 407 173 142 150 163 
328 828 240 174 155 146 
189 119 296 62 54 51 
235 346 173 78 96 113 
326 356 366 168 51 96 
376 693 217 156 156 162 
189 118 299 73 66 61 
185 694 464 84 117 176 
264 413 391 95 110 128 
267 428 166 123 89 93 
306 238 266 103 74 54 
343 767 288 132 109 85 
314 769 382 165 143 123 
312 501 215 155 158 168 
321 513 361 121 128 140 
208 469 361 126 136 152 
269 733 458 164 38 54 
253 609 228 56 62 76 
364 609 196 89 115 139 
347 762 279 145 109 102 
264 511 413 178 174 178 
188 119 301 70 62 57 
192 647 297 76 67 62 
231 972 355 111 87 73 
330 819 225 127 118 115 
323 395 253 75 105 134 
262 627 222 156 89 78 
306 543 389 198 189 189 
363 698 266 139 161 187 
337 788 301 146 127 110 
320 394 263 113 126 143 
321 271 293 140 140 145 
266 972 385 95 73 60 
229 782 425 75 73 77 
221 586 245 150 156 168 
341 675 329 98 127 156 
296 29 339 144 135 131 
266 756 454 141 133 131 
271 356 161 114 41 76 
203 641 287 79 119 151 
306 731 398 123 57 83 
355 617 254 131 147 167 
261 820 287 190 135 113 
260 955 295 105 81 55 
242 651 238 184 133 113 
191 123 288 149 65 25 
264 327 368 104 69 78 
223 645 245 80 79 82 
231 477 394 97 110 133 
319 610 209 72 96 118 
174 285 285 102 115 130 
298 762 215 91 112 133 
275 729 233 106 120 136 
311 327 262 71 106 137 
287 703 236 82 96 116 
295 1008 346 132 94 69 
278 285 187 112 34 43 
222 603 390 77 73 87 
183 682 466 136 139 184 
169 192 286 113 59 50 
318 121 307 104 86 65 
306 343 238 136 136 142 
260 218 154 149 109 79 
339 816 264 117 101 88 
197 403 213 93 74 105 
342 799 208 189 17 47 
227 650 440 58 80 99 
174 284 282 94 111 130 
186 409 322 89 75 62 
271 829 361 179 127 103 
186 667 392 99 121 152 
285 763 223 116 37 49 
191 124 288 158 70 18 
187 677 343 156 132 109 
295 249 369 111 112 120 
166 318 248 94 105 120 
260 711 475 118 138 177 
307 636 330 110 130 153 
220 510 394 113 123 141 
233 768 457 99 99 115 
252 924 292 119 95 71 
198 306 220 79 103 127 
191 126 291 136 71 33 
207 608 389 94 84 77 
191 127 291 121 77 52 
187 324 343 179 149 117 
331 333 326 108 130 154 
355 664 251 100 136 169 
196 693 308 90 59 50 
177 252 320 134 134 140 
317 834 235 213 189 171 
198 349 210 136 130 129 
261 173 232 119 82 54 
195 271 350 145 153 167 
190 125 295 100 75 52 
190 126 292 118 75 44 
336 539 261 100 122 148 
190 127 292 113 82 67 
316 630 310 69 120 158 
275 81 329 112 88 67 
274 315 113 121 109 116 
216 697 421 146 43 51 
309 860 349 145 97 68 
168 256 309 127 126 131 
281 268 234 60 63 77 
316 720 170 81 102 141 
248 742 481 164 37 47 
280 625 416 64 97 124 
282 637 459 82 105 128 
345 711 162 93 136 201 
289 138 300 90 69 44 
312 355 237 155 119 74 
261 373 373 167 145 123 
316 162 351 79 68 57 
278 326 130 172 69 97 
342 471 289 165 165 172 
344 803 227 144 42 57 
298 568 221 88 105 142 
227 575 260 96 113 132 
180 655 455 133 96 73 
339 800 296 124 106 87 
204 515 230 183 188 203 
197 293 225 79 102 124 
185 694 476 98 116 170 
162 192 292 149 70 71 
277 416 176 150 140 142 
239 750 236 178 114 78 
266 834 335 170 120 99 
336 228 300 41 39 43 
255 590 227 88 106 162 
196 319 217 79 91 111 
338 175 320 131 114 95 
277 258 368 147 116 110 
343 278 345 124 92 111 
363 768 197 213 213 226 
267 691 241 43 70 105 
287 81 305 100 84 68 
326 725 174 37 52 113 
258 771 238 178 162 152 
224 758 254 168 138 134 
188 121 297 65 54 47 
203 128 336 103 92 84 
285 160 353 67 55 41 
257 950 394 195 148 122 
184 682 483 164 162 170 
337 538 285 122 139 160 
222 921 355 153 112 94 
279 337 189 149 149 156 
313 250 370 106 90 103 
232 467 391 82 102 127 
260 241 166 124 41 38 
202 686 439 119 151 182 
189 122 297 73 58 49 
379 678 206 95 161 209 
175 373 338 195 166 136 
220 549 403 164 162 169 
329 655 176 76 69 79 
354 685 294 95 144 182 
314 221 280 139 61 83 
247 865 379 159 121 101 
338 179 321 150 63 3 
297 976 301 94 77 58 
272 157 272 139 114 91 
328 943 335 82 68 58 
258 247 369 158 97 97 
225 908 369 182 132 113 
193 296 225 83 106 127 
202 491 352 157 160 169 
215 493 205 114 132 160 
209 280 343 125 126 130 
205 760 327 156 149 151 
306 777 394 154 138 125 
164 164 287 108 63 50 
342 456 257 135 147 171 
332 421 275 101 114 131 
332 455 226 59 94 135 
321 374 359 125 142 161 
199 608 293 162 160 165 
313 821 211 206 159 117 
274 282 210 139 46 38 
181 237 285 98 93 91 
342 263 322 100 63 65 
301 923 288 63 50 41 
192 643 327 71 72 99 
243 337 141 85 102 121 
189 126 296 103 92 81 
264 466 414 93 124 166 
234 668 476 73 93 112 
304 750 401 136 116 103 
333 195 307 128 39 26 
365 764 192 194 196 225 
281 666 251 82 90 109 
186 674 392 95 118 198 
355 761 257 124 9 38 
266 172 243 133 93 61 
303 795 199 125 6 41 
215 709 512 170 181 205 
293 782 215 60 54 79 
278 274 127 138 140 142 
340 666 261 87 109 146 
228 354 353 111 64 95 
306 444 388 75 103 144 
196 688 310 135 87 80 
338 251 307 121 68 74 
336 737 326 214 176 129 
189 126 300 116 103 94 
305 375 296 56 92 130 
272 304 210 81 100 118 
210 689 254 116 132 149 
331 475 304 111 126 149 
248 712 233 96 108 122 
209 728 252 112 36 60 
345 739 301 164 31 46 
211 534 382 91 101 143 
283 882 303 140 107 76 
178 674 338 180 127 66 
209 483 218 136 145 165 
266 230 158 164 67 2 
169 231 313 100 68 61 
377 655 195 75 77 95 
284 548 210 74 106 156 
191 145 355 102 105 110 
179 125 304 75 66 62 
256 196 223 37 56 73 
366 607 220 165 168 177 
187 606 331 98 85 85 
303 321 246 76 105 131 
305 306 260 111 97 90 
251 883 319 138 106 77 
298 824 388 206 148 117 
315 85 304 121 98 71 
214 719 396 152 124 102 
330 799 327 134 130 130 
319 540 239 123 126 134 
318 377 234 131 79 63 
277 600 390 118 129 163 
341 228 354 83 26 28 
177 126 309 74 69 66 
208 602 380 66 78 90 
176 127 311 84 77 71 
202 206 356 91 49 81 
288 1006 302 140 108 71 
250 272 112 141 60 1 
178 125 308 70 65 61 
248 349 126 187 129 98 
252 945 395 191 150 125 
229 407 186 169 143 112 
208 273 230 99 109 121 
178 125 310 81 74 69 
265 57 325 92 73 51 
275 629 371 51 73 91 
318 490 338 117 128 144 
297 26 329 93 81 70 
299 57 302 102 92 84 
313 343 312 107 117 131 
293 635 374 87 95 106 
299 163 352 81 70 62 
183 123 307 63 55 47 
323 528 358 116 129 147 
222 918 354 178 136 114 
220 928 359 145 118 90 
189 362 216 118 127 140 
194 507 336 87 110 141 
220 935 369 104 88 77 
278 335 190 153 151 154 
188 656 474 113 91 66 
178 260 279 126 123 125 
203 157 360 28 57 111 
179 500 329 125 137 154 
242 285 358 75 125 163 
201 645 428 75 66 60 
221 296 213 100 98 101 
272 232 146 142 124 109 
181 124 305 78 70 63 
224 477 388 124 133 147 
336 767 312 133 115 98 
326 790 344 150 146 147 
179 389 289 89 102 138 
182 207 343 125 86 66 
327 452 302 98 113 142 
330 203 360 45 57 107 
288 129 303 94 69 35 
230 564 409 97 120 151 
268 574 214 149 165 200 
330 463 302 84 116 147 
269 754 230 48 43 81 
308 543 387 156 159 175 
333 481 253 100 126 165 
274 310 112 98 129 160 
300 288 369 124 139 157 
180 124 310 74 68 62 
230 430 375 119 88 91 
180 125 311 82 75 70 
294 124 338 93 78 61 
327 387 238 138 104 55 
340 743 172 93 114 151 
263 248 175 119 31 16 
216 442 359 79 92 118 
240 671 479 66 90 116 
272 623 394 64 89 111 
285 293 230 77 75 77 
178 127 312 87 79 73 
282 385 387 98 113 131 
172 203 286 114 37 42 
237 947 389 189 146 123 
180 300 232 111 116 124 
286 633 233 155 100 83 
274 346 150 69 57 100 
346 800 236 175 148 120 
187 184 278 73 30 44 
239 744 484 179 48 64 
197 324 215 86 101 119 
271 424 172 80 110 142 
228 369 186 142 141 147 
277 813 413 197 128 101 
266 656 456 121 128 140 
294 543 216 111 122 155 
266 474 184 184 157 146 
308 451 339 162 157 160 
326 718 364 105 84 90 
318 775 189 166 184 208 
254 371 370 167 146 125 
339 562 291 103 124 150 
285 460 190 119 128 141 
272 306 214 68 104 133 
185 417 232 78 103 159 
198 509 245 92 116 140 
218 531 223 69 98 139 
181 126 314 93 84 77 
271 841 300 186 139 112 
279 382 205 89 109 130 
220 514 207 120 130 158 
284 375 385 145 144 150 
325 368 345 165 78 108 
322 841 333 189 141 111 
287 411 209 135 107 77 
189 447 250 179 174 176 
297 928 287 71 52 34 
223 557 230 96 121 164 
320 749 360 182 148 109 
255 812 284 202 147 123 
307 437 386 81 103 140 
182 126 314 93 85 77 
272 732 453 130 121 126 
309 49 310 114 103 94 
286 823 237 135 111 83 
225 578 253 101 124 151 
283 315 226 126 126 131 
159 343 268 99 122 145 
226 551 239 87 119 156 
286 1006 304 103 79 53 
263 316 165 68 38 59 
197 337 338 171 140 104 
216 722 413 162 79 89 
283 413 394 76 94 112 
324 856 336 177 130 101 
278 318 369 81 122 154 
332 741 334 134 80 84 
348 728 303 162 173 189 
376 640 206 161 159 164 
178 261 278 126 123 126 
204 726 371 115 93 74 
328 654 323 71 89 107 
246 678 507 121 147 209 
261 691 481 125 137 177 
210 759 377 76 74 89 
377 745 194 148 166 189 
321 378 254 126 132 142 
262 654 246 145 104 96 
226 220 364 47 72 109 
284 836 278 212 158 133 
240 795 430 128 100 82 
221 590 232 89 121 172 
270 333 157 47 78 119 
290 531 212 44 67 108 
314 445 374 106 129 166 
183 684 455 66 99 165 
292 18 343 94 76 57 
229 884 373 105 67 54 
331 165 306 117 108 101 
317 430 350 56 85 153 
208 733 377 109 97 92 
310 296 290 127 129 137 
181 659 468 111 88 69 
285 677 246 41 59 85 
337 177 324 135 110 76 
322 650 346 122 125 133 
190 117 307 67 61 59 
250 961 388 196 148 127 
191 116 307 72 67 64 
191 630 444 107 89 72 
187 644 458 112 92 70 
229 595 255 85 87 92 
317 764 371 169 142 116 
282 834 371 180 130 103 
300 722 414 169 29 51 
312 337 310 135 135 140 
321 384 339 127 122 143 
257 813 382 177 121 94 
217 512 204 76 107 148 
276 257 114 210 103 68 
211 189 361 107 40 47 
222 578 224 134 160 193 
183 677 482 173 173 181 
183 684 481 140 142 180 
305 185 253 138 120 119 
311 308 300 69 107 137 
262 754 462 85 86 90 
305 576 376 106 130 167 
260 149 320 69 59 49 
209 725 462 166 34 53 
340 673 163 49 81 110 
293 634 384 112 121 134 
183 310 347 179 155 129 
319 670 395 183 178 180 
191 118 311 56 53 50 
324 456 309 115 134 159 
189 119 312 58 53 51 
193 631 381 151 100 86 
189 119 314 63 58 56 
258 228 152 130 73 11 
252 906 390 193 145 126 
237 598 237 39 62 88 
269 593 221 180 178 187 
205 562 374 98 117 149 
337 314 333 126 140 159 
242 314 359 120 130 145 
207 497 254 116 123 144 
190 119 315 65 60 56 
305 762 398 147 125 103 
183 478 312 99 117 148 
279 12 341 107 93 82 
241 236 366 102 42 65 
319 413 348 68 114 147 
306 654 230 86 85 94 
367 719 253 93 143 179 
298 979 295 102 81 62 
191 119 316 62 57 53 
252 459 172 233 200 156 
305 368 289 118 129 145 
289 113 335 89 74 58 
220 638 384 81 93 115 
315 471 332 107 121 138 
258 210 162 135 113 93 
276 800 422 182 121 89 
326 834 258 225 189 154 
280 618 369 165 158 159 
358 701 289 76 134 178 
185 123 304 80 70 62 
339 816 245 141 104 86 
321 188 281 92 71 63 
281 274 113 159 72 4 
170 128 315 84 78 74 
316 503 371 69 97 130 
344 242 353 50 65 98 
186 121 305 59 49 44 
263 260 107 173 71 56 
312 173 260 101 93 87 
241 650 407 45 56 72 
295 586 386 195 182 177 
370 658 168 119 122 129 
206 745 375 141 128 122 
342 271 321 78 111 140 
335 324 349 135 152 173 
282 113 325 61 51 40 
185 629 365 167 117 108 
339 179 336 127 96 51 
312 728 198 62 92 139 
339 556 287 77 107 138 
230 650 442 50 78 100 
167 300 270 116 54 48 
200 696 284 88 66 73 
196 672 308 85 66 86 
303 711 209 108 116 156 
186 204 266 45 45 72 
324 989 322 155 127 98 
277 423 177 158 157 163 
164 329 250 124 74 88 
300 288 253 85 114 141 
316 124 334 108 89 70 
316 978 340 109 83 58 
274 211 198 45 66 84 
304 282 276 127 112 100 
274 168 244 151 125 107 
202 629 439 107 91 77 
301 266 252 136 149 166 
284 448 187 145 148 157 
324 696 187 95 102 129 
198 167 261 56 53 60 
337 568 225 105 120 140 
336 581 219 99 118 138 
328 509 325 186 178 177 
324 495 333 130 135 146 
321 806 364 164 120 86 
188 120 304 61 52 45 
244 131 299 77 67 57 
264 513 413 181 172 171 
257 174 383 130 101 84 
317 703 170 78 102 128 
219 773 361 187 138 105 
358 581 230 86 120 152 
191 303 346 172 146 117 
357 777 203 204 211 226 
314 342 312 120 127 138 
322 381 337 170 93 123 
253 902 314 109 84 51 
274 734 451 203 169 126 
182 676 331 181 129 48 
319 61 300 119 91 51 
285 130 331 68 57 46 
179 153 286 140 37 19 
297 237 257 116 95 75 
322 727 174 90 113 174 
301 792 403 167 121 90 
340 453 247 126 143 173 
244 181 381 67 110 142 
336 701 166 30 106 166 
190 458 258 94 118 159 
191 452 299 96 110 126 
221 542 255 1 48 113 
188 159 352 47 48 65 
216 698 429 105 138 168 
323 817 333 172 128 96 
196 647 470 109 89 69 
194 484 299 111 126 145 
292 716 231 106 116 131 
235 391 168 160 158 164 
255 382 138 88 157 211 
276 339 147 57 75 113 
278 681 245 29 58 93 
316 507 218 132 146 168 
187 123 319 97 88 79 
227 788 337 202 151 123 
171 464 328 48 80 143 
269 247 369 162 125 101 
180 588 339 90 120 159 
197 453 239 116 131 159 
278 699 459 136 155 187 
204 627 419 108 92 76 
231 275 354 62 105 139 
324 396 251 158 158 165 
321 103 307 101 82 60 
287 790 417 139 117 100 
350 692 154 115 144 181 
376 627 196 119 138 158 
278 805 236 61 32 39 
362 592 207 93 115 138 
185 127 318 93 84 77 
299 896 358 156 121 94 
278 688 243 15 47 105 
204 418 347 142 128 118 
323 577 340 195 187 187 
188 349 216 148 147 152 
236 937 391 188 145 122 
290 203 239 97 91 99 
208 225 352 120 49 73 
332 575 316 143 154 171 
301 30 330 102 88 74 
273 664 250 65 72 103 
181 640 443 128 99 70 
188 121 314 67 60 54 
230 402 181 144 119 99 
269 350 167 89 38 62 
197 135 273 121 102 84 
215 183 364 131 44 38 
188 121 316 69 62 58 
246 812 327 189 132 114 
341 661 269 93 112 149 
306 484 385 131 148 168 
210 624 395 80 64 54 
188 121 318 81 72 68 
161 187 301 137 65 57 
216 321 347 135 17 59 
336 808 209 190 65 69 
218 128 260 116 109 104 
215 659 261 106 97 100 
346 931 360 85 60 61 
316 414 375 66 98 150 
274 325 149 56 38 62 
217 762 394 112 83 76 
235 261 356 78 129 166 
241 174 380 58 93 119 
206 417 351 96 85 79 
210 647 273 84 118 147 
287 275 236 115 104 93 
192 663 395 76 97 121 
171 332 302 152 149 153 
324 509 342 106 120 138 
255 415 153 135 167 206 
253 959 390 215 171 149 
280 250 232 110 77 66 
319 401 335 87 115 151 
183 657 327 47 41 43 
231 961 333 97 79 65 
206 358 340 141 23 67 
274 237 213 119 53 68 
349 792 247 155 136 116 
202 640 461 103 87 71 
313 327 257 90 110 127 
256 609 393 164 155 155 
261 193 380 130 106 107 
207 638 450 110 93 77 
312 393 382 133 152 175 
303 658 426 84 114 155 
293 517 404 163 162 174 
175 126 326 110 98 87 
308 454 339 133 141 155 
280 268 118 162 74 4 
220 581 227 94 127 183 
333 58 319 106 94 84 
204 267 346 146 145 152 
327 410 260 85 115 142 
337 448 235 88 117 168 
188 667 355 95 90 87 
323 855 338 179 130 99 
176 126 322 103 94 85 
245 569 408 90 107 145 
265 884 387 163 122 90 
265 342 122 154 70 97 
388 712 191 127 60 76 
240 517 411 140 148 164 
184 517 321 73 84 123 
185 705 335 120 98 73 
306 804 200 102 86 105 
230 389 182 119 56 83 
327 661 363 96 134 166 
307 723 399 92 37 43 
303 341 379 72 76 102 
170 325 239 156 117 76 
179 127 320 97 88 80 
179 126 322 98 88 81 
282 421 399 27 59 94 
228 967 353 148 114 96 
219 604 388 56 83 103 
237 622 233 90 68 53 
327 251 369 96 68 93 
243 459 397 64 95 126 
170 282 264 130 129 133 
272 260 140 125 128 133 
267 194 190 130 81 44 
218 762 394 133 111 107 
177 126 327 110 98 90 
181 311 318 117 121 131 
279 289 127 110 50 46 
270 282 366 152 145 144 
245 271 168 123 65 58 
179 125 325 103 94 85 
282 160 240 159 135 119 
342 279 351 117 73 98 
170 350 290 114 97 113 
210 750 381 128 110 93 
175 360 292 105 113 130 
263 810 421 197 133 107 
283 709 449 141 164 195 
289 963 300 105 71 48 
304 122 338 101 84 65 
278 97 319 71 57 41 
180 126 321 99 89 82 
229 729 498 178 191 213 
215 722 434 145 56 86 
261 917 303 93 74 53 
201 721 487 167 184 207 
258 261 149 49 62 86 
354 766 254 156 147 147 
274 1012 318 165 144 127 
290 569 397 94 109 139 
185 360 228 94 109 129 
244 408 153 160 162 174 
293 936 290 64 49 36 
278 293 188 110 52 46 
314 53 307 116 105 98 
261 650 237 181 113 107 
170 350 237 148 121 90 
237 964 379 186 136 118 
319 218 365 57 43 49 
181 125 326 101 91 83 
329 298 365 140 135 136 
297 237 258 116 95 72 
315 192 293 75 42 38 
336 514 268 175 171 175 
179 236 286 89 77 75 
369 669 156 46 51 63 
282 741 232 79 92 106 
211 730 385 168 147 130 
194 474 334 101 123 153 
194 508 303 117 128 146 
245 423 382 67 94 119 
325 408 260 71 103 131 
337 511 252 175 175 182 
249 281 159 112 42 59 
363 601 202 96 117 140 
183 127 325 103 93 84 
275 258 112 213 98 66 
277 780 432 191 176 168 
322 386 342 129 144 162 
259 511 198 156 132 105 
170 288 292 101 110 123 
234 261 218 89 56 56 
286 840 282 203 148 126 
331 548 232 37 75 121 
212 741 253 145 57 67 
224 528 402 93 112 136 
242 170 382 84 88 99 
222 427 361 101 90 80 
253 874 318 167 128 100 
230 437 378 74 103 132 
320 353 252 122 138 159 
242 666 246 63 85 115 
223 538 405 170 165 167 
330 642 286 105 131 157 
221 473 383 99 119 144 
177 535 334 54 81 104 
207 531 375 132 144 161 
332 686 366 177 177 185 
187 126 321 96 86 78 
254 282 151 113 62 54 
226 783 354 199 145 115 
184 127 324 101 91 83 
320 789 193 163 182 207 
322 649 310 93 118 143 
241 272 185 91 71 77 
329 696 373 182 179 184 
261 632 417 69 88 109 
180 128 329 100 90 83 
166 198 317 126 70 71 
206 424 206 144 127 109 
262 621 390 44 52 60 
303 692 426 107 132 180 
275 721 453 92 97 143 
356 646 240 73 124 163 
364 713 152 91 109 183 
189 123 321 99 88 80 
176 352 308 101 123 146 
194 677 508 46 79 137 
209 467 361 82 108 138 
190 121 321 90 82 75 
386 690 148 172 167 176 
283 186 360 97 103 111 
304 358 286 147 146 152 
252 868 340 106 81 49 
284 202 365 99 78 79 
304 935 380 94 72 53 
216 649 257 119 119 123 
256 145 306 74 66 58 
214 467 207 69 83 125 
229 266 353 89 132 167 
266 967 299 138 106 75 
200 747 319 152 112 57 
165 306 255 102 24 32 
331 656 323 125 124 128 
240 640 230 214 148 141 
273 75 330 110 90 70 
192 604 381 94 85 79 
278 246 224 130 78 72 
189 125 322 100 90 81 
302 901 368 175 122 102 
283 226 240 121 70 65 
326 538 239 86 108 137 
296 346 232 110 117 126 
284 132 326 74 60 45 
325 511 239 62 88 128 
299 882 296 111 91 72 
334 670 167 71 94 117 
338 256 310 121 111 119 
295 336 377 82 113 140 
291 175 238 143 68 8 
301 746 212 114 132 152 
259 981 314 106 74 49 
270 325 115 197 82 97 
242 739 231 104 78 76 
270 649 460 86 106 144 
258 948 293 95 75 55 
223 548 405 125 135 153 
330 570 323 83 113 156 
306 981 350 91 74 60 
266 419 394 53 84 124 
254 766 463 161 155 162 
190 413 215 99 116 135 
184 126 328 105 94 85 
184 127 328 102 91 83 
277 317 122 187 126 100 
164 315 275 109 112 118 
299 201 250 103 115 129 
280 525 407 80 106 157 
275 817 260 147 119 111 
170 365 236 129 143 161 
186 126 328 95 85 79 
311 443 340 115 134 156 
240 270 202 113 98 84 
290 158 350 62 51 40 
176 508 324 52 91 138 
169 303 301 72 111 142 
291 359 383 94 44 56 
188 632 366 168 119 104 
187 130 333 108 93 80 
194 634 313 118 82 71 
273 23 305 106 97 90 
278 293 109 60 76 113 
269 720 462 147 165 186 
344 221 331 96 38 55 
264 607 392 110 130 157 
341 208 320 99 40 56 
227 418 366 150 136 126 
297 849 283 215 160 124 
335 306 326 87 105 126 
302 483 399 86 110 154 
197 727 364 108 108 122 
345 635 178 113 114 118 
316 838 356 196 139 109 
298 512 402 183 174 173 
315 1000 332 126 94 69 
321 712 382 153 135 142 
175 515 325 127 140 160 
215 675 361 69 118 157 
199 520 344 118 135 157 
179 396 226 86 127 161 
307 771 395 177 147 115 
296 198 245 122 99 79 
316 54 306 121 114 108 
166 328 286 136 63 87 
313 371 234 141 110 64 
276 287 134 109 47 42 
233 502 199 195 70 15 
319 338 314 105 116 131 
314 300 299 70 103 127 
292 614 219 142 97 73 
335 784 311 165 135 102 
341 177 342 131 118 106 
192 737 357 171 152 136 
297 899 368 150 107 84 
210 501 234 84 110 135 
176 218 285 40 48 81 
287 739 431 109 100 97 
289 714 233 99 110 125 
301 872 349 155 110 76 
345 441 271 101 117 137 
176 325 330 174 143 100 
312 408 329 73 102 129 
288 636 448 69 118 154 
177 309 313 96 46 57 
206 305 343 141 82 76 
305 64 300 113 94 75 
266 389 146 191 187 192 
271 335 122 151 56 75 
321 356 248 92 110 129 
187 608 330 109 88 74 
325 413 229 99 118 138 
287 836 272 188 134 113 
328 938 333 82 65 53 
307 752 200 103 110 125 
183 440 310 126 137 156 
195 190 257 90 53 35 
344 667 296 105 123 143 
261 937 396 184 140 116 
240 353 161 64 101 128 
369 683 147 144 152 164 
324 495 237 87 110 139 
292 833 257 165 127 107 
207 202 355 87 62 84 
234 789 368 203 147 117 
216 472 375 160 155 156 
327 338 364 169 142 112 
172 427 326 131 116 108 
182 677 343 160 125 82 
238 626 397 43 62 79 
314 391 325 121 126 137 
212 581 391 107 121 146 
328 689 377 92 96 105 
196 569 353 98 121 156 
192 15 273 155 133 116 
194 491 279 85 109 144 
173 528 328 133 146 172 
200 394 337 159 135 111 
239 615 226 199 148 139 
276 827 376 179 129 103 
302 461 214 93 126 157 
370 693 239 168 164 168 
326 710 169 143 160 186 
317 812 374 196 140 107 
325 316 365 155 148 148 
222 759 437 108 98 106 
278 455 409 180 175 178 
191 425 215 135 155 181 
178 322 314 141 139 144 
283 235 240 109 85 82 
180 287 320 67 107 136 
364 716 265 110 154 190 
249 303 157 78 26 31 
352 728 291 177 47 53 
301 761 404 158 142 130 
195 186 357 106 33 54 
223 429 365 132 115 100 
342 778 287 142 118 102 
313 499 382 120 133 149 
192 709 489 112 151 200 
192 14 276 150 130 115 
270 283 144 105 36 51 
273 441 406 35 64 96 
286 557 218 99 112 151 
204 724 491 172 190 215 
245 910 305 125 70 44 
272 379 160 92 119 146 
256 424 156 156 59 93 
271 696 241 88 104 121 
240 925 302 140 93 72 
314 657 395 88 104 127 
292 634 381 101 110 121 
308 634 327 95 54 81 
339 693 346 154 166 184 
326 898 338 88 71 58 
208 540 377 130 137 150 
186 577 321 138 152 171 
324 838 272 182 162 149 
232 775 268 142 123 111 
313 171 277 119 67 2 
284 547 207 63 89 146 
323 950 319 96 74 58 
225 552 246 91 115 146 
266 226 183 78 43 40 
235 631 233 143 106 101 
274 319 147 116 31 52 
241 144 352 70 62 56 
313 240 285 97 84 75 
243 499 412 145 148 156 
222 285 349 150 152 162 
326 780 344 172 149 128 
184 431 313 60 83 120 
257 669 501 146 167 198 
198 13 274 142 125 111 
374 726 225 119 149 184 
336 466 261 103 126 160 
282 617 368 172 162 161 
308 538 222 88 99 114 
189 245 351 86 121 150 
196 466 247 185 179 182 
211 757 294 188 165 149 
340 270 360 165 53 36 
308 461 390 65 101 147 
200 499 347 132 146 165 
260 301 167 75 38 53 
247 812 413 197 138 113 
345 762 285 161 141 129 
298 622 339 167 163 168 
263 581 402 160 163 174 
229 695 510 171 173 184 
257 151 378 126 115 105 
278 630 365 66 86 107 
275 237 371 141 93 105 
184 347 327 148 116 75 
257 217 158 135 93 52 
254 301 363 139 141 149 
294 248 369 116 110 117 
342 271 330 107 39 24 
218 412 355 127 57 8 
238 268 358 81 131 168 
195 11 280 143 126 112 
339 678 339 78 116 147 
296 300 242 110 128 148 
309 616 202 72 110 151 
239 963 382 184 136 116 
271 832 286 204 141 122 
242 726 492 155 168 188 
181 486 330 70 98 142 
270 929 394 168 133 104 
330 657 299 83 86 93 
195 716 353 136 40 31 
259 153 379 105 95 87 
281 435 183 100 121 144 
209 322 211 78 99 119 
233 290 212 101 47 38 
273 889 385 162 116 87 
258 197 380 142 113 110 
361 772 213 162 184 210 
246 577 405 125 140 168 
194 11 287 143 126 112 
286 237 246 94 98 106 
165 235 294 106 55 74 
238 639 229 189 130 113 
220 756 450 180 162 149 
331 678 369 81 89 100 
270 536 199 69 100 180 
236 634 394 30 51 68 
274 11 318 113 101 91 
232 452 184 143 125 136 
248 813 320 191 134 115 
280 590 397 114 126 159 
273 227 373 69 105 136 
321 318 369 169 161 159 
274 564 403 125 139 161 
294 611 215 129 96 100 
227 464 194 159 24 78 
306 489 218 120 135 160 
254 979 315 100 72 48 
253 282 109 131 57 2 
196 11 285 143 125 111 
237 899 326 122 95 66 
197 11 285 141 124 110 
264 177 226 133 82 51 
194 133 356 127 50 6 
189 698 330 148 127 111 
268 866 310 159 115 84 
176 295 330 144 143 148 
386 671 178 76 123 162 
227 620 247 44 51 87 
296 70 337 123 100 75 
324 122 320 111 91 68 
264 824 363 186 130 108 
288 662 458 56 98 166 
234 446 179 148 154 165 
172 351 341 154 0 59 
259 506 197 140 117 91 
221 925 359 118 95 78 
286 408 208 142 111 78 
174 135 325 120 89 50 
173 270 255 126 120 120 
271 209 376 107 110 118 
213 525 263 130 150 185 
276 763 439 177 158 145 
206 672 264 123 129 139 
162 193 306 131 41 71 
263 673 485 89 108 184 
224 534 238 127 147 170 
330 463 226 104 130 164 
376 707 224 96 149 190 
201 14 273 139 124 112 
254 265 132 11 70 107 
202 13 273 137 122 110 
334 450 292 137 150 168 
267 841 331 162 114 91 
266 989 371 100 83 66 
223 749 245 118 23 80 
327 410 252 45 96 131 
340 198 320 134 44 15 
228 344 192 72 105 131 
279 363 178 94 125 152 
194 609 311 156 159 170 
254 619 222 192 126 124 
203 15 272 135 122 111 
200 12 276 137 121 108 
352 708 306 157 171 191 
225 360 197 133 132 137 
305 476 394 119 137 169 
223 644 382 20 43 59 
318 689 192 77 97 135 
201 12 279 133 118 106 
205 642 439 92 80 71 
226 400 192 137 24 63 
262 926 290 72 54 52 
361 614 236 139 152 169 
216 558 277 38 56 82 
233 901 330 137 106 74 
310 629 207 144 98 72 
322 855 325 191 148 117 
314 651 214 97 97 103 
291 913 287 66 51 45 
326 695 157 30 73 118 
193 492 284 130 139 154 
229 269 353 82 128 163 
216 702 403 137 77 80 
230 631 245 67 94 119 
289 749 223 104 118 134 
274 335 124 148 61 90 
257 739 472 167 40 51 
286 444 197 115 124 137 
268 308 151 111 42 40 
378 742 194 116 138 170 
269 934 394 175 134 106 
273 275 223 98 58 73 
261 940 284 73 61 54 
312 111 334 117 96 75 
329 552 334 136 149 170 
306 396 310 108 123 141 
243 650 413 57 76 95 
320 222 365 99 35 46 
182 293 348 146 126 113 
333 492 255 60 67 114 
318 200 300 67 37 30 
164 227 297 87 68 90 
327 257 302 119 20 51 
319 395 368 105 128 155 
173 317 340 155 105 79 
328 264 306 74 85 96 
368 755 217 184 181 186 
245 426 161 152 160 176 
206 12 277 128 115 105 
306 194 258 137 119 106 
382 720 205 172 175 188 
231 479 194 188 159 132 
230 670 481 47 76 98 
330 435 226 98 121 147 
205 290 343 127 27 73 
246 702 493 136 154 188 
276 226 198 49 54 62 
393 679 163 92 125 154 
266 408 154 101 110 131 
342 736 313 171 25 51 
222 546 212 129 154 213 
333 478 256 138 144 156 
183 410 312 57 84 129 
214 465 206 87 106 141 
184 686 463 106 139 176 
283 775 426 159 110 58 
181 670 463 123 146 181 
202 11 282 127 113 102 
202 11 283 127 113 101 
294 620 222 146 84 60 
318 851 346 180 132 104 
272 403 168 136 141 152 
345 684 326 114 141 169 
296 638 360 86 91 98 
296 450 397 175 171 174 
276 806 419 192 126 94 
305 789 397 117 115 115 
330 505 314 114 136 163 
244 809 333 188 134 114 
272 770 441 175 154 137 
215 154 367 132 49 46 
326 658 358 34 54 70 
272 300 143 140 60 71 
256 210 165 127 96 60 
299 74 335 129 104 80 
278 361 212 104 112 123 
192 605 376 91 86 84 
261 709 475 74 123 175 
214 699 385 121 79 95 
210 305 344 138 25 70 
269 488 413 98 114 146 
196 571 295 129 144 165 
295 573 221 107 123 149 
331 188 305 122 90 84 
204 11 285 115 102 92 
313 111 334 115 94 73 
186 677 495 81 110 150 
337 588 298 164 159 162 
335 617 291 86 134 172 
368 638 230 117 146 176 
224 399 199 129 24 52 
215 546 274 112 72 104 
291 702 236 92 106 122 
250 906 389 192 145 125 
262 925 293 87 68 51 
286 527 405 107 122 156 
222 198 366 110 32 53 
355 717 158 69 101 177 
196 608 401 94 86 81 
206 12 280 124 112 102 
297 709 228 96 115 147 
240 494 406 131 134 143 
311 112 335 117 95 71 
168 352 286 97 116 136 
270 830 358 174 123 101 
296 43 318 88 93 99 
290 811 407 203 136 105 
225 438 198 171 147 125 
194 136 278 103 105 112 
261 268 172 65 40 20 
220 941 360 179 135 111 
194 562 338 66 92 118 
316 457 221 49 97 141 
200 481 252 69 86 148 
279 824 398 197 140 111 
341 700 339 165 176 194 
264 741 230 107 93 90 
278 1011 335 122 91 70 
239 457 393 59 89 116 
260 315 366 87 121 149 
271 328 370 88 127 159 
201 129 334 100 89 83 
187 659 476 120 94 67 
328 350 356 127 158 183 
179 446 323 88 107 139 
310 430 224 113 127 146 
242 666 245 49 77 109 
174 331 307 151 147 150 
240 797 362 205 149 123 
299 321 279 73 77 100 
276 421 176 138 141 151 
287 354 221 102 109 119 
331 470 241 65 95 152 
318 390 264 116 128 144 
356 611 251 136 148 165 
374 626 204 122 142 166 
346 673 248 127 137 152 
196 650 396 53 98 131 
290 831 259 45 47 88 
303 157 279 157 133 114 
250 987 352 97 73 62 
306 574 231 131 132 137 
240 930 288 155 129 108 
172 265 315 120 126 137 
178 237 338 143 141 144 
267 688 477 165 176 194 
334 515 304 127 140 160 
301 539 394 196 187 187 
313 837 361 194 138 108 
341 541 233 104 113 126 
231 648 388 67 74 84 
198 20 271 162 139 121 
275 231 210 106 45 60 
199 21 271 164 141 121 
200 16 271 146 129 115 
222 599 246 75 112 153 
322 949 375 116 98 84 
228 489 199 190 161 131 
268 153 335 66 54 44 
215 633 383 80 59 73 
205 513 258 85 110 135 
195 499 284 59 84 133 
203 648 389 31 50 71 
232 330 183 77 104 128 
246 245 365 136 88 86 
327 388 235 99 53 60 
238 293 184 104 87 75 
265 930 285 102 80 73 
200 21 271 163 140 120 
263 306 103 190 131 145 
287 826 247 182 149 114 
279 243 231 124 84 67 
189 630 440 111 92 71 
335 222 298 95 38 52 
210 730 249 160 26 40 
258 264 105 141 121 104 
303 713 415 169 24 44 
196 712 318 115 69 56 
301 636 341 137 139 147 
249 554 412 109 120 146 
216 700 410 101 121 146 
205 18 271 132 121 114 
216 699 422 140 57 61 
313 976 306 116 92 63 
223 770 409 139 104 63 
310 134 340 109 89 68 
184 493 314 49 73 123 
204 21 271 156 135 117 
173 281 312 137 139 145 
239 281 357 77 118 155 
185 607 395 101 89 79 
338 169 338 111 102 94 
212 493 379 97 113 141 
239 430 382 98 115 134 
318 118 330 109 90 70 
339 530 247 160 164 175 
263 712 471 146 152 186 
317 700 397 165 174 189 
317 714 165 132 150 178 
281 177 227 143 74 7 
233 942 312 88 66 62 
169 376 276 88 116 146 
374 672 217 84 134 173 
212 738 467 83 99 141 
298 370 225 114 43 40 
306 651 412 122 143 167 
183 316 346 181 153 123 
361 689 150 54 90 138 
202 571 288 79 102 141 
188 700 470 103 126 188 
197 258 240 134 129 129 
227 573 256 100 118 138 
281 674 247 39 56 81 
258 184 382 139 127 126 
192 21 272 177 148 133 
314 199 269 152 123 105 
227 135 355 91 64 42 
192 427 289 89 105 137 
202 711 275 157 61 67 
251 779 247 113 123 138 
205 208 354 85 69 87 
221 267 349 155 156 165 
190 671 376 135 136 178 
186 654 303 82 58 76 
195 21 272 174 146 129 
336 225 358 91 28 31 
304 759 207 123 136 154 
346 444 270 145 147 160 
270 976 305 99 69 49 
224 393 355 147 127 107 
216 637 258 110 68 78 
277 282 186 113 41 48 
257 149 335 61 47 35 
198 698 301 107 74 51 
314 912 355 94 72 56 
335 453 234 68 104 164 
247 316 135 146 68 75 
278 313 123 163 101 62 
314 276 285 110 129 152 
218 428 357 119 108 100 
199 21 272 168 143 122 
246 264 167 120 65 66 
247 665 246 111 115 124 
198 23 273 186 155 139 
377 673 211 74 124 166 
315 436 348 64 101 154 
203 141 266 125 123 124 
374 655 175 148 150 158 
223 145 374 144 69 4 
193 634 402 124 84 67 
175 534 334 70 86 109 
245 433 163 135 153 179 
259 791 249 183 156 129 
193 559 336 58 81 108 
276 245 201 114 48 51 
245 447 394 62 88 120 
236 284 207 109 62 64 
337 669 339 164 163 169 
228 142 377 144 79 13 
295 351 229 85 99 114 
313 248 278 79 40 48 
287 824 236 166 142 119 
287 652 250 107 76 95 
249 301 112 161 99 87 
193 26 276 194 152 147 
253 989 353 130 108 88 
262 275 365 80 131 169 
181 637 420 164 116 93 
183 128 330 99 89 81 
268 535 409 115 131 157 
337 607 292 76 132 173 
193 27 279 188 157 155 
213 497 221 139 149 163 
281 943 390 119 93 74 
195 26 276 194 166 159 
195 745 331 168 135 95 
204 530 265 105 141 208 
318 875 339 108 74 53 
184 623 379 166 116 102 
177 329 311 135 135 142 
286 139 310 94 67 30 
265 609 222 97 85 74 
241 439 387 71 100 127 
221 930 370 129 108 87 
193 421 321 73 81 94 
199 470 244 118 128 151 
309 302 294 87 71 86 
322 553 363 131 140 174 
243 304 167 39 57 76 
201 555 364 166 164 168 
182 191 340 130 45 66 
222 949 358 176 137 110 
354 664 158 106 116 130 
220 619 260 126 123 125 
199 24 273 186 155 140 
285 440 198 90 111 133 
237 797 422 189 162 135 
188 674 497 82 103 144 
374 635 208 127 133 144 
199 26 274 174 137 127 
199 26 275 161 113 100 
213 573 392 111 130 154 
280 350 217 125 125 129 
232 874 373 140 107 83 
354 752 267 93 78 104 
255 766 238 104 105 122 
177 426 331 113 98 83 
231 226 364 48 74 115 
333 701 364 181 177 182 
377 745 183 109 125 193 
331 598 308 152 151 157 
318 716 193 41 57 94 
343 453 263 142 149 169 
219 706 513 119 139 190 
263 241 371 161 118 99 
220 524 236 118 127 167 
184 267 243 131 126 127 
223 437 200 150 129 110 
270 826 279 174 124 100 
169 331 241 156 121 82 
227 901 373 164 117 99 
271 236 138 119 102 90 
266 836 302 177 130 105 
197 423 300 72 88 102 
276 351 201 136 137 143 
269 58 300 86 71 56 
271 151 311 73 62 50 
307 123 304 102 87 71 
243 323 158 82 80 86 
192 27 281 193 168 161 
206 730 265 170 63 70 
342 200 337 92 55 48 
290 147 342 65 55 44 
298 902 285 86 64 59 
317 493 348 130 136 148 
216 540 397 141 148 160 
192 28 283 154 133 122 
302 349 298 146 144 148 
338 468 294 105 125 152 
289 632 409 67 100 127 
299 670 437 74 84 126 
285 139 323 81 61 37 
211 631 387 109 88 82 
295 669 239 108 120 142 
348 652 258 100 127 153 
171 128 293 130 110 95 
311 417 302 63 91 129 
190 668 320 129 66 28 
210 626 395 71 58 53 
298 515 401 180 174 177 
324 624 299 84 125 159 
210 162 256 122 36 27 
312 318 373 109 124 146 
240 927 297 106 85 65 
277 853 305 178 135 104 
195 31 282 136 102 74 
183 472 311 89 116 150 
198 609 297 171 166 170 
248 719 231 102 113 128 
269 682 244 90 99 112 
309 700 414 137 160 191 
182 646 454 125 98 69 
274 944 289 66 55 46 
321 393 348 173 167 169 
307 858 350 158 111 80 
305 370 381 152 140 134 
228 224 362 58 77 112 
300 321 288 81 111 139 
318 605 326 151 149 156 
304 707 207 116 134 164 
336 486 298 118 135 156 
349 667 157 90 108 128 
316 794 381 163 120 84 
206 673 510 73 67 62 
374 749 201 134 160 190 
195 681 313 168 111 31 
261 587 219 107 124 185 
258 375 136 166 53 99 
352 789 232 187 30 54 
358 599 202 76 106 133 
348 688 316 144 153 169 
189 528 311 49 82 125 
310 647 390 151 153 161 
206 291 343 133 8 60 
283 1011 341 102 72 51 
190 702 498 127 153 193 
200 626 435 105 91 77 
310 769 186 128 139 177 
300 750 215 113 131 151 
273 318 171 75 51 53 
277 218 201 37 73 100 
319 805 373 180 128 97 
182 643 450 123 98 70 
296 367 224 113 40 30 
206 720 259 139 57 55 
300 1006 310 160 120 90 
292 226 365 124 39 68 
171 429 328 106 91 96 
203 23 272 171 141 121 
356 780 220 202 22 44 
224 759 462 169 173 189 
205 16 272 129 118 109 
176 366 302 152 136 128 
181 176 332 76 67 77 
225 297 349 153 152 159 
292 224 365 117 50 71 
164 226 304 90 61 76 
330 663 353 83 93 105 
208 561 385 91 118 143 
207 17 272 129 118 109 
227 693 513 173 176 193 
197 418 214 76 105 136 
228 912 379 171 122 106 
306 789 396 97 103 112 
269 745 231 65 43 44 
257 635 412 74 89 106 
313 407 228 72 98 122 
287 821 225 103 83 74 
202 454 346 55 87 141 
277 819 407 201 137 110 
340 240 320 55 38 44 
182 371 326 125 100 76 
159 340 263 103 126 147 
280 386 192 111 122 137 
200 26 275 161 106 92 
200 27 275 164 109 91 
201 26 274 168 116 101 
299 411 217 123 83 83 
268 11 341 107 97 90 
197 601 300 76 106 140 
202 24 273 176 140 125 
346 718 318 149 168 190 
285 35 315 83 75 69 
176 213 285 46 45 75 
218 685 520 108 115 185 
279 943 390 124 96 73 
339 665 320 154 154 161 
200 165 261 86 49 40 
300 566 222 81 104 135 
278 898 303 70 56 41 
320 892 344 85 67 51 
183 393 316 115 96 81 
310 977 353 94 78 66 
350 788 250 135 19 63 
320 957 322 107 79 60 
282 45 309 100 88 78 
176 293 339 108 122 139 
373 698 234 161 158 161 
165 130 297 120 105 95 
232 378 359 167 146 126 
300 913 366 156 108 87 
194 664 295 109 112 150 
257 719 475 160 171 189 
227 474 198 168 135 104 
314 949 379 96 80 64 
257 924 293 94 71 50 
266 667 488 149 154 194 
277 344 371 132 124 124 
198 604 361 37 46 56 
225 538 248 120 125 136 
203 257 349 144 144 150 
321 616 311 90 116 145 
314 561 233 85 109 133 
243 436 387 63 93 127 
266 451 408 60 82 108 
223 655 447 55 77 96 
316 582 353 128 132 153 
226 505 207 155 131 125 
340 734 320 140 41 74 
223 418 358 134 120 108 
164 359 257 116 134 157 
337 933 373 94 81 71 
305 637 334 118 129 144 
199 352 210 117 115 117 
340 802 284 160 142 129 
320 373 367 167 74 112 
165 324 282 131 61 90 
297 122 339 101 84 66 
228 303 351 140 140 146 
327 561 231 141 148 160 
187 227 349 111 16 55 
312 836 238 208 180 156 
192 378 215 122 132 146 
317 974 313 111 87 60 
374 668 210 65 102 137 
192 466 301 110 122 141 
229 942 383 188 143 121 
346 786 269 141 121 106 
217 460 204 141 109 90 
240 388 152 89 114 138 
217 206 361 63 38 46 
193 172 264 64 64 72 
207 26 272 161 109 96 
209 743 278 143 123 113 
330 399 237 129 134 143 
246 985 356 102 86 75 
256 222 374 133 97 99 
240 139 333 65 55 48 
183 312 327 96 93 92 
344 568 255 112 133 158 
182 169 331 83 63 77 
205 29 275 154 108 83 
270 252 369 160 124 96 
323 841 327 188 144 113 
265 491 188 143 129 142 
170 431 327 99 98 130 
307 744 203 97 111 131 
207 28 273 150 99 84 
342 251 326 82 44 61 
332 690 159 73 104 142 
360 708 281 148 166 188 
292 873 295 154 104 71 
303 848 279 235 165 129 
297 194 246 146 116 83 
270 999 301 184 154 127 
172 332 334 180 151 120 
164 210 309 103 49 67 
297 844 276 217 164 133 
294 584 227 56 88 126 
182 272 348 126 132 143 
255 257 134 112 101 88 
310 460 380 83 114 172 
236 295 192 113 89 73 
303 579 231 79 91 103 
315 425 226 96 112 131 
362 643 235 127 161 194 
345 777 186 69 72 137 
188 615 328 56 58 78 
181 641 434 146 106 78 
284 375 214 110 84 53 
213 653 446 73 62 58 
336 720 339 175 21 50 
289 711 438 165 176 193 
227 890 342 152 112 86 
326 795 194 143 130 146 
329 67 323 136 98 76 
263 403 384 118 26 58 
208 13 277 125 113 104 
330 494 311 58 95 144 
258 985 376 110 93 77 
329 688 158 49 87 117 
297 284 369 167 164 169 
236 698 239 92 105 119 
301 794 403 174 126 92 
240 750 236 196 134 82 
331 793 321 178 163 153 
321 549 367 214 201 196 
190 448 248 163 166 179 
274 164 360 92 84 80 
318 699 158 117 149 186 
333 599 304 125 40 56 
300 409 218 128 77 88 
322 151 311 85 75 64 
337 189 355 143 69 14 
206 738 282 138 111 84 
234 781 274 203 175 151 
203 306 218 87 110 132 
245 694 496 114 128 180 
222 145 256 139 76 20 
212 14 276 125 113 104 
201 713 294 141 37 42 
246 620 392 44 52 65 
290 633 383 81 95 111 
234 968 370 152 116 100 
322 364 372 170 77 106 
275 824 382 184 136 110 
320 498 223 103 126 168 
290 691 447 160 173 191 
253 488 185 232 194 143 
346 456 282 103 126 156 
335 552 302 57 98 131 
361 773 218 169 185 207 
184 357 227 101 115 133 
334 676 355 156 166 184 
286 536 207 78 97 129 
170 363 287 75 88 129 
172 388 245 126 142 164 
325 642 299 154 153 159 
206 614 402 114 95 79 
317 275 290 86 111 137 
208 12 281 120 108 98 
341 714 333 161 173 191 
226 626 387 59 53 49 
208 12 282 119 107 97 
329 504 318 103 116 145 
259 818 411 195 132 107 
298 865 294 168 117 77 
224 436 371 128 131 140 
218 555 221 117 139 163 
200 554 291 77 103 153 
308 368 313 79 101 121 
293 571 394 159 155 160 
218 736 411 88 63 46 
339 497 261 172 175 184 
319 80 325 122 101 81 
289 249 247 67 77 88 
189 667 359 103 85 98 
240 948 307 81 62 56 
328 157 338 109 90 68 
203 135 267 159 83 11 
296 833 376 206 148 116 
201 392 207 146 131 121 
257 554 410 153 158 170 
169 200 321 111 66 67 
224 503 396 164 158 158 
284 93 308 89 74 57 
317 757 373 127 115 108 
185 226 347 96 68 89 
230 637 387 44 61 75 
377 644 205 144 141 144 
289 954 384 138 115 101 
222 383 202 89 104 120 
249 620 395 50 62 75 
290 559 397 153 157 167 
324 404 270 58 92 119 
302 981 359 78 56 50 
239 340 358 125 129 138 
162 321 258 99 104 111 
199 532 349 84 107 148 
170 371 283 62 88 134 
231 254 355 79 127 162 
268 31 308 90 76 62 
282 200 366 121 94 82 
314 902 350 97 76 56 
326 563 340 125 136 159 
374 748 206 177 179 192 
344 708 163 81 125 180 
356 679 249 45 81 110 
171 427 327 133 116 110 
168 213 316 102 78 101 
198 163 359 42 72 113 
321 835 244 211 188 171 
325 794 349 143 133 128 
275 1006 300 170 150 135 
278 818 407 201 138 110 
323 264 371 101 41 44 
317 635 310 84 126 159 
277 332 140 67 39 73 
276 422 176 154 154 162 
222 569 404 209 189 176 
210 533 267 111 125 153 
176 340 308 155 151 154 
279 417 178 145 145 150 
326 638 183 80 107 136 
211 752 288 167 141 118 
214 504 383 106 118 140 
342 438 277 86 109 134 
328 90 309 128 83 73 
255 689 489 132 157 185 
171 179 325 113 73 86 
329 538 339 113 130 150 
286 421 400 82 110 138 
260 243 168 124 38 15 
187 382 317 112 80 62 
349 687 156 88 102 138 
308 442 222 86 112 144 
204 535 366 77 98 138 
215 759 281 151 125 114 
237 441 174 151 72 84 
292 382 218 95 51 53 
338 821 248 173 151 134 
312 489 216 113 128 149 
238 339 168 72 106 132 
201 539 289 102 119 140 
271 181 209 144 81 38 
321 178 298 133 66 6 
327 718 172 132 146 175 
259 447 168 185 185 199 
206 730 485 148 167 186 
311 398 382 95 122 162 
207 599 275 80 111 140 
299 840 266 183 162 144 
343 686 332 176 177 186 
251 303 361 162 160 166 
342 698 339 165 177 195 
176 399 277 44 83 128 
265 769 453 146 126 112 
202 173 358 42 37 48 
192 669 361 130 118 109 
242 269 180 109 81 73 
337 608 291 74 131 173 
185 694 480 164 172 188 
188 373 225 107 113 125 
285 29 352 118 95 70 
240 648 239 129 93 87 
208 17 273 128 118 109 
229 348 187 84 74 82 
260 552 214 152 150 173 
208 18 272 128 119 112 
249 863 357 176 101 13 
236 644 242 72 80 108 
247 804 285 199 148 121 
246 564 216 97 127 193 
248 144 326 64 52 39 
253 511 194 177 149 113 
186 454 268 91 119 159 
277 869 357 136 98 69 
276 319 118 192 125 104 
236 478 187 134 141 154 
281 271 112 158 66 4 
290 633 413 109 122 137 
262 215 376 120 93 109 
382 734 186 140 157 178 
262 230 142 128 104 86 
329 316 316 86 115 143 
215 253 348 126 132 143 
241 977 331 95 74 60 
211 737 472 174 80 80 
316 646 345 121 126 136 
246 140 314 72 62 52 
342 692 163 10 57 126 
329 731 346 183 82 79 
239 661 463 89 102 116 
218 694 518 83 115 179 
187 607 373 111 96 83 
194 488 273 114 134 158 
359 616 244 100 128 156 
221 945 369 180 135 111 
181 272 346 151 153 161 
162 321 274 106 106 116 
244 340 132 139 104 96 
234 785 283 149 121 105 
321 785 191 163 179 201 
312 253 269 101 84 91 
259 462 174 222 184 138 
261 764 461 145 122 101 
327 904 330 66 52 41 
273 34 347 124 93 76 
283 366 380 143 141 144 
210 730 463 164 86 77 
339 753 306 91 110 129 
239 141 358 83 67 52 
277 966 297 148 114 78 
344 799 258 157 141 133 
231 745 236 173 85 94 
323 198 288 82 63 69 
198 523 296 108 118 139 
303 318 271 86 119 148 
186 626 390 164 118 99 
196 354 211 135 133 135 
329 470 228 54 95 153 
184 303 326 89 97 108 
282 401 190 133 132 137 
287 630 414 75 105 132 
218 767 394 182 164 153 
352 603 256 111 135 162 
212 20 272 152 128 105 
295 852 289 194 150 119 
212 21 272 162 140 120 
342 463 288 100 120 151 
295 155 256 147 114 94 
312 823 212 190 148 132 
265 770 230 137 118 100 
277 153 284 91 71 45 
212 22 273 117 105 97 
183 288 235 115 115 118 
227 374 187 104 121 142 
297 1003 304 127 82 50 
186 288 325 70 92 115 
246 145 378 116 102 88 
237 346 170 94 30 53 
